ply
format ascii 1.0
element vertex 1378
property double x
property double y
property double z
property uchar red
property uchar green
property uchar blue
element face 0
property list uchar int vertex_indices
end_header
-5.604843 -13.222636 1.874 0 255 0
-5.670187 -13.170261 1.454 0 255 0
-5.517944 -13.263546 1.896 0 255 0
-5.645744 -13.190573 1.622 0 255 0
-5.66681 -13.196673 1.893 0 255 0
-5.549129 -13.247656 1.863 0 255 0
-5.650704 -13.195901 1.75 0 255 0
-5.529544 -13.25988 1.932 0 255 0
-5.657378 -13.191378 1.74 0 255 0
-5.652452 -13.190521 1.682 0 255 0
-5.676242 -13.201969 2.063 0 255 0
-5.58625 -13.247822 2.158 0 255 0
-5.650284 -13.199483 1.813 0 255 0
-5.63512 -13.204965 1.787 0 255 0
-5.643525 -13.192825 1.656 0 255 0
-5.653865 -13.199903 1.863 0 255 0
-5.665397 -13.187292 1.713 0 255 0
-5.637491 -13.222835 2.123 0 255 0
-5.675062 -13.164411 1.392 0 255 0
-5.573725 -13.247469 2.064 0 255 0
-5.600018 -13.235195 2.052 0 255 0
-5.68875 -13.200085 2.142 0 255 0
-5.412856 -13.323825 2.13 0 255 0
-5.6405 -13.206713 1.867 0 255 0
-5.61382 -13.227039 2.023 0 255 0
-5.574196 -13.250596 2.113 0 255 0
-5.526417 -13.260351 1.902 0 255 0
-5.481917 -13.289759 2.081 0 255 0
-5.627589 -13.214414 1.896 0 255 0
-5.672122 -13.189477 1.819 0 255 0
-5.680039 -13.171975 1.568 0 255 0
-5.68051 -13.175102 1.628 0 255 0
-5.472991 -13.292063 2.052 0 255 0
-5.619955 -13.210445 1.778 0 255 0
-5.454279 -13.301597 2.062 0 255 0
-5.62315 -13.21892 1.947 0 255 0
-5.649495 -13.213352 2.052 0 255 0
-5.439149 -13.31155 2.12 0 255 0
-5.647173 -13.202189 1.848 0 255 0
-5.511707 -13.266724 1.902 0 255 0
-5.652418 -13.186049 1.588 0 255 0
-5.691724 -13.179489 1.791 0 255 0
-5.57759 -13.226421 1.724 0 255 0
-5.678291 -13.177356 1.641 0 255 0
-5.524669 -13.265731 1.979 0 255 0
-5.563402 -13.242628 1.886 0 255 0
-5.643678 -13.21295 2.013 0 255 0
-5.62811 -13.224249 2.082 0 255 0
-5.648166 -13.215151 2.071 0 255 0
-5.654319 -13.200794 1.872 0 255 0
-5.527728 -13.256316 1.85 0 255 0
-5.597193 -13.216434 1.701 0 255 0
-5.643962 -13.191481 1.625 0 255 0
-5.661765 -13.180164 1.57 0 255 0
-5.565269 -13.2529 2.081 0 255 0
-5.550525 -13.254801 1.999 0 255 0
-5.586653 -13.242004 2.065 0 255 0
-5.688177 -13.183542 1.831 0 255 0
-5.578044 -13.227311 1.731 0 255 0
-5.667548 -13.176095 1.542 0 255 0
-5.645375 -13.200861 1.812 0 255 0
-5.574463 -13.226892 1.691 0 255 0
-5.636532 -13.214345 1.962 0 255 0
-5.542438 -13.249943 1.859 0 255 0
-5.582652 -13.245166 2.091 0 255 0
-5.623604 -13.21981 1.961 0 255 0
-5.609331 -13.224838 1.944 0 255 0
-5.477428 -13.287557 1.989 0 255 0
-5.697859 -13.162895 1.557 0 255 0
-5.619905 -13.203738 1.654 0 255 0
-5.489953 -13.287909 2.112 0 255 0
-5.666203 -13.175659 1.521 0 255 0
-5.576245 -13.225984 1.699 0 255 0
-5.468518 -13.292096 2.004 0 255 0
-5.693455 -13.171874 1.67 0 255 0
-5.566966 -13.240812 1.881 0 255 0
-5.599462 -13.220887 1.782 0 255 0
-5.594167 -13.23032 1.925 0 255 0
-5.531275 -13.252264 1.804 0 255 0
-5.645845 -13.203988 1.863 0 255 0
-5.671986 -13.17159 1.502 0 255 0
-5.687269 -13.18176 1.792 0 255 0
-5.527308 -13.259897 1.902 0 255 0
-5.688279 -13.196958 2.078 0 255 0
-5.636397 -13.196458 1.661 0 255 0
-5.654217 -13.187378 1.628 0 255 0
-5.642837 -13.220111 2.119 0 255 0
-5.612305 -13.204243 1.599 0 255 0
-5.591999 -13.239281 2.052 0 255 0
-5.642702 -13.202223 1.801 0 255 0
-5.643071 -13.191935 1.617 0 255 0
-5.675232 -13.18677 1.794 0 255 0
-5.526065 -13.272876 2.121 0 255 0
-5.659261 -13.203886 1.97 0 255 0
-5.659784 -13.213722 2.151 0 255 0
-5.426238 -13.319251 2.156 0 255 0
-5.565252 -13.250665 2.04 0 255 0
-5.580785 -13.234894 1.885 0 255 0
-5.700448 -13.150354 1.355 0 255 0
-5.510362 -13.266287 1.876 0 255 0
-5.673131 -13.204676 2.099 0 255 0
-5.630363 -13.226467 2.127 0 255 0
-5.587578 -13.246022 2.147 0 255 0
-5.620948 -13.223408 2.001 0 255 0
-5.611063 -13.217222 1.811 0 255 0
-5.531729 -13.253155 1.825 0 255 0
-5.548709 -13.251238 1.916 0 255 0
-5.656202 -13.213301 2.117 0 255 0
-5.635204 -13.216144 1.997 0 255 0
-5.521593 -13.27291 2.086 0 255 0
-5.590217 -13.240189 2.061 0 255 0
-5.697354 -13.155296 1.414 0 255 0
-5.657111 -13.215084 2.154 0 255 0
-5.502342 -13.270372 1.888 0 255 0
-5.515776 -13.272507 2.034 0 255 0
-5.586568 -13.230824 1.86 0 255 0
-5.563805 -13.236812 1.786 0 255 0
-5.606289 -13.236488 2.129 0 255 0
-5.68463 -13.187594 1.879 0 255 0
-5.481463 -13.288868 2.057 0 255 0
-5.485447 -13.283471 1.999 0 255 0
-5.556223 -13.239552 1.783 0 255 0
-5.68051 -13.175102 1.624 0 255 0
-5.611584 -13.227057 1.991 0 255 0
-5.57675 -13.233582 1.834 0 255 0
-5.590654 -13.238843 2.033 0 255 0
-5.461441 -13.302436 2.126 0 255 0
-5.645426 -13.20757 1.93 0 255 0
-5.649007 -13.20799 1.96 0 255 0
-5.584435 -13.244258 2.09 0 255 0
-5.651731 -13.213335 2.07 0 255 0
-5.57448 -13.229128 1.744 0 255 0
-5.576279 -13.230455 1.773 0 255 0
-5.619149 -13.22208 1.967 0 255 0
-5.67219 -13.198421 1.975 0 255 0
-5.650619 -13.184721 1.557 0 255 0
-5.680862 -13.162578 1.405 0 255 0
-5.634279 -13.212126 1.913 0 255 0
-5.62172 -13.207302 1.72 0 255 0
-5.631454 -13.193364 1.56 0 255 0
-5.630766 -13.220651 2.033 0 255 0
-5.463172 -13.294821 2.007 0 255 0
-5.645426 -13.20757 1.914 0 255 0
-5.532268 -13.265226 2.037 0 255 0
-5.603867 -13.21191 1.662 0 255 0
-5.683705 -13.183576 1.808 0 255 0
-5.454716 -13.300251 2.037 0 255 0
-5.417328 -13.323792 2.154 0 255 0
-5.445369 -13.306136 2.072 0 255 0
-5.622594 -13.204612 1.686 0 255 0
-5.577777 -13.251017 2.143 0 255 0
-5.55624 -13.241789 1.823 0 255 0
-5.610727 -13.231983 2.08 0 255 0
-5.637895 -13.217019 2.035 0 255 0
-5.674239 -13.173809 1.557 0 255 0
-5.605194 -13.210111 1.655 0 255 0
-5.644382 -13.187899 1.562 0 255 0
-5.640398 -13.193296 1.625 0 255 0
-5.635018 -13.191548 1.561 0 255 0
-5.454716 -13.300251 2.035 0 255 0
-5.615182 -13.229712 2.072 0 255 0
-5.66644 -13.206963 2.071 0 255 0
-5.680527 -13.177339 1.66 0 255 0
-5.520282 -13.276945 2.153 0 255 0
-5.597158 -13.211961 1.615 0 255 0
-5.645442 -13.209805 1.954 0 255 0
-5.684982 -13.175069 1.673 0 255 0
-5.565184 -13.24172 1.878 0 255 0
-5.501974 -13.280663 2.066 0 255 0
-5.416874 -13.3229 2.143 0 255 0
-5.429348 -13.316544 2.122 0 255 0
-5.571472 -13.245251 1.996 0 255 0
-5.576818 -13.242527 1.987 0 255 0
-5.517978 -13.268018 1.98 0 255 0
-5.587442 -13.228134 1.829 0 255 0
-5.668927 -13.181005 1.646 0 255 0
-5.680005 -13.167503 1.493 0 255 0
-5.514045 -13.280124 2.159 0 255 0
-5.639626 -13.209402 1.911 0 255 0
-5.629926 -13.227812 2.15 0 255 0
-5.49123 -13.279402 1.963 0 255 0
-5.547398 -13.255273 1.975 0 255 0
-5.629841 -13.216632 1.957 0 255 0
-5.616005 -13.220315 1.916 0 255 0
-5.667786 -13.207399 2.097 0 255 0
-5.523392 -13.274238 2.126 0 255 0
-5.492643 -13.288782 2.138 0 255 0
-5.682661 -13.163906 1.443 0 255 0
-5.620376 -13.206865 1.706 0 255 0
-5.528233 -13.263915 1.993 0 255 0
-5.682241 -13.167487 1.5 0 255 0
-5.68014 -13.185391 1.798 0 255 0
-5.599093 -13.231177 1.978 0 255 0
-5.625319 -13.209958 1.809 0 255 0
-5.639456 -13.187042 1.51 0 255 0
-5.654807 -13.206156 1.971 0 255 0
-5.651226 -13.205736 1.931 0 255 0
-5.477479 -13.294265 2.115 0 255 0
-5.63739 -13.209419 1.893 0 255 0
-5.649762 -13.189648 1.646 0 255 0
-5.435148 -13.314712 2.142 0 255 0
-5.681469 -13.183593 1.79 0 255 0
-5.601346 -13.233396 2.032 0 255 0
-5.643087 -13.19417 1.675 0 255 0
-5.454733 -13.302487 2.088 0 255 0
-5.605852 -13.237834 2.139 0 255 0
-5.689051 -13.180852 1.799 0 255 0
-5.532671 -13.259409 1.936 0 255 0
-5.418202 -13.321101 2.124 0 255 0
-5.689369 -13.163855 1.507 0 255 0
-5.613718 -13.213624 1.779 0 255 0
-5.652469 -13.192758 1.715 0 255 0
-5.533613 -13.265663 2.05 0 255 0
-5.699556 -13.150808 1.347 0 255 0
-5.527308 -13.259897 1.911 0 255 0
-5.647662 -13.207552 1.933 0 255 0
-5.599547 -13.232068 1.985 0 255 0
-5.601193 -13.213272 1.672 0 255 0
-5.60222 -13.230705 1.989 0 255 0
-5.5438 -13.252616 1.918 0 255 0
-5.59457 -13.224503 1.811 0 255 0
-5.553113 -13.242259 1.808 0 255 0
-5.654705 -13.19274 1.741 0 255 0
-5.668961 -13.185476 1.725 0 255 0
-5.676577 -13.187207 1.819 0 255 0
-5.651765 -13.217808 2.149 0 255 0
-5.535882 -13.270118 2.157 0 255 0
-5.562443 -13.234138 1.727 0 255 0
-5.585172 -13.22368 1.736 0 255 0
-5.601278 -13.224452 1.867 0 255 0
-5.653308 -13.185595 1.601 0 255 0
-5.536184 -13.250885 1.817 0 255 0
-5.562074 -13.244428 1.909 0 255 0
-5.612055 -13.230185 2.065 0 255 0
-5.479647 -13.285303 1.968 0 255 0
-5.678847 -13.191663 1.9 0 255 0
-5.597731 -13.228504 1.92 0 255 0
-5.670424 -13.201566 2.02 0 255 0
-5.682848 -13.188502 1.892 0 255 0
-5.658455 -13.21552 2.162 0 255 0
-5.669953 -13.198439 1.95 0 255 0
-5.464988 -13.298385 2.087 0 255 0
-5.526871 -13.261242 1.929 0 255 0
-5.690413 -13.183525 1.846 0 255 0
-5.62226 -13.219374 1.938 0 255 0
-5.637491 -13.222835 2.12 0 255 0
-5.594939 -13.214214 1.638 0 255 0
-5.680039 -13.171975 1.569 0 255 0
-5.679517 -13.162141 1.397 0 255 0
-5.55624 -13.241789 1.818 0 255 0
-5.589207 -13.224991 1.784 0 255 0
-5.680964 -13.175994 1.656 0 255 0
-5.545111 -13.248581 1.857 0 255 0
-5.663734 -13.203853 1.995 0 255 0
-5.685487 -13.182668 1.793 0 255 0
-5.490407 -13.2888 2.118 0 255 0
-5.688313 -13.20143 2.159 0 255 0
-5.472133 -13.296988 2.123 0 255 0
-5.543346 -13.251725 1.885 0 255 0
-5.46408 -13.296602 2.044 0 255 0
-5.690765 -13.171 1.634 0 255 0
-5.44315 -13.30839 2.085 0 255 0
-5.485447 -13.283471 1.992 0 255 0
-5.599178 -13.242356 2.163 0 255 0
-5.601177 -13.211036 1.639 0 255 0
-5.650789 -13.207082 1.954 0 255 0
-5.494778 -13.27535 1.913 0 255 0
-5.481866 -13.283051 1.956 0 255 0
-5.614189 -13.216751 1.841 0 255 0
-5.643559 -13.197297 1.733 0 255 0
-5.645324 -13.194154 1.686 0 255 0
-5.476554 -13.290247 2.03 0 255 0
-5.527847 -13.271968 2.126 0 255 0
-5.654183 -13.182905 1.55 0 255 0
-5.574565 -13.240308 1.938 0 255 0
-5.539748 -13.249069 1.82 0 255 0
-5.522903 -13.268875 2.035 0 255 0
-5.682865 -13.190738 1.924 0 255 0
-5.50505 -13.273483 1.977 0 255 0
-5.475714 -13.297408 2.152 0 255 0
-5.483263 -13.290195 2.099 0 255 0
-5.672491 -13.179189 1.633 0 255 0
-5.675164 -13.177827 1.625 0 255 0
-5.577306 -13.24789 2.089 0 255 0
-5.638649 -13.198676 1.704 0 255 0
-5.509539 -13.275684 2.048 0 255 0
-5.629269 -13.200089 1.654 0 255 0
-5.660823 -13.17391 1.449 0 255 0
-5.647208 -13.206661 1.921 0 255 0
-5.65916 -13.19047 1.737 0 255 0
-5.69559 -13.158442 1.445 0 255 0
-5.582499 -13.225041 1.738 0 255 0
-5.499771 -13.285151 2.127 0 255 0
-5.688716 -13.195613 2.059 0 255 0
-5.619433 -13.200611 1.593 0 255 0
-5.658655 -13.182871 1.581 0 255 0
-5.665851 -13.188184 1.743 0 255 0
-5.68009 -13.178684 1.681 0 255 0
-5.692581 -13.174563 1.716 0 255 0
-5.67202 -13.176062 1.579 0 255 0
-5.483699 -13.288851 2.076 0 255 0
-5.659245 -13.201651 1.93 0 255 0
-5.606625 -13.221728 1.859 0 255 0
-5.641879 -13.211621 1.962 0 255 0
-5.661362 -13.185982 1.668 0 255 0
-5.605313 -13.225763 1.915 0 255 0
-5.532251 -13.262991 2.007 0 255 0
-5.686327 -13.175506 1.688 0 255 0
-5.462315 -13.299747 2.092 0 255 0
-5.697842 -13.16066 1.516 0 255 0
-5.529998 -13.260772 1.946 0 255 0
-5.626663 -13.210395 1.831 0 255 0
-5.538034 -13.258922 1.965 0 255 0
-5.50905 -13.270322 1.944 0 255 0
-5.562477 -13.23861 1.812 0 255 0
-5.582601 -13.238458 1.966 0 255 0
-5.537966 -13.249977 1.813 0 255 0
-5.686026 -13.194739 2.011 0 255 0
-5.620562 -13.231461 2.143 0 255 0
-5.505521 -13.27661 2.037 0 255 0
-5.675618 -13.178718 1.645 0 255 0
-5.635187 -13.213908 1.962 0 255 0
-5.54607 -13.257071 1.999 0 255 0
-5.497972 -13.283823 2.094 0 255 0
-5.584349 -13.233078 1.892 0 255 0
-5.613684 -13.209152 1.695 0 255 0
-5.603565 -13.231143 2.015 0 255 0
-5.685992 -13.190267 1.947 0 255 0
-5.636447 -13.203165 1.766 0 255 0
-5.61777 -13.217171 1.873 0 255 0
-5.674459 -13.202877 2.074 0 255 0
-5.592487 -13.244644 2.162 0 255 0
-5.6308 -13.225122 2.109 0 255 0
-5.68446 -13.165234 1.49 0 255 0
-5.588452 -13.243333 2.108 0 255 0
-5.574145 -13.243889 1.992 0 255 0
-5.695555 -13.153969 1.368 0 255 0
-5.493886 -13.275804 1.92 0 255 0
-5.595915 -13.22494 1.831 0 255 0
-5.683739 -13.188048 1.881 0 255 0
-5.619451 -13.202847 1.634 0 255 0
-5.681889 -13.180012 1.726 0 255 0
-5.598117 -13.220451 1.767 0 255 0
-5.50056 -13.27128 1.886 0 255 0
-5.676628 -13.193915 1.937 0 255 0
-5.610291 -13.233328 2.095 0 255 0
-5.488541 -13.278527 1.935 0 255 0
-5.594184 -13.232555 1.961 0 255 0
-5.681872 -13.177775 1.691 0 255 0
-5.662372 -13.20118 1.939 0 255 0
-5.664489 -13.185511 1.684 0 255 0
-5.514431 -13.27207 2.015 0 255 0
-5.630109 -13.192927 1.548 0 255 0
-5.690663 -13.157584 1.404 0 255 0
-5.417765 -13.322446 2.146 0 255 0
-5.67244 -13.172481 1.527 0 255 0
-5.555315 -13.237771 1.734 0 255 0
-5.536201 -13.25312 1.85 0 255 0
-5.589661 -13.225882 1.81 0 255 0
-5.63285 -13.200509 1.702 0 255 0
-5.641424 -13.210731 1.938 0 255 0
-5.62231 -13.226081 2.059 0 255 0
-5.516599 -13.263108 1.881 0 255 0
-5.583878 -13.229951 1.826 0 255 0
-5.566024 -13.234559 1.76 0 255 0
-5.635608 -13.210328 1.889 0 255 0
-5.579003 -13.235802 1.888 0 255 0
-5.607414 -13.207858 1.629 0 255 0
-5.653428 -13.201248 1.882 0 255 0
-5.651526 -13.186503 1.602 0 255 0
-5.688512 -13.16878 1.585 0 255 0
-5.685169 -13.199665 2.104 0 255 0
-5.676208 -13.197497 1.996 0 255 0
-5.58877 -13.226336 1.795 0 255 0
-5.549112 -13.24542 1.828 0 255 0
-5.509908 -13.265396 1.856 0 255 0
-5.663666 -13.194908 1.849 0 255 0
-5.581239 -13.235785 1.911 0 255 0
-5.623486 -13.204158 1.679 0 255 0
-5.495299 -13.285185 2.091 0 255 0
-5.626108 -13.196089 1.563 0 255 0
-5.578515 -13.230438 1.789 0 255 0
-5.610188 -13.219913 1.853 0 255 0
-5.51934 -13.270691 2.043 0 255 0
-5.623991 -13.211757 1.829 0 255 0
-5.662003 -13.211469 2.126 0 255 0
-5.463189 -13.297056 2.043 0 255 0
-5.502342 -13.270372 1.889 0 255 0
-5.593225 -13.224066 1.793 0 255 0
-5.605296 -13.223527 1.875 0 255 0
-5.644132 -13.21384 2.013 0 255 0
-5.513557 -13.27476 2.06 0 255 0
-5.491213 -13.277165 1.928 0 255 0
-5.56885 -13.253321 2.113 0 255 0
-5.580433 -13.247418 2.107 0 255 0
-5.67034 -13.190385 1.81 0 255 0
-5.601227 -13.217744 1.745 0 255 0
-5.501956 -13.278426 2.037 0 255 0
-5.572397 -13.249269 2.085 0 255 0
-5.599883 -13.217307 1.731 0 255 0
-5.692178 -13.180381 1.806 0 255 0
-5.472099 -13.292517 2.053 0 255 0
-5.545514 -13.242764 1.754 0 255 0
-5.530519 -13.270606 2.114 0 255 0
-5.433366 -13.315619 2.139 0 255 0
-5.606289 -13.236488 2.122 0 255 0
-5.541967 -13.246817 1.794 0 255 0
-5.504663 -13.281536 2.101 0 255 0
-5.65664 -13.211957 2.096 0 255 0
-5.617351 -13.220752 1.929 0 255 0
-5.688949 -13.167436 1.562 0 255 0
-5.474336 -13.2925 2.061 0 255 0
-5.456078 -13.302924 2.101 0 255 0
-5.681872 -13.177775 1.693 0 255 0
-5.643071 -13.191935 1.624 0 255 0
-5.618712 -13.223425 1.987 0 255 0
-5.679517 -13.162141 1.387 0 255 0
-5.62836 -13.198307 1.63 0 255 0
-5.687706 -13.180415 1.78 0 255 0
-5.559049 -13.258314 2.131 0 255 0
-5.640415 -13.195532 1.671 0 255 0
-5.483683 -13.286614 2.025 0 255 0
-5.54074 -13.262031 2.045 0 255 0
-5.670929 -13.209165 2.162 0 255 0
-5.544759 -13.261106 2.066 0 255 0
-5.59188 -13.223629 1.789 0 255 0
-5.54027 -13.258904 1.988 0 255 0
-5.613196 -13.203789 1.604 0 255 0
-5.52951 -13.255408 1.845 0 255 0
-5.694834 -13.176783 1.768 0 255 0
-5.640063 -13.208057 1.886 0 255 0
-5.634581 -13.192893 1.573 0 255 0
-5.428457 -13.316998 2.137 0 255 0
-5.693404 -13.165166 1.555 0 255 0
-5.603985 -13.227562 1.938 0 255 0
-5.691724 -13.179489 1.789 0 255 0
-5.483228 -13.285724 2.021 0 255 0
-5.619115 -13.217608 1.898 0 255 0
-5.523341 -13.26753 2.016 0 255 0
-5.694732 -13.163367 1.535 0 255 0
-5.570127 -13.244813 1.989 0 255 0
-5.624309 -13.19476 1.535 0 255 0
-5.555922 -13.258786 2.109 0 255 0
-5.648116 -13.208444 1.954 0 255 0
-5.517978 -13.268018 1.97 0 255 0
-5.605801 -13.231126 2.028 0 255 0
-5.600353 -13.220433 1.797 0 255 0
-5.688699 -13.193377 2.021 0 255 0
-5.625284 -13.205485 1.727 0 255 0
-5.604961 -13.238288 2.14 0 255 0
-5.674812 -13.190352 1.842 0 255 0
-5.483279 -13.292432 2.131 0 255 0
-5.675618 -13.178718 1.66 0 255 0
-5.622225 -13.214901 1.861 0 255 0
-5.641441 -13.212966 1.977 0 255 0
-5.641374 -13.204022 1.818 0 255 0
-5.621334 -13.215355 1.859 0 255 0
-5.619133 -13.219844 1.935 0 255 0
-5.618644 -13.21448 1.836 0 255 0
-5.517944 -13.263546 1.906 0 255 0
-5.586165 -13.236642 1.955 0 255 0
-5.494794 -13.277586 1.959 0 255 0
-5.684409 -13.158526 1.37 0 255 0
-5.567352 -13.232759 1.744 0 255 0
-5.57776 -13.24878 2.12 0 255 0
-5.543732 -13.243672 1.759 0 255 0
-5.596488 -13.241483 2.135 0 255 0
-5.685101 -13.190721 1.931 0 255 0
-5.620948 -13.223408 2.006 0 255 0
-5.602674 -13.231597 2.0 0 255 0
-5.608508 -13.234236 2.098 0 255 0
-5.634632 -13.199601 1.689 0 255 0
-5.578918 -13.224622 1.692 0 255 0
-5.611533 -13.220348 1.875 0 255 0
-5.546138 -13.266015 2.156 0 255 0
-5.691605 -13.163837 1.525 0 255 0
-5.674188 -13.1671 1.43 0 255 0
-5.560224 -13.236391 1.751 0 255 0
-5.5127 -13.279686 2.136 0 255 0
-5.650182 -13.186067 1.575 0 255 0
-5.491213 -13.277165 1.921 0 255 0
-5.554543 -13.253877 2.024 0 255 0
-5.581693 -13.236675 1.929 0 255 0
-5.599127 -13.235649 2.045 0 255 0
-5.605296 -13.223527 1.881 0 255 0
-5.544674 -13.249927 1.866 0 255 0
-5.589814 -13.246006 2.154 0 255 0
-5.567386 -13.237231 1.826 0 255 0
-5.672508 -13.181424 1.677 0 255 0
-5.671583 -13.177406 1.599 0 255 0
-5.635658 -13.217035 2.006 0 255 0
-5.566126 -13.247974 2.002 0 255 0
-5.635035 -13.193785 1.586 0 255 0
-5.639694 -13.218347 2.062 0 255 0
-5.6658 -13.181476 1.63 0 255 0
-5.593208 -13.221829 1.755 0 255 0
-5.577777 -13.251017 2.145 0 255 0
-5.672474 -13.176952 1.602 0 255 0
-5.642837 -13.220111 2.13 0 255 0
-5.428894 -13.315654 2.115 0 255 0
-5.555315 -13.237771 1.73 0 255 0
-5.690867 -13.184416 1.876 0 255 0
-5.627033 -13.200106 1.649 0 255 0
-5.626799 -13.228283 2.132 0 255 0
-5.617889 -13.232822 2.141 0 255 0
-5.571943 -13.248377 2.053 0 255 0
-5.562596 -13.254263 2.095 0 255 0
-5.681185 -13.205062 2.159 0 255 0
-5.631907 -13.194255 1.585 0 255 0
-5.460936 -13.294837 1.996 0 255 0
-5.679687 -13.184501 1.796 0 255 0
-5.645442 -13.209805 1.96 0 255 0
-5.619184 -13.226552 2.042 0 255 0
-5.567505 -13.252884 2.1 0 255 0
-5.5612 -13.247117 1.96 0 255 0
-5.524669 -13.265731 1.981 0 255 0
-5.680243 -13.198808 2.051 0 255 0
-5.661311 -13.179274 1.557 0 255 0
-5.627673 -13.225593 2.096 0 255 0
-5.477008 -13.291138 2.065 0 255 0
-5.505907 -13.268557 1.881 0 255 0
-5.542404 -13.245471 1.768 0 255 0
-5.571909 -13.243905 1.984 0 255 0
-5.494408 -13.285639 2.093 0 255 0
-5.695606 -13.160677 1.486 0 255 0
-5.600018 -13.235195 2.058 0 255 0
-5.622056 -13.192541 0.055 0 255 0
-5.198157 -13.437709 0.38 0 255 0
-5.269858 -13.397808 0.537 0 255 0
-5.069046 -13.514717 0.807 0 255 0
-5.458649 -13.288146 0.296 0 255 0
-5.361563 -13.342103 0.094 0 255 0
-5.330396 -13.360229 0.107 0 255 0
-5.181699 -13.449462 0.594 0 255 0
-5.43861 -13.299479 0.379 0 255 0
-5.482235 -13.272761 0.058 0 255 0
-5.453741 -13.289526 0.161 0 255 0
-5.261839 -13.401895 0.407 0 255 0
-5.4916 -13.269113 0.296 0 255 0
-5.39364 -13.325759 0.441 0 255 0
-5.218634 -13.425031 0.071 0 255 0
-5.249365 -13.40825 0.224 0 255 0
-5.141184 -13.473472 0.784 0 255 0
-5.147387 -13.465822 0.199 0 255 0
-5.27164 -13.3969 0.517 0 255 0
-5.171444 -13.453565 0.407 0 255 0
-5.386949 -13.328047 0.076 0 255 0
-5.283206 -13.388762 0.272 0 255 0
-5.569067 -13.222908 0.131 0 255 0
-5.239563 -13.413244 0.15 0 255 0
-5.588214 -13.212029 0.104 0 255 0
-5.375383 -13.336185 0.262 0 255 0
-5.114453 -13.487091 0.434 0 255 0
-5.388294 -13.328484 0.352 0 255 0
-5.089086 -13.503385 0.692 0 255 0
-5.472452 -13.279992 0.256 0 255 0
-5.150531 -13.467587 0.641 0 255 0
-5.249802 -13.406905 0.109 0 255 0
-5.208395 -13.43137 0.213 0 255 0
-5.447957 -13.293594 0.229 0 255 0
-5.327739 -13.363827 0.303 0 255 0
-5.520532 -13.251003 0.149 0 255 0
-5.109561 -13.490706 0.545 0 255 0
-5.251601 -13.408234 0.445 0 255 0
-5.194593 -13.439525 0.197 0 255 0
-5.284114 -13.390545 0.578 0 255 0
-5.125583 -13.480299 0.447 0 255 0
-5.202612 -13.435439 0.295 0 255 0
-5.382511 -13.332553 0.333 0 255 0
-5.203066 -13.436329 0.59 0 255 0
-5.332194 -13.361557 0.384 0 255 0
-5.61671 -13.195265 0.059 0 255 0
-5.327723 -13.361591 0.127 0 255 0
-5.244035 -13.41321 0.633 0 255 0
-5.458649 -13.288146 0.28 0 255 0
-5.452412 -13.291324 0.256 0 255 0
-5.175445 -13.450403 0.269 0 255 0
-5.140293 -13.473926 0.802 0 255 0
-5.379384 -13.333023 0.144 0 255 0
-5.525878 -13.24828 0.136 0 255 0
-5.42079 -13.308559 0.133 0 255 0
-5.3696 -13.340254 0.459 0 255 0
-5.205302 -13.436313 0.627 0 255 0
-5.296134 -13.383298 0.562 0 255 0
-5.166552 -13.45718 0.526 0 255 0
-5.152733 -13.463099 0.212 0 255 0
-5.260948 -13.402349 0.495 0 255 0
-5.171898 -13.454455 0.537 0 255 0
-5.420353 -13.309904 0.203 0 255 0
-5.315282 -13.372418 0.551 0 255 0
-5.412788 -13.314881 0.324 0 255 0
-5.513421 -13.256871 0.271 0 255 0
-5.10245 -13.496574 0.803 0 255 0
-5.440392 -13.298572 0.358 0 255 0
-5.335742 -13.357505 0.13 0 255 0
-5.197283 -13.440398 0.609 0 255 0
-5.141621 -13.472127 0.568 0 255 0
-5.324612 -13.364298 0.205 0 255 0
-5.14384 -13.469873 0.421 0 255 0
-5.189264 -13.444485 0.62 0 255 0
-5.451067 -13.290888 0.089 0 255 0
-5.255602 -13.405072 0.39 0 255 0
-5.347324 -13.351604 0.269 0 255 0
-5.56372 -13.225632 0.052 0 255 0
-5.130038 -13.478029 0.537 0 255 0
-5.465323 -13.283624 0.293 0 255 0
-5.287661 -13.386493 0.372 0 255 0
-5.231544 -13.41733 0.174 0 255 0
-5.344214 -13.35431 0.382 0 255 0
-5.248474 -13.408704 0.232 0 255 0
-5.538352 -13.241924 0.171 0 255 0
-5.314811 -13.369291 0.055 0 255 0
-5.36691 -13.339379 0.152 0 255 0
-5.20663 -13.434513 0.482 0 255 0
-5.112689 -13.490235 0.732 0 255 0
-5.478234 -13.275923 0.227 0 255 0
-5.415444 -13.311283 0.112 0 255 0
-5.156751 -13.462173 0.432 0 255 0
-5.201705 -13.433657 0.05 0 255 0
-5.268059 -13.396481 0.121 0 255 0
-5.150531 -13.467587 0.612 0 255 0
-5.225325 -13.422744 0.39 0 255 0
-5.14073 -13.472581 0.616 0 255 0
-5.159878 -13.461702 0.629 0 255 0
-5.20352 -13.437221 0.676 0 255 0
-5.294789 -13.38286 0.346 0 255 0
-5.378056 -13.334823 0.296 0 255 0
-5.421244 -13.309449 0.205 0 255 0
-5.150077 -13.466696 0.522 0 255 0
-5.261385 -13.401004 0.273 0 255 0
-5.476452 -13.276831 0.181 0 255 0
-5.437719 -13.299933 0.251 0 255 0
-5.228871 -13.418692 0.076 0 255 0
-5.323267 -13.363861 0.058 0 255 0
-5.298353 -13.381044 0.46 0 255 0
-5.361581 -13.344339 0.332 0 255 0
-5.153641 -13.46488 0.554 0 255 0
-5.242237 -13.411882 0.17 0 255 0
-5.557937 -13.2297 0.095 0 255 0
-5.279659 -13.392815 0.526 0 255 0
-5.20663 -13.434513 0.491 0 255 0
-5.064154 -13.518332 0.87 0 255 0
-5.129147 -13.478483 0.439 0 255 0
-5.619836 -13.194794 0.126 0 255 0
-5.159407 -13.458575 0.149 0 255 0
-5.314811 -13.369291 0.072 0 255 0
-5.415007 -13.312628 0.16 0 255 0
-5.219542 -13.426813 0.484 0 255 0
-5.13493 -13.474414 0.382 0 255 0
-5.441283 -13.298118 0.323 0 255 0
-5.304136 -13.376975 0.313 0 255 0
-5.612709 -13.198425 0.061 0 255 0
-5.139385 -13.472144 0.426 0 255 0
-5.508075 -13.259596 0.262 0 255 0
-5.290771 -13.383785 0.211 0 255 0
-5.267168 -13.396935 0.066 0 255 0
-5.071282 -13.5147 0.853 0 255 0
-5.288552 -13.386039 0.319 0 255 0
-5.343307 -13.352528 0.063 0 255 0
-5.244456 -13.40963 0.064 0 255 0
-5.3736 -13.337092 0.3 0 255 0
-5.393186 -13.324869 0.146 0 255 0
-5.392295 -13.325323 0.176 0 255 0
-5.382494 -13.330317 0.128 0 255 0
-5.271623 -13.394665 0.137 0 255 0
-5.098869 -13.496155 0.498 0 255 0
-5.205268 -13.431841 0.073 0 255 0
-5.349998 -13.350242 0.201 0 255 0
-5.288552 -13.386039 0.373 0 255 0
-5.511185 -13.256889 0.134 0 255 0
-5.281861 -13.388325 0.158 0 255 0
-5.382947 -13.331207 0.186 0 255 0
-5.065045 -13.517878 0.861 0 255 0
-5.059699 -13.520602 0.845 0 255 0
-5.265857 -13.40097 0.593 0 255 0
-5.277423 -13.392832 0.391 0 255 0
-5.274296 -13.393302 0.127 0 255 0
-5.197266 -13.438163 0.354 0 255 0
-5.501838 -13.262774 0.283 0 255 0
-5.222215 -13.425451 0.543 0 255 0
-5.07261 -13.512901 0.79 0 255 0
-5.140293 -13.473926 0.786 0 255 0
-5.332178 -13.359322 0.063 0 255 0
-5.52766 -13.247372 0.103 0 255 0
-5.44172 -13.296772 0.176 0 255 0
-5.362908 -13.342541 0.266 0 255 0
-5.392295 -13.325323 0.098 0 255 0
-5.238673 -13.413698 0.185 0 255 0
-5.223997 -13.424543 0.483 0 255 0
-5.41768 -13.311266 0.195 0 255 0
-5.382494 -13.330317 0.087 0 255 0
-5.469779 -13.281354 0.214 0 255 0
-5.228452 -13.422273 0.527 0 255 0
-5.288989 -13.384693 0.224 0 255 0
-5.252038 -13.406888 0.329 0 255 0
-5.187028 -13.444501 0.383 0 255 0
-5.418571 -13.310812 0.254 0 255 0
-5.208412 -13.433605 0.555 0 255 0
-5.245818 -13.412302 0.629 0 255 0
-5.492036 -13.267767 0.145 0 255 0
-5.097979 -13.496609 0.555 0 255 0
-5.183464 -13.446317 0.235 0 255 0
-5.457304 -13.287709 0.177 0 255 0
-5.187919 -13.444047 0.411 0 255 0
-5.244473 -13.411865 0.497 0 255 0
-5.467105 -13.282716 0.22 0 255 0
-5.554373 -13.231516 0.081 0 255 0
-5.165207 -13.456742 0.385 0 255 0
-5.452849 -13.28998 0.078 0 255 0
-5.349544 -13.34935 0.149 0 255 0
-5.280096 -13.39147 0.411 0 255 0
-5.242253 -13.414118 0.629 0 255 0
-5.288115 -13.387384 0.426 0 255 0
-5.157625 -13.459483 0.149 0 255 0
-5.229763 -13.418238 0.048 0 255 0
-5.20394 -13.43364 0.224 0 255 0
-5.125129 -13.479407 0.313 0 255 0
-5.443956 -13.296756 0.362 0 255 0
-5.398532 -13.322145 0.281 0 255 0
-5.39364 -13.325759 0.39 0 255 0
-5.378947 -13.334369 0.455 0 255 0
-5.28366 -13.389654 0.394 0 255 0
-5.187902 -13.441812 0.077 0 255 0
-5.482689 -13.273653 0.287 0 255 0
-5.386949 -13.328047 0.061 0 255 0
-5.292553 -13.382877 0.16 0 255 0
-5.433264 -13.302203 0.27 0 255 0
-5.156314 -13.463518 0.584 0 255 0
-5.228889 -13.420928 0.404 0 255 0
-5.273859 -13.394648 0.331 0 255 0
-5.199502 -13.438146 0.423 0 255 0
-5.309045 -13.375597 0.49 0 255 0
-5.064154 -13.518332 0.846 0 255 0
-5.374037 -13.335747 0.071 0 255 0
-5.50362 -13.261866 0.217 0 255 0
-5.293898 -13.383315 0.39 0 255 0
-5.163862 -13.456305 0.117 0 255 0
-5.211068 -13.430008 0.262 0 255 0
-5.415898 -13.312174 0.232 0 255 0
-5.160332 -13.462593 0.778 0 255 0
-5.409661 -13.315351 0.218 0 255 0
-5.530333 -13.24601 0.211 0 255 0
-5.112689 -13.490235 0.831 0 255 0
-5.225761 -13.421399 0.229 0 255 0
-5.412334 -13.31399 0.124 0 255 0
-5.203957 -13.435875 0.574 0 255 0
-5.094868 -13.499315 0.646 0 255 0
-5.309919 -13.372907 0.133 0 255 0
-5.12871 -13.479828 0.707 0 255 0
-5.363363 -13.343431 0.412 0 255 0
-5.604252 -13.203856 0.139 0 255 0
-5.182153 -13.450353 0.747 0 255 0
-5.291679 -13.385568 0.501 0 255 0
-5.167006 -13.45807 0.647 0 255 0
-5.202629 -13.437675 0.68 0 255 0
-5.591778 -13.210213 0.083 0 255 0
-5.147387 -13.465822 0.121 0 255 0
-5.241345 -13.412336 0.142 0 255 0
-5.200393 -13.437692 0.57 0 255 0
-5.158987 -13.462156 0.566 0 255 0
-5.101105 -13.496138 0.678 0 255 0
-5.406988 -13.316713 0.171 0 255 0
-5.184809 -13.446754 0.504 0 255 0
-5.675045 -13.162174 0.049 0 255 0
-5.31392 -13.369745 0.062 0 255 0
-5.583323 -13.215644 0.131 0 255 0
-5.167897 -13.457616 0.611 0 255 0
-5.287207 -13.385601 0.242 0 255 0
-5.333976 -13.360649 0.39 0 255 0
-5.569957 -13.222454 0.094 0 255 0
-5.089976 -13.502931 0.693 0 255 0
-5.484017 -13.271853 0.072 0 255 0
-5.56061 -13.228338 0.108 0 255 0
-5.25962 -13.404147 0.572 0 255 0
-5.273422 -13.395992 0.493 0 255 0
-5.171461 -13.4558 0.689 0 255 0
-5.192811 -13.440433 0.314 0 255 0
-5.367818 -13.341162 0.418 0 255 0
-5.138931 -13.471253 0.209 0 255 0
-5.315719 -13.371074 0.401 0 255 0
-5.270295 -13.396463 0.353 0 255 0
-5.296117 -13.381062 0.292 0 255 0
-5.144294 -13.470765 0.611 0 255 0
-5.181682 -13.447225 0.216 0 255 0
-5.197283 -13.440398 0.695 0 255 0
-5.239581 -13.41548 0.615 0 255 0
-5.267185 -13.39917 0.435 0 255 0
-5.359781 -13.343011 0.062 0 255 0
-5.279188 -13.389688 0.128 0 255 0
-5.045897 -13.528757 0.899 0 255 0
-5.318829 -13.368367 0.359 0 255 0
-5.147858 -13.468949 0.634 0 255 0
-5.079739 -13.50927 0.867 0 255 0
-5.381166 -13.332115 0.284 0 255 0
-5.175025 -13.453984 0.668 0 255 0
-5.296117 -13.381062 0.278 0 255 0
-5.398077 -13.321254 0.095 0 255 0
-5.226215 -13.42229 0.486 0 255 0
-5.424808 -13.307633 0.315 0 255 0
-5.205739 -13.434967 0.551 0 255 0
-5.145638 -13.471202 0.743 0 255 0
-5.314374 -13.370637 0.253 0 255 0
-5.249382 -13.410486 0.564 0 255 0
-5.324175 -13.365644 0.3 0 255 0
-5.404315 -13.318075 0.113 0 255 0
-5.301009 -13.377447 0.122 0 255 0
-5.581541 -13.216552 0.183 0 255 0
-5.550372 -13.234677 0.148 0 255 0
-5.175025 -13.453984 0.664 0 255 0
-5.431936 -13.304002 0.37 0 255 0
-5.24802 -13.407813 0.152 0 255 0
-5.227544 -13.420491 0.208 0 255 0
-5.173663 -13.451311 0.197 0 255 0
-5.319266 -13.367022 0.098 0 255 0
-5.077957 -13.510178 0.776 0 255 0
-5.167443 -13.456726 0.572 0 255 0
-5.304136 -13.376975 0.284 0 255 0
-5.257384 -13.404164 0.341 0 255 0
-5.089086 -13.503385 0.711 0 255 0
-5.178118 -13.449041 0.188 0 255 0
-5.28677 -13.386947 0.301 0 255 0
-5.217322 -13.429066 0.692 0 255 0
-5.147858 -13.468949 0.684 0 255 0
-5.179026 -13.450824 0.613 0 255 0
-5.645659 -13.179392 0.077 0 255 0
-5.349998 -13.350242 0.232 0 255 0
-5.184809 -13.446754 0.466 0 255 0
-5.221307 -13.423669 0.254 0 255 0
-5.370928 -13.338454 0.353 0 255 0
-5.279205 -13.391924 0.393 0 255 0
-5.242674 -13.410538 0.091 0 255 0
-5.147421 -13.470294 0.761 0 255 0
-5.639422 -13.18257 0.075 0 255 0
-5.086849 -13.503401 0.634 0 255 0
-5.139401 -13.47438 0.652 0 255 0
-5.476452 -13.276831 0.124 0 255 0
-5.327285 -13.362936 0.201 0 255 0
-5.284988 -13.387855 0.314 0 255 0
-5.535679 -13.243286 0.241 0 255 0
-5.153641 -13.46488 0.524 0 255 0
-5.22087 -13.425014 0.416 0 255 0
-5.262276 -13.40055 0.33 0 255 0
-5.28677 -13.386947 0.403 0 255 0
-5.546808 -13.236493 0.14 0 255 0
-5.4956 -13.265951 0.117 0 255 0
-5.262713 -13.399204 0.092 0 255 0
-5.467543 -13.28137 0.143 0 255 0
-5.169225 -13.455817 0.599 0 255 0
-5.534788 -13.24374 0.207 0 255 0
-5.211959 -13.429553 0.259 0 255 0
-5.10778 -13.491614 0.557 0 255 0
-5.227997 -13.421382 0.416 0 255 0
-5.114891 -13.485747 0.368 0 255 0
-5.345542 -13.352511 0.22 0 255 0
-5.204848 -13.435421 0.6 0 255 0
-5.083302 -13.507454 0.84 0 255 0
-5.365582 -13.341178 0.197 0 255 0
-5.222198 -13.423215 0.13 0 255 0
-5.242253 -13.414118 0.592 0 255 0
-5.487581 -13.270038 0.144 0 255 0
-5.226669 -13.423181 0.49 0 255 0
-5.225779 -13.423635 0.553 0 255 0
-5.046351 -13.529648 0.93 0 255 0
-5.303245 -13.377429 0.285 0 255 0
-5.43861 -13.299479 0.229 0 255 0
-5.28366 -13.389654 0.452 0 255 0
-5.14695 -13.467168 0.313 0 255 0
-5.533006 -13.244648 0.125 0 255 0
-5.352233 -13.350224 0.467 0 255 0
-5.197283 -13.440398 0.661 0 255 0
-5.360672 -13.342557 0.1 0 255 0
-5.205739 -13.434967 0.619 0 255 0
-5.165644 -13.455397 0.148 0 255 0
-5.15006 -13.46446 0.246 0 255 0
-5.220416 -13.424123 0.238 0 255 0
-5.304119 -13.37474 0.063 0 255 0
-5.31661 -13.37062 0.386 0 255 0
-5.081957 -13.507016 0.739 0 255 0
-5.520095 -13.252349 0.209 0 255 0
-5.154532 -13.464426 0.542 0 255 0
-5.125145 -13.481644 0.64 0 255 0
-5.352671 -13.34888 0.296 0 255 0
-5.243145 -13.413664 0.641 0 255 0
-5.114453 -13.487091 0.434 0 255 0
-5.175025 -13.453984 0.741 0 255 0
-5.209757 -13.434043 0.693 0 255 0
-5.211976 -13.431789 0.662 0 255 0
-5.159407 -13.458575 0.145 0 255 0
-5.321502 -13.367005 0.298 0 255 0
-5.589106 -13.211575 0.071 0 255 0
-5.320174 -13.368804 0.405 0 255 0
-5.203066 -13.436329 0.57 0 255 0
-5.359344 -13.344357 0.205 0 255 0
-5.610927 -13.199333 0.087 0 255 0
-5.273859 -13.394648 0.302 0 255 0
-5.473343 -13.279538 0.231 0 255 0
-5.111343 -13.489799 0.585 0 255 0
-5.12291 -13.481661 0.456 0 255 0
-5.184355 -13.445863 0.339 0 255 0
-5.358453 -13.34481 0.155 0 255 0
-5.09043 -13.503821 0.851 0 255 0
-5.359344 -13.344357 0.181 0 255 0
-5.309919 -13.372907 0.153 0 255 0
-5.148295 -13.467604 0.397 0 255 0
-5.2458 -13.410066 0.179 0 255 0
-5.232436 -13.416876 0.169 0 255 0
-5.12069 -13.483913 0.569 0 255 0
-5.38784 -13.327593 0.21 0 255 0
-5.446612 -13.293158 0.105 0 255 0
-5.3678 -13.338925 0.14 0 255 0
-5.596233 -13.207943 0.132 0 255 0
-5.327285 -13.362936 0.288 0 255 0
-5.225761 -13.421399 0.268 0 255 0
-5.202612 -13.435439 0.339 0 255 0
-5.594451 -13.208851 0.072 0 255 0
-5.424808 -13.307633 0.333 0 255 0
-5.328176 -13.362482 0.217 0 255 0
-5.105106 -13.492977 0.544 0 255 0
-5.288098 -13.385147 0.213 0 255 0
-5.20616 -13.431387 0.108 0 255 0
-5.549918 -13.233787 0.061 0 255 0
-5.179026 -13.450824 0.597 0 255 0
-5.091304 -13.501131 0.618 0 255 0
-5.165644 -13.455397 0.108 0 255 0
-5.187902 -13.441812 0.044 0 255 0
-5.569957 -13.222454 0.132 0 255 0
-5.47067 -13.2809 0.21 0 255 0
-5.220886 -13.42725 0.671 0 255 0
-5.421681 -13.308105 0.121 0 255 0
-5.295226 -13.381516 0.223 0 255 0
-5.589996 -13.211121 0.06 0 255 0
-5.282315 -13.389216 0.253 0 255 0
-5.661243 -13.17033 0.068 0 255 0
-5.239563 -13.413244 0.244 0 255 0
-5.12871 -13.479828 0.702 0 255 0
-5.472452 -13.279992 0.235 0 255 0
-5.418571 -13.310812 0.219 0 255 0
-5.19461 -13.441761 0.52 0 255 0
-5.108671 -13.49116 0.649 0 255 0
-5.081957 -13.507016 0.714 0 255 0
-5.312155 -13.37289 0.33 0 255 0
-5.152313 -13.46668 0.628 0 255 0
-5.365582 -13.341178 0.217 0 255 0
-5.472452 -13.279992 0.246 0 255 0
-5.285442 -13.388746 0.463 0 255 0
-5.255165 -13.406418 0.527 0 255 0
-5.252929 -13.406434 0.341 0 255 0
-5.311247 -13.371108 0.1 0 255 0
-5.185246 -13.445409 0.327 0 255 0
-5.246708 -13.411848 0.619 0 255 0
-5.297462 -13.381498 0.372 0 255 0
-5.28988 -13.384239 0.103 0 255 0
-5.212413 -13.430445 0.494 0 255 0
-5.485799 -13.270946 0.055 0 255 0
-5.397187 -13.321708 0.125 0 255 0
-5.351779 -13.349334 0.22 0 255 0
-5.196375 -13.438617 0.295 0 255 0
-5.397641 -13.322598 0.16 0 255 0
-5.202629 -13.437675 0.716 0 255 0
-5.561501 -13.227884 0.122 0 255 0
-5.368255 -13.339816 0.204 0 255 0
-5.260494 -13.401458 0.164 0 255 0
-5.170116 -13.455363 0.565 0 255 0
-5.577977 -13.218368 0.071 0 255 0
-5.158079 -13.460374 0.2 0 255 0
-5.257384 -13.404164 0.31 0 255 0
-5.472888 -13.278646 0.174 0 255 0
-5.192828 -13.442669 0.584 0 255 0
-5.280987 -13.391016 0.468 0 255 0
-5.427027 -13.305381 0.253 0 255 0
-5.3019 -13.376993 0.066 0 255 0
-5.434592 -13.300404 0.132 0 255 0
-5.361563 -13.342103 0.094 0 255 0
-5.415898 -13.312174 0.293 0 255 0
-5.192357 -13.439541 0.081 0 255 0
-5.227107 -13.421836 0.431 0 255 0
-5.129147 -13.478483 0.415 0 255 0
-5.370928 -13.338454 0.286 0 255 0
-5.148278 -13.465368 0.14 0 255 0
-5.283206 -13.388762 0.262 0 255 0
-5.143403 -13.471219 0.556 0 255 0
-5.21285 -13.429099 0.354 0 255 0
-5.190592 -13.442685 0.386 0 255 0
-5.119346 -13.483477 0.452 0 255 0
-5.134056 -13.477103 0.755 0 255 0
-5.281878 -13.390562 0.501 0 255 0
-5.180808 -13.449916 0.661 0 255 0
-5.456867 -13.289054 0.232 0 255 0
-5.223105 -13.424997 0.504 0 255 0
-5.119816 -13.486604 0.809 0 255 0
-5.649223 -13.177576 0.074 0 255 0
-5.487581 -13.270038 0.128 0 255 0
-5.485799 -13.270946 0.164 0 255 0
-5.522768 -13.250987 0.253 0 255 0
-5.392749 -13.326213 0.354 0 255 0
-5.413662 -13.312191 0.079 0 255 0
-5.42659 -13.306726 0.34 0 255 0
-5.37271 -13.337546 0.324 0 255 0
-5.359781 -13.343011 0.078 0 255 0
-5.19461 -13.441761 0.538 0 255 0
-5.358453 -13.34481 0.267 0 255 0
-5.263167 -13.400096 0.28 0 255 0
-5.249382 -13.410486 0.631 0 255 0
-5.459086 -13.286801 0.154 0 255 0
-5.409661 -13.315351 0.15 0 255 0
-5.162988 -13.458996 0.407 0 255 0
-5.282752 -13.387871 0.119 0 255 0
-5.210194 -13.432697 0.522 0 255 0
-5.294789 -13.38286 0.415 0 255 0
-5.221323 -13.425905 0.452 0 255 0
-5.168334 -13.456271 0.549 0 255 0
-5.260931 -13.400112 0.134 0 255 0
-5.435483 -13.29995 0.126 0 255 0
-5.279188 -13.389688 0.101 0 255 0
-5.172789 -13.454001 0.578 0 255 0
-5.362472 -13.343885 0.465 0 255 0
-5.274296 -13.393302 0.13 0 255 0
-5.17948 -13.451715 0.73 0 255 0
-5.122472 -13.483006 0.531 0 255 0
-5.315265 -13.370183 0.17 0 255 0
-5.104216 -13.493431 0.541 0 255 0
-5.540134 -13.241016 0.202 0 255 0
-5.097979 -13.496609 0.554 0 255 0
-5.333522 -13.359757 0.254 0 255 0
-5.330412 -13.362465 0.337 0 255 0
-5.179463 -13.449478 0.534 0 255 0
-5.549481 -13.235131 0.192 0 255 0
-5.303245 -13.377429 0.343 0 255 0
-5.239563 -13.413244 0.274 0 255 0
-5.265386 -13.397842 0.159 0 255 0
-5.488926 -13.270474 0.194 0 255 0
-5.350451 -13.351132 0.449 0 255 0
-5.177664 -13.448151 0.063 0 255 0
-5.359799 -13.345247 0.282 0 255 0
-5.341087 -13.354781 0.179 0 255 0
-5.056589 -13.52331 0.892 0 255 0
-5.51875 -13.251912 0.052 0 255 0
-5.304136 -13.376975 0.313 0 255 0
-5.134039 -13.474868 0.276 0 255 0
-5.148295 -13.467604 0.404 0 255 0
-5.519641 -13.251458 0.1 0 255 0
-5.273422 -13.395992 0.579 0 255 0
-5.196392 -13.440852 0.536 0 255 0
-5.227089 -13.4196 0.088 0 255 0
-5.524987 -13.248734 0.173 0 255 0
-5.484471 -13.272744 0.228 0 255 0
-5.195484 -13.439071 0.19 0 255 0
-5.451959 -13.290434 0.085 0 255 0
-5.182136 -13.448116 0.563 0 255 0
-5.152296 -13.464443 0.42 0 255 0
-5.081957 -13.507016 0.732 0 255 0
-5.112235 -13.489345 0.703 0 255 0
-5.152279 -13.462207 0.081 0 255 0
-5.667026 -13.166261 0.046 0 255 0
-5.493818 -13.266859 0.219 0 255 0
-5.373147 -13.336201 0.183 0 255 0
-5.394531 -13.325305 0.289 0 255 0
-5.140293 -13.473926 0.771 0 255 0
-5.148749 -13.468495 0.742 0 255 0
-5.352216 -13.347988 0.196 0 255 0
-5.118018 -13.485275 0.571 0 255 0
-5.205286 -13.434076 0.344 0 255 0
-5.545463 -13.236056 0.065 0 255 0
-5.231999 -13.418221 0.321 0 255 0
-5.172789 -13.454001 0.597 0 255 0
-5.184809 -13.446754 0.418 0 255 0
-5.134056 -13.477103 0.626 0 255 0
-5.2458 -13.410066 0.195 0 255 0
-5.584214 -13.21519 0.115 0 255 0
-5.463978 -13.283186 0.063 0 255 0
-5.452849 -13.28998 0.064 0 255 0
-5.412334 -13.31399 0.26 0 255 0
-5.107342 -13.492959 0.722 0 255 0
-5.214632 -13.428191 0.346 0 255 0
-5.480017 -13.275015 0.273 0 255 0
-5.228889 -13.420928 0.361 0 255 0
-5.289897 -13.386476 0.492 0 255 0
-5.279205 -13.391924 0.36 0 255 0
-5.225341 -13.424979 0.688 0 255 0
-5.279659 -13.392815 0.584 0 255 0
-5.553482 -13.23197 0.112 0 255 0
-5.272514 -13.394211 0.135 0 255 0
-5.188828 -13.445829 0.65 0 255 0
-5.273405 -13.393757 0.242 0 255 0
-5.331304 -13.362011 0.468 0 255 0
-5.121582 -13.483459 0.625 0 255 0
-5.285879 -13.387401 0.387 0 255 0
-5.468433 -13.280916 0.14 0 255 0
-5.278314 -13.392378 0.375 0 255 0
-5.077957 -13.510178 0.843 0 255 0
-5.549918 -13.233787 0.1 0 255 0
-5.23067 -13.42002 0.457 0 255 0
-5.258275 -13.40371 0.396 0 255 0
-5.147858 -13.468949 0.565 0 255 0
-5.175462 -13.45264 0.594 0 255 0
-5.362472 -13.343885 0.431 0 255 0
-5.140275 -13.47169 0.411 0 255 0
-5.389622 -13.326685 0.184 0 255 0
-5.321939 -13.36566 0.082 0 255 0
-5.573522 -13.220638 0.07 0 255 0
-5.348652 -13.349804 0.08 0 255 0
-5.290317 -13.382895 0.044 0 255 0
-5.357563 -13.345264 0.107 0 255 0
-5.222198 -13.423215 0.273 0 255 0
-5.214632 -13.428191 0.326 0 255 0
-5.087303 -13.504292 0.778 0 255 0
-5.191046 -13.443577 0.623 0 255 0
-5.366473 -13.340724 0.285 0 255 0
-5.340197 -13.355235 0.204 0 255 0
-5.254257 -13.404635 0.236 0 255 0
-5.508965 -13.259141 0.229 0 255 0
-5.302791 -13.376539 0.195 0 255 0
-5.139839 -13.473035 0.575 0 255 0
-5.255148 -13.404181 0.193 0 255 0
-5.324612 -13.364298 0.139 0 255 0
-5.27164 -13.3969 0.453 0 255 0
-5.502728 -13.26232 0.174 0 255 0
-5.213741 -13.428645 0.186 0 255 0
-5.525878 -13.24828 0.057 0 255 0
-5.154532 -13.464426 0.526 0 255 0
-5.386512 -13.329391 0.236 0 255 0
-5.23067 -13.42002 0.526 0 255 0
-5.250256 -13.407796 0.273 0 255 0
-5.121128 -13.482569 0.323 0 255 0
-5.054807 -13.524218 0.86 0 255 0
-5.215523 -13.427737 0.264 0 255 0
-5.256947 -13.405509 0.511 0 255 0
-5.315265 -13.370183 0.311 0 255 0
-5.307263 -13.376505 0.481 0 255 0
-5.174554 -13.450857 0.27 0 255 0
-5.117581 -13.486621 0.624 0 255 0
-5.34867 -13.35204 0.459 0 255 0
-5.278768 -13.393269 0.584 0 255 0
-5.456414 -13.288163 0.099 0 255 0
-5.228871 -13.418692 0.147 0 255 0
-5.192391 -13.444014 0.695 0 255 0
-5.37271 -13.337546 0.409 0 255 0
-5.354907 -13.348862 0.48 0 255 0
-5.168788 -13.457162 0.633 0 255 0
-5.209723 -13.429571 0.073 0 255 0
-5.169679 -13.456708 0.76 0 255 0
-5.245347 -13.409176 0.062 0 255 0
-5.200376 -13.435455 0.103 0 255 0
-5.325067 -13.365189 0.328 0 255 0
-5.382057 -13.331661 0.244 0 255 0
-5.214179 -13.427301 0.103 0 255 0
-5.184792 -13.444518 0.078 0 255 0
-5.177244 -13.451732 0.536 0 255 0
-5.120708 -13.48615 0.832 0 255 0
-5.250693 -13.406451 0.166 0 255 0
-5.146967 -13.469403 0.671 0 255 0
-5.116252 -13.48842 0.785 0 255 0
-5.271203 -13.398246 0.612 0 255 0
-5.252492 -13.40778 0.487 0 255 0
-5.210177 -13.430462 0.258 0 255 0
-5.485363 -13.27229 0.253 0 255 0
-5.296571 -13.381952 0.382 0 255 0
-5.32283 -13.365206 0.079 0 255 0
-5.245364 -13.411411 0.506 0 255 0
-5.160332 -13.462593 0.74 0 255 0
-5.219087 -13.425921 0.275 0 255 0
-5.353999 -13.34708 0.2 0 255 0
-5.144277 -13.46853 0.321 0 255 0
-5.138948 -13.473489 0.641 0 255 0
-5.094868 -13.499315 0.606 0 255 0
-5.124255 -13.482098 0.599 0 255 0
-5.207975 -13.434951 0.697 0 255 0
-5.577977 -13.218368 0.121 0 255 0
-5.369583 -13.338017 0.114 0 255 0
-5.096197 -13.497517 0.54 0 255 0
-5.1741 -13.449966 0.082 0 255 0
-5.113126 -13.488891 0.679 0 255 0
-5.487144 -13.271382 0.261 0 255 0
-5.384729 -13.330299 0.191 0 255 0
-5.332194 -13.361557 0.407 0 255 0
-5.360672 -13.342557 0.089 0 255 0
-5.090868 -13.502477 0.782 0 255 0
-5.460868 -13.285893 0.096 0 255 0
-5.08463 -13.505654 0.73 0 255 0
-5.195501 -13.441306 0.57 0 255 0
-5.114017 -13.488437 0.719 0 255 0
-5.240926 -13.415917 0.63 0 255 0
-5.227107 -13.421836 0.334 0 255 0
-5.203049 -13.434093 0.209 0 255 0
-5.071719 -13.513355 0.797 0 255 0
-5.109561 -13.490706 0.599 0 255 0
-5.329975 -13.36381 0.518 0 255 0
-5.110906 -13.491143 0.793 0 255 0
-5.10778 -13.491614 0.557 0 255 0
-5.297008 -13.380608 0.273 0 255 0
-5.412788 -13.314881 0.385 0 255 0
-5.601125 -13.204328 0.105 0 255 0
-5.332194 -13.361557 0.361 0 255 0
-5.053025 -13.525126 0.861 0 255 0
-5.384729 -13.330299 0.326 0 255 0
-5.239563 -13.413244 0.252 0 255 0
-5.058808 -13.521056 0.847 0 255 0
-5.220432 -13.426359 0.476 0 255 0
-5.325941 -13.362499 0.095 0 255 0
-5.143386 -13.468984 0.341 0 255 0
-5.259603 -13.401912 0.219 0 255 0
-5.207504 -13.431824 0.157 0 255 0
-5.074392 -13.511993 0.767 0 255 0
-5.40877 -13.315805 0.167 0 255 0
-5.15897 -13.45992 0.294 0 255 0
-5.240909 -13.413681 0.363 0 255 0
-5.545026 -13.237401 0.102 0 255 0
-5.224416 -13.420961 0.125 0 255 0
-5.369146 -13.339362 0.276 0 255 0
-5.194156 -13.440869 0.365 0 255 0
-5.119363 -13.485713 0.765 0 255 0
-5.286333 -13.388292 0.424 0 255 0
-5.640313 -13.182116 0.088 0 255 0
-5.380729 -13.333461 0.349 0 255 0
-5.286316 -13.386055 0.159 0 255 0
-5.406097 -13.317167 0.166 0 255 0
-5.325957 -13.364735 0.318 0 255 0
-5.075284 -13.511539 0.86 0 255 0
-5.460868 -13.285893 0.223 0 255 0
-5.118926 -13.487058 0.828 0 255 0
-5.34598 -13.351166 0.129 0 255 0
-5.256039 -13.403728 0.26 0 255 0
-5.21776 -13.427721 0.54 0 255 0
-5.431045 -13.304456 0.349 0 255 0
-5.187465 -13.443156 0.17 0 255 0
-5.23067 -13.42002 0.361 0 255 0
-5.217742 -13.425485 0.192 0 255 0
-5.57174 -13.221546 0.153 0 255 0
-5.181228 -13.446335 0.164 0 255 0
-5.205286 -13.434076 0.428 0 255 0
-5.272077 -13.395555 0.407 0 255 0
-5.114453 -13.487091 0.521 0 255 0
-5.317064 -13.371511 0.547 0 255 0
-5.41457 -13.313972 0.341 0 255 0
-5.141604 -13.469892 0.308 0 255 0
-5.110015 -13.491597 0.751 0 255 0
-5.274313 -13.395538 0.568 0 255 0
-5.360236 -13.343903 0.244 0 255 0
-5.36069 -13.344793 0.443 0 255 0
-5.059699 -13.520602 0.88 0 255 0
-5.350889 -13.349788 0.19 0 255 0
-5.327302 -13.365171 0.519 0 255 0
-5.137149 -13.472161 0.231 0 255 0
-5.177227 -13.449495 0.215 0 255 0
-5.329067 -13.362028 0.252 0 255 0
-5.2458 -13.410066 0.174 0 255 0
-5.220416 -13.424123 0.177 0 255 0
-5.234689 -13.419095 0.643 0 255 0
-5.090868 -13.502477 0.715 0 255 0
-5.62562 -13.190725 0.109 0 255 0
-5.166552 -13.45718 0.524 0 255 0
-5.207067 -13.433168 0.402 0 255 0
-5.470215 -13.280008 0.079 0 255 0
-5.186154 -13.447192 0.672 0 255 0
-5.47378 -13.278193 0.111 0 255 0
-5.20663 -13.434513 0.54 0 255 0
-5.102434 -13.494339 0.617 0 255 0
-5.13493 -13.474414 0.42 0 255 0
-5.165224 -13.458978 0.692 0 255 0
-5.04857 -13.527395 0.882 0 255 0
-5.398532 -13.322145 0.289 0 255 0
-5.178118 -13.449041 0.321 0 255 0
-5.545463 -13.236056 0.068 0 255 0
-5.267185 -13.39917 0.48 0 255 0
-5.1857 -13.446301 0.439 0 255 0
-5.47378 -13.278193 0.171 0 255 0
-5.128273 -13.481173 0.717 0 255 0
-5.178555 -13.447697 0.124 0 255 0
-5.402533 -13.318983 0.08 0 255 0
-5.181699 -13.449462 0.594 0 255 0
-5.430137 -13.302674 0.118 0 255 0
-5.058371 -13.522401 0.921 0 255 0
-5.286316 -13.386055 0.095 0 255 0
-5.183464 -13.446317 0.296 0 255 0
-5.124709 -13.482989 0.74 0 255 0
-5.401205 -13.320783 0.328 0 255 0
-5.514749 -13.255073 0.124 0 255 0
-5.296117 -13.381062 0.166 0 255 0
-5.345088 -13.35162 0.075 0 255 0
-5.284097 -13.388309 0.308 0 255 0
-5.254694 -13.40329 0.076 0 255 0
-5.296571 -13.381952 0.403 0 255 0
-5.118018 -13.485275 0.441 0 255 0
-5.263167 -13.400096 0.231 0 255 0
-5.133148 -13.475322 0.297 0 255 0
-5.253383 -13.407326 0.46 0 255 0
-5.597125 -13.207489 0.112 0 255 0
-5.295226 -13.381516 0.15 0 255 0
-5.443956 -13.296756 0.265 0 255 0
-5.368691 -13.33847 0.152 0 255 0
-5.409661 -13.315351 0.192 0 255 0
-5.188373 -13.444939 0.556 0 255 0
-5.163879 -13.458542 0.43 0 255 0
-5.130929 -13.477575 0.449 0 255 0
-5.19192 -13.440886 0.302 0 255 0
-5.198157 -13.437709 0.326 0 255 0
-5.264966 -13.401423 0.593 0 255 0
-5.200847 -13.438582 0.675 0 255 0
-5.194156 -13.440869 0.499 0 255 0
-5.148732 -13.466259 0.365 0 255 0
-5.289006 -13.38693 0.428 0 255 0
-5.081521 -13.508362 0.853 0 255 0
-5.211505 -13.428663 0.119 0 255 0
-5.132257 -13.475776 0.237 0 255 0
-5.411006 -13.315789 0.305 0 255 0
-5.403878 -13.319421 0.291 0 255 0
-5.26853 -13.399608 0.59 0 255 0
-5.247146 -13.410503 0.471 0 255 0
-5.56372 -13.225632 0.069 0 255 0
-5.504057 -13.260521 0.174 0 255 0
-5.479125 -13.275469 0.103 0 255 0
-5.217305 -13.426829 0.387 0 255 0
-5.436828 -13.300387 0.251 0 255 0
-5.415898 -13.312174 0.3 0 255 0
-5.411006 -13.315789 0.407 0 255 0
-5.340197 -13.355235 0.077 0 255 0
-5.189247 -13.442248 0.242 0 255 0
-5.379821 -13.331678 0.1 0 255 0
-5.121145 -13.484805 0.747 0 255 0
-5.440829 -13.297226 0.061 0 255 0
-5.144294 -13.470765 0.631 0 255 0
-5.268076 -13.398716 0.495 0 255 0
-5.153187 -13.463989 0.397 0 255 0
-5.39053 -13.328466 0.448 0 255 0
-5.283643 -13.387417 0.138 0 255 0
-5.124692 -13.480753 0.46 0 255 0
-5.130492 -13.47892 0.676 0 255 0
-5.122472 -13.483006 0.518 0 255 0
-5.469325 -13.280462 0.12 0 255 0
-5.251601 -13.408234 0.529 0 255 0
-5.610035 -13.199787 0.045 0 255 0
-5.193248 -13.439087 0.09 0 255 0
-5.146059 -13.467622 0.373 0 255 0
-5.489363 -13.269129 0.184 0 255 0
-5.067264 -13.515626 0.742 0 255 0
-5.296571 -13.381952 0.482 0 255 0
-5.162971 -13.456758 0.146 0 255 0
-5.163425 -13.45765 0.199 0 255 0
-5.178555 -13.447697 0.159 0 255 0
-5.470215 -13.280008 0.175 0 255 0
-5.381603 -13.33077 0.049 0 255 0
-5.150077 -13.466696 0.591 0 255 0
-5.317501 -13.370166 0.448 0 255 0
-5.439938 -13.29768 0.17 0 255 0
-5.183481 -13.448554 0.576 0 255 0
-5.217322 -13.429066 0.681 0 255 0
-5.299244 -13.38059 0.506 0 255 0
-5.293444 -13.382423 0.277 0 255 0
-5.242253 -13.414118 0.54 0 255 0
-5.221323 -13.425905 0.45 0 255 0
-5.367363 -13.34027 0.344 0 255 0
-5.483581 -13.273198 0.306 0 255 0
-5.37893 -13.332132 0.074 0 255 0
-5.344214 -13.35431 0.428 0 255 0
-5.502728 -13.26232 0.276 0 255 0
-5.126927 -13.480736 0.658 0 255 0
-5.496038 -13.264606 0.074 0 255 0
-5.268967 -13.398262 0.532 0 255 0
-5.251147 -13.407342 0.352 0 255 0
-5.187465 -13.443156 0.225 0 255 0
-5.315265 -13.370183 0.218 0 255 0
-5.413225 -13.313536 0.265 0 255 0
-5.181228 -13.446335 0.103 0 255 0
-5.418571 -13.310812 0.29 0 255 0
-5.225307 -13.420507 0.11 0 255 0
-5.326849 -13.364281 0.296 0 255 0
-5.315719 -13.371074 0.44 0 255 0
-5.202158 -13.434547 0.088 0 255 0
-5.145638 -13.471202 0.799 0 255 0
-5.334413 -13.359303 0.319 0 255 0
-5.432827 -13.303548 0.339 0 255 0
-5.576194 -13.219275 0.117 0 255 0
-5.055698 -13.523764 0.91 0 255 0
-5.302791 -13.376539 0.058 0 255 0
-5.231544 -13.41733 0.166 0 255 0
-5.135821 -13.47396 0.31 0 255 0
-5.134947 -13.476649 0.699 0 255 0
-5.561501 -13.227884 0.143 0 255 0
