ply
format ascii 1.0
element vertex 1340
property double x
property double y
property double z
property uchar red
property uchar green
property uchar blue
element face 0
property list uchar int vertex_indices
end_header
-3.047819 -14.488468 0.464 0 84 127
-3.037543 -14.430854 0.466 0 84 127
-3.023083 -14.411285 0.466 0 84 127
-3.035209 -14.476935 0.464 0 84 127
-3.176035 -14.58812 0.46 0 84 127
-3.109366 -14.466085 0.464 0 84 127
-3.145304 -14.604901 0.46 0 84 127
-3.098734 -14.597204 0.461 0 84 127
-3.02985 -14.536904 0.463 0 84 127
-3.084677 -14.571819 0.461 0 84 127
-3.124408 -14.62116 0.46 0 84 127
-3.063391 -14.53665 0.463 0 84 127
-3.103256 -14.603878 0.46 0 84 127
-3.204331 -14.604006 0.459 0 84 127
-2.977794 -14.454562 0.466 0 84 127
-3.183685 -14.594323 0.46 0 84 127
-2.982355 -14.525189 0.468 0 84 127
-2.949494 -14.379196 0.47 0 84 127
-2.950491 -14.451639 0.481 0 84 127
-2.954174 -14.465475 0.481 0 84 127
-2.975563 -14.514061 0.471 0 84 127
-2.96241 -14.430977 0.468 0 84 127
-2.983348 -14.538152 0.469 0 84 127
-2.95417 -14.405994 0.47 0 84 127
-2.971392 -14.494862 0.472 0 84 127
-3.005831 -14.613115 0.463 0 84 127
-2.963789 -14.435885 0.468 0 84 127
-2.980103 -14.522971 0.469 0 84 127
-2.94736 -14.392629 0.474 0 84 127
-2.970433 -14.486371 0.471 0 84 127
-2.962125 -14.452446 0.472 0 84 127
-2.964696 -14.437668 0.467 0 84 127
-2.94896 -14.426606 0.478 0 84 127
-2.96221 -14.463626 0.474 0 84 127
-2.95232 -14.397958 0.471 0 84 127
-2.956427 -14.467694 0.479 0 84 127
-2.952235 -14.386779 0.469 0 84 127
-2.9612 -14.448428 0.472 0 84 127
-2.988762 -14.544372 0.465 0 84 127
-2.952269 -14.391251 0.469 0 84 127
-2.951344 -14.387233 0.47 0 84 127
-2.964849 -14.457791 0.47 0 84 127
-2.997575 -14.585897 0.465 0 84 127
-2.992865 -14.554626 0.464 0 84 127
-2.968918 -14.463574 0.468 0 84 127
-2.953597 -14.389451 0.468 0 84 127
-2.952761 -14.456094 0.48 0 84 127
-2.963521 -14.459591 0.472 0 84 127
-2.952829 -14.465038 0.482 0 84 127
-2.980489 -14.514918 0.467 0 84 127
-2.980608 -14.53057 0.47 0 84 127
-2.9575 -14.432355 0.472 0 84 127
-2.954424 -14.439534 0.476 0 84 127
-2.999845 -14.590353 0.464 0 84 127
-2.986038 -14.539026 0.466 0 84 127
-2.967556 -14.460902 0.469 0 84 127
-2.960038 -14.413105 0.467 0 84 127
-2.996298 -14.594404 0.467 0 84 127
-2.98883 -14.553316 0.467 0 84 127
-3.01318 -14.638552 0.461 0 84 127
-2.950657 -14.414518 0.475 0 84 127
-3.117352 -14.693216 0.479 0 84 127
-3.202273 -14.745345 0.494 0 84 127
-3.108276 -14.734878 0.473 0 84 127
-3.128888 -14.740088 0.477 0 84 127
-3.166242 -14.712076 0.488 0 84 127
-3.104895 -14.701808 0.475 0 84 127
-3.226432 -14.746503 0.499 0 84 127
-3.134047 -14.712768 0.481 0 84 127
-3.144994 -14.74086 0.481 0 84 127
-3.189311 -14.746338 0.491 0 84 127
-3.155097 -14.716633 0.485 0 84 127
-3.147935 -14.715794 0.484 0 84 127
-3.174834 -14.724533 0.489 0 84 127
-3.168933 -14.712951 0.489 0 84 127
-3.254525 -14.735557 0.506 0 84 127
-3.099918 -14.694243 0.475 0 84 127
-3.056895 -14.682495 0.466 0 84 127
-3.14597 -14.751586 0.48 0 84 127
-3.125978 -14.710146 0.479 0 84 127
-3.13524 -14.693081 0.483 0 84 127
-3.127878 -14.72489 0.479 0 84 127
-3.068109 -14.686882 0.469 0 84 127
-3.242419 -14.731623 0.504 0 84 127
-3.113707 -14.743334 0.474 0 84 127
-3.175305 -14.72766 0.489 0 84 127
-3.133445 -14.751234 0.478 0 84 127
-3.201195 -14.721203 0.496 0 84 127
-3.136538 -14.746291 0.479 0 84 127
-3.24062 -14.730295 0.504 0 84 127
-3.113622 -14.732154 0.475 0 84 127
-3.198204 -14.739562 0.493 0 84 127
-3.179879 -14.741042 0.489 0 84 127
-3.181173 -14.734772 0.49 0 84 127
-3.108039 -14.703573 0.476 0 84 127
-3.18287 -14.722683 0.491 0 84 127
-3.171355 -14.73753 0.487 0 84 127
-3.135545 -14.733329 0.48 0 84 127
-3.145109 -14.697031 0.485 0 84 127
-3.200287 -14.71942 0.495 0 84 127
-3.120195 -14.714215 0.478 0 84 127
-3.146522 -14.706411 0.484 0 84 127
-3.110207 -14.694613 0.477 0 84 127
-3.19232 -14.730215 0.493 0 84 127
-3.114933 -14.728119 0.476 0 84 127
-3.13751 -14.697536 0.483 0 84 127
-3.163116 -14.712547 0.488 0 84 127
-3.204726 -14.714914 0.497 0 84 127
-3.172446 -14.704426 0.49 0 84 127
-3.136148 -14.694863 0.483 0 84 127
-3.144235 -14.69972 0.484 0 84 127
-3.169353 -14.70937 0.489 0 84 127
-3.089378 -14.719815 0.47 0 84 127
-3.202273 -14.745345 0.494 0 84 127
-3.127641 -14.693586 0.481 0 84 127
-3.217807 -14.729574 0.499 0 84 127
-3.191899 -14.733795 0.492 0 84 127
-3.156713 -14.752847 0.483 0 84 127
-3.208408 -14.728751 0.496 0 84 127
-3.198641 -14.738216 0.494 0 84 127
-3.129325 -14.738744 0.478 0 84 127
-3.141413 -14.74044 0.48 0 84 127
-3.151702 -14.740808 0.483 0 84 127
-3.120466 -14.74999 0.475 0 84 127
-3.233862 -14.723638 0.503 0 84 127
-3.233089 -14.739744 0.501 0 84 127
-3.118196 -14.745536 0.475 0 84 127
-3.166077 -14.749198 0.485 0 84 127
-3.116444 -14.691435 0.479 0 84 127
-3.290806 -14.742884 0.514 0 84 127
-3.163421 -14.752795 0.484 0 84 127
-3.204391 -14.729676 0.495 0 84 127
-3.07401 -14.698464 0.469 0 84 127
-3.099515 -14.700061 0.474 0 84 127
-3.079306 -14.689034 0.471 0 84 127
-3.109685 -14.684778 0.478 0 84 127
-3.157418 -14.727796 0.485 0 84 127
-3.252708 -14.731992 0.506 0 84 127
-3.124399 -14.737886 0.477 0 84 127
-3.107551 -14.698211 0.476 0 84 127
-3.108442 -14.697757 0.476 0 84 127
-3.26167 -14.73416 0.508 0 84 127
-3.193092 -14.714109 0.494 0 84 127
-3.18161 -14.733426 0.49 0 84 127
-3.17887 -14.725844 0.49 0 84 127
-3.167758 -14.734874 0.487 0 84 127
-3.087898 -14.70149 0.472 0 84 127
-3.151601 -14.727393 0.484 0 84 127
-3.08847 -14.718033 0.47 0 84 127
-3.195379 -14.7208 0.494 0 84 127
-3.201768 -14.737745 0.494 0 84 127
-3.131341 -14.709658 0.481 0 84 127
-3.197768 -14.740907 0.493 0 84 127
-3.089764 -14.711762 0.471 0 84 127
-3.08472 -14.695253 0.471 0 84 127
-3.083375 -14.694817 0.471 0 84 127
-3.258191 -14.747157 0.506 0 84 127
-3.137998 -14.702899 0.483 0 84 127
-3.157299 -14.712144 0.486 0 84 127
-3.1938 -14.748539 0.492 0 84 127
-3.084181 -14.683182 0.472 0 84 127
-3.097397 -14.715729 0.473 0 84 127
-3.179027 -14.805449 0.518 0 84 127
-3.289948 -14.747809 0.514 0 84 127
-3.221914 -14.79931 0.526 0 84 127
-3.220853 -14.777404 0.513 0 84 127
-3.175662 -14.774616 0.5 0 84 127
-3.210903 -14.821754 0.536 0 84 127
-3.176757 -14.800995 0.515 0 84 127
-3.179527 -14.753568 0.489 0 84 127
-3.258428 -14.778461 0.523 0 84 127
-3.168886 -14.765723 0.493 0 84 127
-3.241244 -14.753546 0.505 0 84 127
-3.207357 -14.825808 0.537 0 84 127
-3.200139 -14.758778 0.497 0 84 127
-3.218918 -14.758188 0.501 0 84 127
-3.212567 -14.805195 0.526 0 84 127
-3.21465 -14.785054 0.516 0 84 127
-3.209134 -14.765418 0.503 0 84 127
-3.166582 -14.756797 0.487 0 84 127
-3.207692 -14.811046 0.529 0 84 127
-3.298489 -14.753558 0.519 0 84 127
-3.248661 -14.787927 0.526 0 84 127
-3.228316 -14.759011 0.505 0 84 127
-3.234893 -14.800553 0.53 0 84 127
-3.208765 -14.775706 0.509 0 84 127
-3.234099 -14.754942 0.504 0 84 127
-3.1989 -14.831238 0.538 0 84 127
-3.193232 -14.791477 0.514 0 84 127
-3.170939 -14.800591 0.513 0 84 127
-3.22978 -14.7751 0.514 0 84 127
-3.211137 -14.793578 0.52 0 84 127
-3.140238 -14.762363 0.484 0 84 127
-3.221795 -14.783658 0.517 0 84 127
-3.232572 -14.789391 0.523 0 84 127
-3.1205 -14.754462 0.474 0 84 127
-3.127208 -14.754412 0.476 0 84 127
-3.18716 -14.757534 0.493 0 84 127
-3.126788 -14.757993 0.478 0 84 127
-3.231244 -14.791189 0.523 0 84 127
-3.242441 -14.79334 0.527 0 84 127
-3.160447 -14.77339 0.495 0 84 127
-3.148342 -14.769457 0.49 0 84 127
-3.2089 -14.793594 0.519 0 84 127
-3.20554 -14.822243 0.535 0 84 127
-3.183499 -14.805416 0.519 0 84 127
-3.140709 -14.76549 0.486 0 84 127
-3.188136 -14.768261 0.499 0 84 127
-3.226437 -14.805984 0.53 0 84 127
-3.200042 -14.804843 0.523 0 84 127
-3.194055 -14.78208 0.509 0 84 127
-3.239649 -14.77905 0.519 0 84 127
-3.193618 -14.783424 0.51 0 84 127
-3.23953 -14.763398 0.51 0 84 127
-3.185815 -14.757098 0.493 0 84 127
-3.175225 -14.775962 0.5 0 84 127
-3.172518 -14.772851 0.498 0 84 127
-3.149619 -14.76095 0.486 0 84 127
-3.166922 -14.801517 0.513 0 84 127
-3.143785 -14.75831 0.482 0 84 127
-3.210649 -14.788215 0.516 0 84 127
-3.164783 -14.755468 0.486 0 84 127
-3.25357 -14.786548 0.527 0 84 127
-3.196949 -14.809786 0.525 0 84 127
-3.236153 -14.78981 0.524 0 84 127
-3.26517 -14.782882 0.527 0 84 127
-3.176031 -14.764327 0.494 0 84 127
-3.258678 -14.752519 0.509 0 84 127
-3.142911 -14.761002 0.484 0 84 127
-3.198561 -14.786517 0.513 0 84 127
-3.184016 -14.75577 0.491 0 84 127
-3.222486 -14.815853 0.535 0 84 127
-3.226941 -14.813582 0.535 0 84 127
-3.144324 -14.770382 0.49 0 84 127
-3.18859 -14.769152 0.5 0 84 127
-3.286923 -14.761697 0.521 0 84 127
-3.186002 -14.781693 0.507 0 84 127
-3.215308 -14.812777 0.532 0 84 127
-3.190695 -14.810728 0.524 0 84 127
-3.158143 -14.764463 0.49 0 84 127
-3.22415 -14.799293 0.526 0 84 127
-3.22457 -14.795712 0.524 0 84 127
-3.22524 -14.766191 0.507 0 84 127
-3.162802 -14.789025 0.505 0 84 127
-3.201552 -14.768159 0.503 0 84 127
-3.220666 -14.752809 0.499 0 84 127
-3.218197 -14.781001 0.514 0 84 127
-3.201251 -14.787392 0.514 0 84 127
-3.209486 -14.752893 0.496 0 84 127
-3.185798 -14.754862 0.491 0 84 127
-3.221812 -14.785894 0.518 0 84 127
-3.204128 -14.812861 0.529 0 84 127
-3.286418 -14.754097 0.517 0 84 127
-3.19565 -14.756576 0.494 0 84 127
-3.289579 -14.758099 0.52 0 84 127
-3.232169 -14.795207 0.526 0 84 127
-3.243196 -14.774999 0.517 0 84 127
-3.180304 -14.796943 0.514 0 84 127
-3.221914 -14.79931 0.525 0 84 127
-3.262361 -14.766355 0.517 0 84 127
-3.191683 -14.764209 0.498 0 84 127
-3.330506 -14.847234 0.756 0 84 127
-3.389143 -14.794909 0.774 0 84 127
-3.362952 -14.820601 0.765 0 84 127
-3.373139 -14.807554 0.77 0 84 127
-3.41673 -14.776364 0.778 0 84 127
-3.412275 -14.778634 0.778 0 84 127
-3.401146 -14.785427 0.776 0 84 127
-3.458421 -14.730431 0.796 0 84 127
-3.45484 -14.73001 0.797 0 84 127
-3.418949 -14.774111 0.78 0 84 127
-3.465515 -14.722326 0.8 0 84 127
-3.394035 -14.791295 0.775 0 84 127
-3.308566 -14.843822 0.753 0 84 127
-3.378684 -14.772181 0.777 0 84 127
-3.347987 -14.793433 0.768 0 84 127
-3.378315 -14.78247 0.775 0 84 127
-3.286189 -14.841756 0.75 0 84 127
-3.294646 -14.836325 0.752 0 84 127
-3.34242 -14.76709 0.772 0 84 127
-3.1198 -14.838993 0.724 0 84 127
-3.31936 -14.85179 0.753 0 84 127
-3.215074 -14.840954 0.739 0 84 127
-3.392503 -14.766261 0.78 0 84 127
-3.349549 -14.763457 0.774 0 84 127
-3.286609 -14.838175 0.75 0 84 127
-3.287818 -14.820724 0.754 0 84 127
-3.262162 -14.799005 0.754 0 84 127
-3.273932 -14.817698 0.752 0 84 127
-3.327091 -14.809692 0.762 0 84 127
-3.429404 -14.737359 0.792 0 84 127
-3.321087 -14.784693 0.766 0 84 127
-3.266566 -14.790027 0.756 0 84 127
-3.346391 -14.818937 0.763 0 84 127
-3.146649 -14.841026 0.728 0 84 127
-3.149793 -14.842791 0.728 0 84 127
-3.369066 -14.74229 0.781 0 84 127
-3.104182 -14.843585 0.72 0 84 127
-3.230187 -14.828764 0.743 0 84 127
-3.376028 -14.775779 0.776 0 84 127
-3.176824 -14.809938 0.738 0 84 127
-3.348963 -14.80416 0.767 0 84 127
-3.325563 -14.84414 0.756 0 84 127
-3.322801 -14.774841 0.768 0 84 127
-3.359235 -14.802293 0.769 0 84 127
-3.245619 -14.799577 0.751 0 84 127
-3.311621 -14.774926 0.766 0 84 127
-3.313755 -14.761493 0.769 0 84 127
-3.309737 -14.762418 0.768 0 84 127
-3.236055 -14.835875 0.743 0 84 127
-3.328584 -14.770772 0.769 0 84 127
-3.16119 -14.812294 0.735 0 84 127
-3.274937 -14.773416 0.761 0 84 127
-3.345989 -14.824754 0.762 0 84 127
-3.251588 -14.820105 0.748 0 84 127
-3.439239 -14.736837 0.793 0 84 127
-3.207021 -14.840568 0.737 0 84 127
-3.296864 -14.834072 0.753 0 84 127
-3.3573 -14.783076 0.772 0 84 127
-3.27938 -14.828391 0.751 0 84 127
-3.421754 -14.731156 0.792 0 84 127
-3.252128 -14.832176 0.746 0 84 127
-3.296911 -14.781299 0.763 0 84 127
-3.375727 -14.795012 0.773 0 84 127
-3.410829 -14.764782 0.784 0 84 127
-3.235381 -14.805917 0.748 0 84 127
-3.390806 -14.77835 0.778 0 84 127
-3.248932 -14.823702 0.747 0 84 127
-3.285328 -14.787201 0.76 0 84 127
-3.326302 -14.823563 0.759 0 84 127
-3.204212 -14.824042 0.74 0 84 127
-3.251742 -14.840229 0.744 0 84 127
-3.29552 -14.833635 0.753 0 84 127
-3.322114 -14.802127 0.763 0 84 127
-3.215006 -14.83201 0.74 0 84 127
-3.176523 -14.829171 0.735 0 84 127
-3.406976 -14.728585 0.79 0 84 127
-3.3633 -14.748594 0.779 0 84 127
-3.238796 -14.843457 0.742 0 84 127
-3.413905 -14.757603 0.785 0 84 127
-3.231112 -14.832782 0.743 0 84 127
-3.329361 -14.814148 0.762 0 84 127
-3.257673 -14.796803 0.754 0 84 127
-3.391243 -14.777005 0.778 0 84 127
-3.090295 -14.84056 0.719 0 84 127
-3.314753 -14.833936 0.756 0 84 127
-3.186494 -14.846538 0.733 0 84 127
-3.446719 -14.72068 0.798 0 84 127
-3.325542 -14.782423 0.767 0 84 127
-3.215914 -14.833792 0.74 0 84 127
-3.200865 -14.795444 0.745 0 84 127
-3.280555 -14.806468 0.755 0 84 127
-3.378026 -14.744457 0.782 0 84 127
-3.334388 -14.82842 0.76 0 84 127
-3.32981 -14.755558 0.773 0 84 127
-3.343345 -14.771108 0.772 0 84 127
-3.16452 -14.838655 0.731 0 84 127
-3.414829 -14.761621 0.785 0 84 127
-3.234473 -14.804134 0.749 0 84 127
-3.335275 -14.768486 0.771 0 84 127
-3.304476 -14.776322 0.765 0 84 127
-3.329042 -14.831144 0.758 0 84 127
-3.194428 -14.831272 0.737 0 84 127
-3.115663 -14.824267 0.726 0 84 127
-3.295184 -14.848395 0.75 0 84 127
-3.347584 -14.799251 0.767 0 84 127
-3.306309 -14.782122 0.764 0 84 127
-3.306615 -14.822371 0.757 0 84 127
-3.304951 -14.83893 0.753 0 84 127
-3.315253 -14.782054 0.765 0 84 127
-3.134896 -14.824568 0.729 0 84 127
-3.333094 -14.834691 0.758 0 84 127
-3.3072 -14.781668 0.764 0 84 127
-3.373525 -14.799501 0.771 0 84 127
-3.260617 -14.831216 0.747 0 84 127
-3.146649 -14.841026 0.728 0 84 127
-3.124306 -14.843432 0.724 0 84 127
-3.128188 -14.824618 0.728 0 84 127
-3.231651 -14.844853 0.74 0 84 127
-3.337125 -14.776521 0.77 0 84 127
-3.249989 -14.786127 0.754 0 84 127
-3.360224 -14.755774 0.777 0 84 127
-3.336972 -14.756397 0.774 0 84 127
-3.265187 -14.785117 0.757 0 84 127
-3.218872 -14.810961 0.745 0 84 127
-3.388939 -14.768078 0.78 0 84 127
-3.408979 -14.756745 0.785 0 84 127
-3.453898 -14.723757 0.798 0 84 127
-3.474811 -14.709734 0.804 0 84 127
-3.389609 -14.738555 0.785 0 84 127
-3.314667 -14.822756 0.758 0 84 127
-3.39432 -14.769826 0.78 0 84 127
-3.322924 -14.849974 0.754 0 84 127
-3.428479 -14.733341 0.792 0 84 127
-3.245351 -14.823282 0.747 0 84 127
-3.297149 -14.812603 0.757 0 84 127
-3.135316 -14.820987 0.73 0 84 127
-3.294153 -14.771481 0.764 0 84 127
-3.363838 -14.760666 0.777 0 84 127
-3.199774 -14.828547 0.739 0 84 127
-3.094245 -14.830691 0.721 0 84 127
-3.261559 -14.837471 0.747 0 84 127
-3.416828 -14.730299 0.791 0 84 127
-3.240676 -14.796484 0.751 0 84 127
-3.385324 -14.763186 0.78 0 84 127
-3.25391 -14.831267 0.747 0 84 127
-3.108115 -14.83148 0.723 0 84 127
-3.149203 -14.824012 0.731 0 84 127
-3.290928 -14.818016 0.755 0 84 127
-3.13056 -14.84249 0.725 0 84 127
-3.313288 -14.817847 0.758 0 84 127
-3.245016 -14.838043 0.744 0 84 127
-3.079552 -14.839299 0.717 0 84 127
-3.286508 -14.824759 0.753 0 84 127
-3.318435 -14.847773 0.754 0 84 127
-3.345785 -14.797923 0.767 0 84 127
-3.236339 -14.814405 0.747 0 84 127
-3.388116 -14.777476 0.778 0 84 127
-3.323947 -14.807927 0.762 0 84 127
-3.146229 -14.844607 0.727 0 84 127
-3.423285 -14.756189 0.787 0 84 127
-3.218014 -14.815886 0.744 0 84 127
-3.454335 -14.722411 0.799 0 84 127
-3.186291 -14.819706 0.738 0 84 127
-3.353923 -14.809489 0.766 0 84 127
-3.112621 -14.835917 0.723 0 84 127
-3.19991 -14.846436 0.735 0 84 127
-3.266078 -14.784663 0.757 0 84 127
-3.310281 -14.83397 0.755 0 84 127
-3.315991 -14.761476 0.769 0 84 127
-3.154935 -14.813235 0.734 0 84 127
-3.17343 -14.834114 0.733 0 84 127
-3.133097 -14.82324 0.729 0 84 127
-3.254329 -14.827686 0.747 0 84 127
-3.300259 -14.809896 0.758 0 84 127
-3.225024 -14.796603 0.748 0 84 127
-3.331359 -14.782826 0.768 0 84 127
-3.42794 -14.721271 0.795 0 84 127
-3.425436 -14.744992 0.79 0 84 127
-3.248627 -14.783455 0.755 0 84 127
-3.098819 -14.844073 0.72 0 84 127
-3.322029 -14.790948 0.765 0 84 127
-3.416005 -14.739697 0.789 0 84 127
-3.214819 -14.807414 0.745 0 84 127
-3.36865 -14.805351 0.77 0 84 127
-3.43391 -14.741797 0.792 0 84 127
-3.306262 -14.834895 0.754 0 84 127
-3.259336 -14.780243 0.757 0 84 127
-3.309877 -14.839787 0.754 0 84 127
-3.417889 -14.752205 0.787 0 84 127
-3.257842 -14.819162 0.75 0 84 127
-3.447139 -14.7171 0.798 0 84 127
-3.331075 -14.804296 0.764 0 84 127
-3.370898 -14.748089 0.781 0 84 127
-3.184037 -14.817487 0.738 0 84 127
-3.111276 -14.835481 0.723 0 84 127
-3.395359 -14.730015 0.788 0 84 127
-3.403666 -14.763941 0.783 0 84 127
-3.330706 -14.814584 0.762 0 84 127
-3.351351 -14.824266 0.763 0 84 127
-3.201641 -14.83882 0.737 0 84 127
-3.327375 -14.788223 0.766 0 84 127
-3.283614 -14.797053 0.758 0 84 127
-3.337783 -14.804245 0.765 0 84 127
-3.098768 -14.837364 0.721 0 84 127
-3.398151 -14.744306 0.785 0 84 127
-3.406187 -14.742455 0.787 0 84 127
-3.22605 -14.814036 0.745 0 84 127
-3.334639 -14.80248 0.765 0 84 127
-3.330048 -14.786861 0.767 0 84 127
-3.10551 -14.841785 0.721 0 84 127
-3.212079 -14.799832 0.746 0 84 127
-3.177767 -14.816193 0.737 0 84 127
-3.176824 -14.809938 0.738 0 84 127
-3.336506 -14.812752 0.763 0 84 127
-3.341847 -14.750546 0.776 0 84 127
-3.221715 -14.83196 0.741 0 84 127
-3.221663 -14.825251 0.742 0 84 127
-3.109528 -14.840861 0.722 0 84 127
-3.20011 -14.813787 0.741 0 84 127
-3.289181 -14.823397 0.754 0 84 127
-3.18397 -14.808543 0.74 0 84 127
-3.302245 -14.83582 0.753 0 84 127
-3.416862 -14.734772 0.79 0 84 127
-3.25601 -14.813362 0.75 0 84 127
-3.276707 -14.829753 0.75 0 84 127
-3.452587 -14.727791 0.797 0 84 127
-3.210246 -14.794032 0.747 0 84 127
-3.367267 -14.740962 0.781 0 84 127
-3.149742 -14.836083 0.729 0 84 127
-3.43643 -14.720311 0.796 0 84 127
-3.360881 -14.783497 0.772 0 84 127
-3.181976 -14.899344 0.684 0 84 127
-3.171737 -14.905684 0.675 0 84 127
-3.199036 -14.849126 0.733 0 84 127
-3.178645 -14.872983 0.707 0 84 127
-3.253375 -14.878677 0.715 0 84 127
-3.300127 -14.851489 0.75 0 84 127
-3.089926 -14.850849 0.712 0 84 127
-3.143912 -14.892925 0.682 0 84 127
-3.226929 -14.870829 0.718 0 84 127
-3.145406 -14.854005 0.719 0 84 127
-3.142148 -14.89607 0.679 0 84 127
-3.166069 -14.865923 0.711 0 84 127
-3.188718 -14.903766 0.68 0 84 127
-3.194598 -14.853632 0.728 0 84 127
-3.173888 -14.894486 0.686 0 84 127
-3.206822 -14.873218 0.712 0 84 127
-3.235266 -14.849745 0.74 0 84 127
-3.110203 -14.87082 0.697 0 84 127
-3.277802 -14.856131 0.741 0 84 127
-3.197742 -14.855396 0.727 0 84 127
-3.182464 -14.904708 0.678 0 84 127
-3.211158 -14.855295 0.73 0 84 127
-3.151427 -14.88124 0.695 0 84 127
-3.279634 -14.861931 0.736 0 84 127
-3.101594 -14.856127 0.71 0 84 127
-3.245742 -14.874711 0.718 0 84 127
-3.116037 -14.873459 0.695 0 84 127
-3.228728 -14.872156 0.717 0 84 127
-3.177521 -14.901615 0.68 0 84 127
-3.279583 -14.855223 0.743 0 84 127
-3.154957 -14.874952 0.702 0 84 127
-3.293924 -14.859138 0.741 0 84 127
-3.077367 -14.846025 0.714 0 84 127
-3.228104 -14.848906 0.739 0 84 127
-3.26405 -14.870994 0.725 0 84 127
-3.237201 -14.868961 0.722 0 84 127
-3.206385 -14.874561 0.711 0 84 127
-3.200818 -14.848217 0.734 0 84 127
-3.128358 -14.846979 0.722 0 84 127
-3.121803 -14.867153 0.703 0 84 127
-3.176965 -14.887307 0.694 0 84 127
-3.12081 -14.854193 0.714 0 84 127
-3.2738 -14.859291 0.737 0 84 127
-3.227468 -14.882899 0.707 0 84 127
-3.133403 -14.863488 0.708 0 84 127
-3.233603 -14.866305 0.724 0 84 127
-3.190465 -14.898385 0.686 0 84 127
-3.194178 -14.857212 0.725 0 84 127
-3.185591 -14.904237 0.679 0 84 127
-3.260435 -14.866101 0.728 0 84 127
-3.307777 -14.857692 0.745 0 84 127
-3.311761 -14.852296 0.751 0 84 127
-3.163651 -14.900826 0.678 0 84 127
-3.214336 -14.861532 0.725 0 84 127
-3.129385 -14.864413 0.706 0 84 127
-3.144566 -14.861167 0.712 0 84 127
-3.211362 -14.882128 0.704 0 84 127
-3.16074 -14.870884 0.706 0 84 127
-3.205612 -14.890668 0.696 0 84 127
-3.134277 -14.860798 0.71 0 84 127
-3.145207 -14.886655 0.689 0 84 127
-3.211765 -14.87631 0.71 0 84 127
-3.171029 -14.871252 0.707 0 84 127
-3.213848 -14.856169 0.73 0 84 127
-3.121048 -14.885496 0.685 0 84 127
-3.189995 -14.895259 0.688 0 84 127
-3.207123 -14.853984 0.73 0 84 127
-3.108773 -14.859203 0.708 0 84 127
-3.144901 -14.846406 0.726 0 84 127
-3.167953 -14.878431 0.7 0 84 127
-3.17377 -14.878835 0.701 0 84 127
-3.201107 -14.88623 0.699 0 84 127
-3.097054 -14.847217 0.717 0 84 127
-3.166472 -14.860106 0.717 0 84 127
-3.214756 -14.857951 0.728 0 84 127
-3.230056 -14.870357 0.719 0 84 127
-3.271649 -14.870488 0.727 0 84 127
-3.122342 -14.879225 0.691 0 84 127
-3.144498 -14.852223 0.721 0 84 127
-3.21353 -14.873166 0.713 0 84 127
-3.119851 -14.845702 0.722 0 84 127
-3.225567 -14.868155 0.72 0 84 127
-3.166875 -14.85429 0.723 0 84 127
-3.160167 -14.854341 0.722 0 84 127
-3.270253 -14.863343 0.733 0 84 127
-3.255946 -14.863899 0.73 0 84 127
-3.219665 -14.856572 0.73 0 84 127
-3.181555 -14.902925 0.68 0 84 127
-3.27111 -14.858418 0.738 0 84 127
-3.089977 -14.857556 0.706 0 84 127
-3.219228 -14.857917 0.729 0 84 127
-3.194517 -14.901933 0.683 0 84 127
-3.163345 -14.860578 0.716 0 84 127
-3.167078 -14.881121 0.697 0 84 127
-3.244885 -14.879637 0.713 0 84 127
-3.20563 -14.892904 0.694 0 84 127
-3.196635 -14.886264 0.698 0 84 127
-3.100351 -14.869105 0.697 0 84 127
-3.088649 -14.859356 0.704 0 84 127
-3.22412 -14.854302 0.733 0 84 127
-3.276541 -14.866874 0.731 0 84 127
-3.24564 -14.861295 0.73 0 84 127
-3.264402 -14.858468 0.737 0 84 127
-3.213814 -14.851697 0.734 0 84 127
-3.166421 -14.853398 0.724 0 84 127
-3.242564 -14.868474 0.723 0 84 127
-3.171296 -14.847548 0.73 0 84 127
-3.107882 -14.859657 0.707 0 84 127
-3.136279 -14.888958 0.685 0 84 127
-3.193037 -14.883608 0.7 0 84 127
-3.165195 -14.868614 0.709 0 84 127
-3.244295 -14.860857 0.731 0 84 127
-3.103915 -14.86729 0.699 0 84 127
-3.262132 -14.854013 0.74 0 84 127
-3.169871 -14.895411 0.684 0 84 127
-3.150184 -14.894219 0.682 0 84 127
-3.215732 -14.868677 0.718 0 84 127
-3.111514 -14.866785 0.701 0 84 127
-3.236662 -14.85689 0.733 0 84 127
-3.212083 -14.859313 0.726 0 84 127
-3.2469 -14.850552 0.74 0 84 127
-3.197844 -14.868813 0.715 0 84 127
-3.231855 -14.871686 0.719 0 84 127
-3.168962 -14.893629 0.686 0 84 127
-3.238092 -14.868507 0.722 0 84 127
-3.213127 -14.878983 0.708 0 84 127
-3.153781 -14.896875 0.68 0 84 127
-3.476877 -14.687357 0.778 0 84 127
-3.42903 -14.688168 0.759 0 84 127
-3.463695 -14.659282 0.709 0 84 127
-3.452952 -14.658022 0.702 0 84 127
-3.411897 -14.669961 0.709 0 84 127
-3.433871 -14.677844 0.737 0 84 127
-3.422203 -14.672566 0.721 0 84 127
-3.47143 -14.676664 0.751 0 84 127
-3.409377 -14.691446 0.758 0 84 127
-3.448514 -14.662527 0.709 0 84 127
-3.453843 -14.657568 0.7 0 84 127
-3.475163 -14.697209 0.8 0 84 127
-3.436125 -14.680063 0.745 0 84 127
-3.393624 -14.67815 0.72 0 84 127
-3.479601 -14.692702 0.792 0 84 127
-3.47143 -14.676664 0.752 0 84 127
-3.437753 -14.659031 0.698 0 84 127
-3.392312 -14.682184 0.728 0 84 127
-3.43066 -14.667135 0.712 0 84 127
-3.466436 -14.666863 0.728 0 84 127
-3.438008 -14.692572 0.773 0 84 127
-3.462804 -14.659736 0.71 0 84 127
-3.41062 -14.678468 0.729 0 84 127
-3.417715 -14.670364 0.714 0 84 127
-3.446867 -14.681323 0.752 0 84 127
-3.461662 -14.686131 0.768 0 84 127
-3.462837 -14.664207 0.721 0 84 127
-3.378459 -14.683631 0.726 0 84 127
-3.441789 -14.660342 0.702 0 84 127
-3.410132 -14.673104 0.718 0 84 127
-3.468773 -14.680263 0.759 0 84 127
-3.46874 -14.675791 0.748 0 84 127
-3.452735 -14.688435 0.77 0 84 127
-3.468723 -14.673554 0.743 0 84 127
-3.458955 -14.683021 0.761 0 84 127
-3.452702 -14.683963 0.76 0 84 127
-3.476861 -14.685121 0.775 0 84 127
-3.466538 -14.68028 0.757 0 84 127
-3.464285 -14.678061 0.752 0 84 127
-3.43663 -14.687662 0.762 0 84 127
-3.485453 -14.697578 0.805 0 84 127
-3.478693 -14.690921 0.788 0 84 127
-3.435132 -14.667102 0.714 0 84 127
-3.434729 -14.672918 0.728 0 84 127
-3.414269 -14.687832 0.751 0 84 127
-3.412788 -14.669507 0.71 0 84 127
-3.46879 -14.682498 0.765 0 84 127
-3.472473 -14.696334 0.797 0 84 127
-3.412402 -14.67756 0.728 0 84 127
-3.420455 -14.677946 0.731 0 84 127
-3.460602 -14.664225 0.72 0 84 127
-3.408889 -14.686085 0.745 0 84 127
-3.437317 -14.660377 0.7 0 84 127
-3.406534 -14.670449 0.707 0 84 127
-3.450028 -14.685325 0.761 0 84 127
-3.435704 -14.683644 0.751 0 84 127
-3.457139 -14.679457 0.751 0 84 127
-3.447572 -14.656273 0.695 0 84 127
-3.424371 -14.663605 0.702 0 84 127
-3.465731 -14.691914 0.783 0 84 127
-3.415648 -14.692741 0.763 0 84 127
-3.443269 -14.678667 0.744 0 84 127
-3.465023 -14.657483 0.706 0 84 127
-3.415597 -14.686033 0.748 0 84 127
-3.387806 -14.677747 0.718 0 84 127
-3.429734 -14.663117 0.703 0 84 127
-3.475901 -14.67663 0.755 0 84 127
-3.432981 -14.678298 0.738 0 84 127
-3.416018 -14.682452 0.74 0 84 127
-3.456936 -14.652624 0.69 0 84 127
-3.478676 -14.688684 0.784 0 84 127
-3.420421 -14.673474 0.722 0 84 127
-3.452702 -14.683963 0.76 0 84 127
-3.420069 -14.685999 0.75 0 84 127
-3.462974 -14.682096 0.76 0 84 127
-3.406165 -14.680737 0.732 0 84 127
-3.475566 -14.691392 0.789 0 84 127
-3.432191 -14.692168 0.769 0 84 127
-3.4584 -14.668714 0.728 0 84 127
-3.422288 -14.683746 0.747 0 84 127
-3.427516 -14.66537 0.706 0 84 127
-3.427499 -14.663135 0.702 0 84 127
-3.356014 -14.672622 0.628 0 84 127
-3.311651 -14.719917 0.676 0 84 127
-3.350754 -14.686525 0.672 0 84 127
-3.394697 -14.642811 0.635 0 84 127
-3.376877 -14.651891 0.608 0 84 127
-3.356973 -14.681111 0.671 0 84 127
-3.345441 -14.693722 0.681 0 84 127
-3.37027 -14.665358 0.648 0 84 127
-3.333472 -14.707676 0.703 0 84 127
-3.335152 -14.693352 0.642 0 84 127
-3.369363 -14.663576 0.637 0 84 127
-3.327655 -14.707273 0.679 0 84 127
-3.364169 -14.686423 0.719 0 84 127
-3.398596 -14.626234 0.573 0 84 127
-3.396814 -14.627142 0.574 0 84 127
-3.426989 -14.596054 0.543 0 84 127
-3.396445 -14.63743 0.616 0 84 127
-3.332076 -14.700531 0.662 0 84 127
-3.408397 -14.62124 0.589 0 84 127
-3.366808 -14.68059 0.707 0 84 127
-3.426553 -14.5974 0.547 0 84 127
-3.32984 -14.700548 0.655 0 84 127
-3.326781 -14.709963 0.689 0 84 127
-3.354385 -14.693653 0.716 0 84 127
-3.363295 -14.689114 0.731 0 84 127
-3.336077 -14.69737 0.666 0 84 127
-3.371263 -14.67832 0.71 0 84 127
-3.35472 -14.678892 0.647 0 84 127
-3.36279 -14.681514 0.693 0 84 127
-3.339153 -14.69019 0.642 0 84 127
-3.332076 -14.700531 0.663 0 84 127
-3.312088 -14.718572 0.668 0 84 127
-3.352552 -14.687854 0.681 0 84 127
-3.381349 -14.651856 0.628 0 84 127
-3.357847 -14.678421 0.662 0 84 127
-3.419912 -14.606395 0.564 0 84 127
-3.373902 -14.672485 0.697 0 84 127
-3.304523 -14.723549 0.666 0 84 127
-3.37165 -14.670267 0.674 0 84 127
-3.357377 -14.675295 0.646 0 84 127
-3.330294 -14.701439 0.66 0 84 127
-3.402648 -14.629781 0.609 0 84 127
-3.34144 -14.696882 0.683 0 84 127
-3.372859 -14.652816 0.601 0 84 127
-3.41107 -14.619878 0.591 0 84 127
-3.349442 -14.69056 0.685 0 84 127
-3.352535 -14.685617 0.67 0 84 127
-3.322309 -14.709997 0.667 0 84 127
-3.367699 -14.680136 0.705 0 84 127
-3.351258 -14.694124 0.706 0 84 127
-3.328092 -14.705929 0.671 0 84 127
-3.378693 -14.655455 0.634 0 84 127
-3.33606 -14.695134 0.652 0 84 127
-3.382257 -14.653639 0.636 0 84 127
-3.341406 -14.69241 0.664 0 84 127
-3.362723 -14.672571 0.649 0 84 127
-3.397353 -14.639214 0.629 0 84 127
-3.391989 -14.639701 0.614 0 84 127
-3.356048 -14.677094 0.647 0 84 127
-3.31387 -14.717664 0.672 0 84 127
-3.345373 -14.684777 0.642 0 84 127
-3.370674 -14.65954 0.623 0 84 127
-3.317854 -14.712267 0.663 0 84 127
-3.392478 -14.645063 0.638 0 84 127
-3.387518 -14.639734 0.592 0 84 127
-3.387064 -14.638844 0.589 0 84 127
-3.369464 -14.676991 0.699 0 84 127
-3.376508 -14.66218 0.655 0 84 127
-3.319636 -14.711359 0.668 0 84 127
-3.375531 -14.651453 0.606 0 84 127
-3.373431 -14.669359 0.68 0 84 127
-3.318779 -14.716286 0.686 0 84 127
-3.35778 -14.669477 0.616 0 84 127
-3.404867 -14.627528 0.605 0 84 127
-3.36506 -14.685969 0.722 0 84 127
-3.431427 -14.591548 0.54 0 84 127
-3.386207 -14.643769 0.607 0 84 127
-3.346769 -14.691922 0.68 0 84 127
-3.373885 -14.670249 0.685 0 84 127
-3.3717 -14.676974 0.707 0 84 127
-3.336968 -14.696916 0.665 0 84 127
-3.316072 -14.713175 0.66 0 84 127
-3.331168 -14.69875 0.652 0 84 127
-3.404867 -14.627528 0.605 0 84 127
-3.37834 -14.667979 0.69 0 84 127
-3.404396 -14.624401 0.59 0 84 127
-3.381315 -14.647385 0.606 0 84 127
-3.411927 -14.614952 0.572 0 84 127
-3.366757 -14.673882 0.675 0 84 127
-3.376961 -14.663071 0.661 0 84 127
-3.327638 -14.705037 0.668 0 84 127
-3.374204 -14.653253 0.604 0 84 127
-3.341894 -14.697773 0.689 0 84 127
-3.345912 -14.696849 0.7 0 84 127
-3.33253 -14.701423 0.671 0 84 127
-3.33337 -14.69426 0.637 0 84 127
-3.353914 -14.690527 0.701 0 84 127
-3.362302 -14.676151 0.665 0 84 127
-3.319653 -14.713594 0.675 0 84 127
-3.372422 -14.65416 0.605 0 84 127
-3.31076 -14.720371 0.674 0 84 127
-3.377012 -14.669779 0.694 0 84 127
-3.347138 -14.681633 0.635 0 84 127
-3.326327 -14.709072 0.681 0 84 127
-3.32942 -14.704129 0.667 0 84 127
-3.379198 -14.663054 0.671 0 84 127
-3.404816 -14.62082 0.573 0 84 127
-3.358704 -14.673495 0.642 0 84 127
-3.383517 -14.642896 0.592 0 84 127
-3.332513 -14.699185 0.66 0 84 127
-3.348937 -14.682961 0.538 0 84 127
-3.312423 -14.703811 0.558 0 84 127
-3.312661 -14.735115 0.528 0 84 127
-3.296805 -14.708402 0.571 0 84 127
-3.368085 -14.672083 0.528 0 84 127
-3.313131 -14.738242 0.523 0 84 127
-3.276953 -14.74433 0.558 0 84 127
-3.313534 -14.732425 0.529 0 84 127
-3.31639 -14.696178 0.562 0 84 127
-3.37232 -14.640744 0.554 0 84 127
-3.247952 -14.753495 0.581 0 84 127
-3.283677 -14.746516 0.549 0 84 127
-3.353761 -14.670403 0.545 0 84 127
-3.350095 -14.658802 0.562 0 84 127
-3.369346 -14.66134 0.537 0 84 127
-3.361696 -14.655136 0.552 0 84 127
-3.287071 -14.72234 0.569 0 84 127
-3.276936 -14.742095 0.561 0 84 127
-3.373716 -14.64789 0.546 0 84 127
-3.316225 -14.733299 0.525 0 84 127
-3.307026 -14.699827 0.568 0 84 127
-3.339658 -14.697791 0.534 0 84 127
-3.326798 -14.712199 0.534 0 84 127
-3.344533 -14.691939 0.534 0 84 127
-3.353341 -14.673984 0.543 0 84 127
-3.238151 -14.758489 0.588 0 84 127
-3.323921 -14.686729 0.563 0 84 127
-3.296504 -14.727635 0.553 0 84 127
-3.299007 -14.703913 0.573 0 84 127
-3.294569 -14.708419 0.573 0 84 127
-3.374153 -14.646544 0.546 0 84 127
-3.283274 -14.752333 0.543 0 84 127
-3.349039 -14.696377 0.525 0 84 127
-3.384459 -14.64915 0.532 0 84 127
-3.271556 -14.740347 0.568 0 84 127
-3.285324 -14.72772 0.565 0 84 127
-3.302792 -14.731165 0.542 0 84 127
-3.331185 -14.700985 0.54 0 84 127
-3.234604 -14.762541 0.588 0 84 127
-3.374539 -14.638492 0.554 0 84 127
-3.28635 -14.745153 0.547 0 84 127
-3.334295 -14.698277 0.54 0 84 127
-3.365396 -14.671208 0.532 0 84 127
-3.387518 -14.639734 0.538 0 84 127
-3.287258 -14.746936 0.544 0 84 127
-3.346366 -14.697739 0.526 0 84 127
-3.290114 -14.710689 0.577 0 84 127
-3.321265 -14.690327 0.562 0 84 127
-3.301327 -14.715075 0.559 0 84 127
-3.275438 -14.721534 0.582 0 84 127
-3.328932 -14.698766 0.545 0 84 127
-3.339455 -14.670959 0.56 0 84 127
-3.260931 -14.754738 0.565 0 84 127
-3.326832 -14.716671 0.529 0 84 127
-3.23768 -14.755362 0.591 0 84 127
-3.300471 -14.720002 0.556 0 84 127
-3.270278 -14.748854 0.562 0 84 127
-3.33732 -14.684391 0.55 0 84 127
-3.327706 -14.713982 0.531 0 84 127
-3.279206 -14.74655 0.554 0 84 127
-3.382189 -14.644694 0.54 0 84 127
-3.285005 -14.744717 0.548 0 84 127
-3.324159 -14.718033 0.532 0 84 127
-3.380038 -14.655892 0.53 0 84 127
-3.38266 -14.647821 0.536 0 84 127
-3.419895 -14.604157 0.537 0 84 127
-3.272799 -14.727367 0.58 0 84 127
-3.354686 -14.67442 0.54 0 84 127
-3.291005 -14.710235 0.576 0 84 127
-3.316712 -14.738662 0.519 0 84 127
-3.285022 -14.746952 0.547 0 84 127
-3.394107 -14.624032 0.546 0 84 127
-3.287695 -14.74559 0.545 0 84 127
-3.289443 -14.740211 0.548 0 84 127
-3.283258 -14.750097 0.545 0 84 127
-3.274296 -14.747929 0.557 0 84 127
-3.34396 -14.675396 0.552 0 84 127
-3.292957 -14.731687 0.553 0 84 127
-3.357461 -14.686474 0.526 0 84 127
-3.362553 -14.65021 0.556 0 84 127
-3.303882 -14.698062 0.574 0 84 127
-3.251499 -14.749443 0.582 0 84 127
-3.294217 -14.720944 0.562 0 84 127
-3.379431 -14.634877 0.552 0 84 127
-3.26626 -14.749779 0.564 0 84 127
-3.320777 -14.684964 0.568 0 84 127
-3.300606 -14.73789 0.538 0 84 127
-3.274279 -14.745692 0.559 0 84 127
-3.331202 -14.703221 0.539 0 84 127
-3.377785 -14.653672 0.536 0 84 127
-3.290249 -14.728577 0.558 0 84 127
-3.381213 -14.633969 0.551 0 84 127
-3.365396 -14.671208 0.532 0 84 127
-3.377382 -14.65949 0.53 0 84 127
-3.378693 -14.655455 0.532 0 84 127
-3.295074 -14.716018 0.567 0 84 127
-3.25898 -14.733287 0.59 0 84 127
-3.38165 -14.632624 0.552 0 84 127
-3.364487 -14.669426 0.535 0 84 127
-3.302605 -14.706569 0.567 0 84 127
-3.314676 -14.70603 0.554 0 84 127
-3.247481 -14.750368 0.586 0 84 127
-3.301714 -14.707023 0.568 0 84 127
-3.288116 -14.74201 0.548 0 84 127
-3.303042 -14.705224 0.568 0 84 127
-3.352752 -14.655204 0.561 0 84 127
-3.263621 -14.755612 0.562 0 84 127
-3.302439 -14.74369 0.529 0 84 127
-3.36178 -14.666316 0.54 0 84 127
-3.313586 -14.739133 0.523 0 84 127
-3.231914 -14.761667 0.591 0 84 127
-3.411422 -14.607353 0.545 0 84 127
-3.284921 -14.733537 0.65 0 84 127
-3.323535 -14.694782 0.618 0 84 127
-3.297208 -14.702585 0.584 0 84 127
-3.26298 -14.730125 0.592 0 84 127
-3.255416 -14.735103 0.592 0 84 127
-3.39056 -14.628083 0.562 0 84 127
-3.247918 -14.749023 0.618 0 84 127
-3.246119 -14.747696 0.609 0 84 127
-3.285324 -14.72772 0.634 0 84 127
-3.352887 -14.673092 0.615 0 84 127
-3.337269 -14.677684 0.595 0 84 127
-3.269706 -14.73231 0.615 0 84 127
-3.332326 -14.67459 0.577 0 84 127
-3.291476 -14.713362 0.603 0 84 127
-3.262544 -14.731471 0.597 0 84 127
-3.35551 -14.665023 0.596 0 84 127
-3.306572 -14.698936 0.593 0 84 127
-3.261284 -14.742213 0.624 0 84 127
-3.37854 -14.635331 0.556 0 84 127
-3.411893 -14.61048 0.555 0 84 127
-3.306237 -14.713696 0.639 0 84 127
-3.394578 -14.627159 0.568 0 84 127
-3.295142 -14.724962 0.648 0 84 127
-3.254087 -14.736901 0.595 0 84 127
-3.32219 -14.694345 0.615 0 84 127
-3.304773 -14.697608 0.586 0 84 127
-3.358586 -14.657844 0.582 0 84 127
-3.316458 -14.705122 0.636 0 84 127
-3.282112 -14.71701 0.595 0 84 127
-3.289829 -14.732158 0.658 0 84 127
-3.346162 -14.670907 0.593 0 84 127
-3.265284 -14.739052 0.626 0 84 127
-3.254558 -14.740028 0.604 0 84 127
-3.266999 -14.7292 0.597 0 84 127
-3.316373 -14.693941 0.598 0 84 127
-3.317264 -14.693487 0.599 0 84 127
-3.30832 -14.693556 0.58 0 84 127
-3.265722 -14.737708 0.622 0 84 127
-3.291022 -14.71247 0.6 0 84 127
-3.308019 -14.712789 0.64 0 84 127
-3.349761 -14.673564 0.612 0 84 127
-3.32135 -14.701508 0.634 0 84 127
-3.328478 -14.697875 0.638 0 84 127
-3.376372 -14.644292 0.579 0 84 127
-3.336412 -14.68261 0.609 0 84 127
-3.339119 -14.685719 0.624 0 84 127
-3.291578 -14.726778 0.646 0 84 127
-3.358131 -14.656952 0.579 0 84 127
-3.250137 -14.74677 0.615 0 84 127
-3.257703 -14.741794 0.615 0 84 127
-3.358166 -14.661425 0.593 0 84 127
-3.22255 -14.765316 0.61 0 84 127
-3.311163 -14.714554 0.653 0 84 127
-3.338143 -14.674993 0.588 0 84 127
-3.283003 -14.716557 0.594 0 84 127
-3.324426 -14.694328 0.617 0 84 127
-3.347541 -14.675816 0.613 0 84 127
-3.3564 -14.664569 0.598 0 84 127
-3.29857 -14.705258 0.597 0 84 127
-3.315482 -14.694396 0.597 0 84 127
-3.378591 -14.642038 0.578 0 84 127
-3.302202 -14.712385 0.625 0 84 127
-3.264376 -14.73727 0.619 0 84 127
-3.359074 -14.663206 0.6 0 84 127
-3.278213 -14.733587 0.638 0 84 127
-3.304472 -14.716841 0.645 0 84 127
-3.315079 -14.700212 0.616 0 84 127
-3.317298 -14.69796 0.615 0 84 127
-3.275472 -14.726006 0.607 0 84 127
-3.262544 -14.731471 0.597 0 84 127
-3.290988 -14.707998 0.586 0 84 127
-3.288871 -14.723668 0.63 0 84 127
-3.311986 -14.705155 0.624 0 84 127
-3.247918 -14.749023 0.617 0 84 127
-3.232317 -14.75585 0.605 0 84 127
-3.285744 -14.724138 0.625 0 84 127
-3.277691 -14.723753 0.604 0 84 127
-3.303615 -14.721766 0.656 0 84 127
-3.331872 -14.673699 0.571 0 84 127
-3.32656 -14.680895 0.581 0 84 127
-3.310204 -14.706064 0.622 0 84 127
-3.319954 -14.694363 0.61 0 84 127
-3.260813 -14.739086 0.617 0 84 127
-3.303865 -14.695826 0.578 0 84 127
-3.262157 -14.739524 0.618 0 84 127
-3.325368 -14.700582 0.642 0 84 127
-3.383432 -14.631716 0.555 0 84 127
-3.323098 -14.696127 0.621 0 84 127
-3.360787 -14.653355 0.572 0 84 127
-3.34043 -14.681684 0.616 0 84 127
-3.291459 -14.711126 0.596 0 84 127
-3.275557 -14.737185 0.642 0 84 127
-3.267521 -14.739036 0.632 0 84 127
-3.394107 -14.624032 0.555 0 84 127
-3.324477 -14.701035 0.639 0 84 127
-3.297832 -14.725836 0.656 0 84 127
-3.322695 -14.701943 0.639 0 84 127
-3.287594 -14.732175 0.654 0 84 127
-3.349272 -14.6682 0.594 0 84 127
-3.226988 -14.76081 0.607 0 84 127
-3.352399 -14.667729 0.599 0 84 127
-3.312758 -14.68905 0.576 0 84 127
-3.310119 -14.694883 0.589 0 84 127
-3.3835 -14.64066 0.584 0 84 127
-3.272362 -14.728713 0.61 0 84 127
-3.260813 -14.739086 0.616 0 84 127
-3.38081 -14.639786 0.577 0 84 127
-3.35324 -14.660567 0.579 0 84 127
-3.289728 -14.718741 0.617 0 84 127
-3.320777 -14.684964 0.582 0 84 127
-3.384323 -14.631262 0.557 0 84 127
-3.317264 -14.693487 0.598 0 84 127
-3.405219 -14.615003 0.553 0 84 127
-3.297713 -14.710184 0.608 0 84 127
-3.340413 -14.679448 0.609 0 84 127
-3.313229 -14.692177 0.586 0 84 127
-3.318138 -14.690798 0.593 0 84 127
-3.349323 -14.674908 0.616 0 84 127
-3.28176 -14.729536 0.633 0 84 127
-3.406127 -14.616785 0.559 0 84 127
-3.343103 -14.680322 0.615 0 84 127
-3.290216 -14.724105 0.633 0 84 127
-3.263957 -14.740851 0.629 0 84 127
-3.295897 -14.70662 0.594 0 84 127
-3.324409 -14.692092 0.612 0 84 127
-3.353206 -14.656096 0.565 0 84 127
-3.403437 -14.615911 0.551 0 84 127
-3.338682 -14.687064 0.627 0 84 127
-3.285642 -14.710723 0.583 0 84 127
-3.231897 -14.759431 0.614 0 84 127
-3.193584 -14.778953 0.691 0 84 127
-3.240807 -14.754891 0.699 0 84 127
-3.328563 -14.709055 0.718 0 84 127
-3.290687 -14.727232 0.717 0 84 127
-3.27554 -14.73495 0.719 0 84 127
-3.11114 -14.817593 0.705 0 84 127
-3.161928 -14.791715 0.712 0 84 127
-3.227442 -14.761701 0.698 0 84 127
-3.18733 -14.779895 0.711 0 84 127
-3.135635 -14.80399 0.716 0 84 127
-3.309835 -14.716352 0.728 0 84 127
-3.308995 -14.723516 0.685 0 84 127
-3.125834 -14.808984 0.715 0 84 127
-3.325453 -14.711762 0.709 0 84 127
-3.205587 -14.769469 0.72 0 84 127
-3.251954 -14.750335 0.694 0 84 127
-3.233679 -14.758523 0.695 0 84 127
-3.288922 -14.730375 0.706 0 84 127
-3.260392 -14.742667 0.719 0 84 127
-3.219843 -14.762206 0.721 0 84 127
-3.212749 -14.77031 0.688 0 84 127
-3.140981 -14.801267 0.714 0 84 127
-3.203368 -14.771723 0.71 0 84 127
-3.286249 -14.731738 0.706 0 84 127
-3.336582 -14.704968 0.716 0 84 127
-3.293394 -14.730342 0.692 0 84 127
-3.162382 -14.792606 0.705 0 84 127
-3.314307 -14.716318 0.711 0 84 127
-3.233225 -14.757631 0.703 0 84 127
-3.227442 -14.761701 0.701 0 84 127
-3.209185 -14.772126 0.691 0 84 127
-3.299631 -14.727163 0.688 0 84 127
-3.280029 -14.737151 0.691 0 84 127
-3.260846 -14.743558 0.706 0 84 127
-3.23768 -14.755362 0.704 0 84 127
-3.211404 -14.769873 0.697 0 84 127
-3.206024 -14.768126 0.721 0 84 127
-3.121378 -14.811255 0.712 0 84 127
-3.280012 -14.734916 0.7 0 84 127
-3.204242 -14.769033 0.721 0 84 127
-3.21717 -14.763568 0.716 0 84 127
-3.344601 -14.700883 0.72 0 84 127
-3.274683 -14.739876 0.69 0 84 127
-3.230569 -14.76123 0.688 0 84 127
-3.278246 -14.738059 0.685 0 84 127
-3.138308 -14.802629 0.716 0 84 127
-3.344584 -14.698647 0.728 0 84 127
-3.286249 -14.731738 0.702 0 84 127
-3.313433 -14.719009 0.695 0 84 127
-3.308541 -14.722624 0.694 0 84 127
-3.171729 -14.786721 0.71 0 84 127
-3.303632 -14.724003 0.701 0 84 127
-3.157472 -14.793985 0.708 0 84 127
-3.209588 -14.766309 0.722 0 84 127
-3.22566 -14.762609 0.695 0 84 127
-3.327672 -14.709509 0.713 0 84 127
-3.338364 -14.704061 0.713 0 84 127
-3.251936 -14.748098 0.708 0 84 127
-3.276919 -14.739859 0.677 0 84 127
-3.138325 -14.804864 0.704 0 84 127
-3.301379 -14.721784 0.718 0 84 127
-3.144545 -14.799451 0.718 0 84 127
-3.317888 -14.71674 0.698 0 84 127
-3.288939 -14.732612 0.692 0 84 127
-3.184674 -14.783493 0.694 0 84 127
-3.183783 -14.783947 0.695 0 84 127
-3.245245 -14.750385 0.717 0 84 127
-3.241227 -14.75131 0.724 0 84 127
-3.137417 -14.803082 0.717 0 84 127
-3.172637 -14.788503 0.697 0 84 127
-3.259535 -14.747593 0.684 0 84 127
-3.153018 -14.796255 0.715 0 84 127
-3.243464 -14.751293 0.716 0 84 127
-3.185531 -14.778567 0.72 0 84 127
-3.167711 -14.787646 0.719 0 84 127
-3.253281 -14.748535 0.701 0 84 127
-3.312071 -14.716336 0.723 0 84 127
-3.331673 -14.706348 0.725 0 84 127
-3.297849 -14.728071 0.689 0 84 127
-3.275137 -14.740767 0.68 0 84 127
-3.135197 -14.805335 0.709 0 84 127
-3.309886 -14.723062 0.687 0 84 127
-3.178857 -14.78309 0.714 0 84 127
-3.299597 -14.722692 0.717 0 84 127
-3.238554 -14.752672 0.723 0 84 127
-3.272429 -14.737657 0.708 0 84 127
-3.113813 -14.816231 0.708 0 84 127
-3.191348 -14.778969 0.7 0 84 127
-3.223407 -14.760389 0.72 0 84 127
-3.193113 -14.775826 0.716 0 84 127
-3.307633 -14.720842 0.706 0 84 127
-3.121832 -14.812144 0.711 0 84 127
-3.179748 -14.782636 0.713 0 84 127
-3.259501 -14.743121 0.717 0 84 127
-3.09554 -14.82442 0.711 0 84 127
-3.277894 -14.750585 0.744 0 84 127
-3.386364 -14.723375 0.778 0 84 127
-3.364492 -14.728908 0.771 0 84 127
-3.157524 -14.800694 0.727 0 84 127
-3.308206 -14.737385 0.748 0 84 127
-3.245398 -14.770509 0.745 0 84 127
-3.344033 -14.743821 0.774 0 84 127
-3.432344 -14.712292 0.791 0 84 127
-3.157507 -14.798458 0.724 0 84 127
-3.204764 -14.778868 0.731 0 84 127
-3.3248 -14.74352 0.762 0 84 127
-3.304086 -14.724894 0.734 0 84 127
-3.428258 -14.704273 0.781 0 84 127
-3.304943 -14.719968 0.73 0 84 127
-3.369316 -14.716349 0.761 0 84 127
-3.330901 -14.722454 0.747 0 84 127
-3.384378 -14.697451 0.751 0 84 127
-3.252827 -14.747643 0.728 0 84 127
-3.432225 -14.69664 0.776 0 84 127
-3.157138 -14.808746 0.734 0 84 127
-3.113376 -14.817576 0.719 0 84 127
-3.338483 -14.719713 0.748 0 84 127
-3.22978 -14.7751 0.741 0 84 127
-3.307837 -14.747674 0.758 0 84 127
-3.149891 -14.796726 0.719 0 84 127
-3.376762 -14.69572 0.746 0 84 127
-3.283139 -14.734445 0.731 0 84 127
-3.096447 -14.826201 0.718 0 84 127
-3.29896 -14.756686 0.762 0 84 127
-3.299766 -14.745051 0.751 0 84 127
-3.24079 -14.752655 0.726 0 84 127
-3.361212 -14.709254 0.75 0 84 127
-3.328631 -14.717999 0.74 0 84 127
-3.300759 -14.758014 0.764 0 84 127
-3.403361 -14.723693 0.787 0 84 127
-3.373334 -14.715424 0.762 0 84 127
-3.229729 -14.768392 0.735 0 84 127
-3.264898 -14.747106 0.734 0 84 127
-3.385235 -14.692525 0.747 0 84 127
-3.255114 -14.754335 0.736 0 84 127
-3.227056 -14.769754 0.735 0 84 127
-3.228503 -14.783607 0.749 0 84 127
-3.324142 -14.715797 0.736 0 84 127
-3.295782 -14.750449 0.754 0 84 127
-3.232334 -14.758085 0.727 0 84 127
-3.437673 -14.707333 0.79 0 84 127
-3.398197 -14.691532 0.754 0 84 127
-3.169612 -14.802391 0.735 0 84 127
-3.290504 -14.762117 0.762 0 84 127
-3.471582 -14.696788 0.798 0 84 127
-3.39465 -14.695584 0.755 0 84 127
-3.396415 -14.69244 0.753 0 84 127
-3.170469 -14.797464 0.731 0 84 127
-3.379923 -14.69972 0.751 0 84 127
-3.112082 -14.823847 0.725 0 84 127
-3.413866 -14.693649 0.763 0 84 127
-3.226233 -14.779152 0.744 0 84 127
-3.446078 -14.695193 0.783 0 84 127
-3.362676 -14.725344 0.766 0 84 127
-3.36153 -14.692257 0.734 0 84 127
-3.276634 -14.761328 0.753 0 84 127
-3.364759 -14.705203 0.748 0 84 127
-3.128086 -14.811203 0.721 0 84 127
-3.155271 -14.798474 0.723 0 84 127
-3.337745 -14.740292 0.767 0 84 127
-3.44618 -14.70861 0.796 0 84 127
-3.282769 -14.744734 0.741 0 84 127
-3.129431 -14.81164 0.723 0 84 127
-3.395291 -14.721071 0.779 0 84 127
-3.304675 -14.743673 0.752 0 84 127
-3.373805 -14.718551 0.766 0 84 127
-3.224939 -14.785422 0.748 0 84 127
-3.135214 -14.80757 0.721 0 84 127
-3.426073 -14.710999 0.787 0 84 127
-3.217641 -14.766695 0.727 0 84 127
-3.39196 -14.69471 0.752 0 84 127
-3.408707 -14.720968 0.787 0 84 127
-3.446634 -14.7095 0.796 0 84 127
-3.371921 -14.706042 0.753 0 84 127
-3.384344 -14.692979 0.747 0 84 127
-3.19767 -14.786972 0.735 0 84 127
-3.329624 -14.730961 0.754 0 84 127
-3.115209 -14.823376 0.725 0 84 127
-3.43996 -14.714024 0.797 0 84 127
-3.390598 -14.692037 0.749 0 84 127
-3.362052 -14.702093 0.744 0 84 127
-3.13614 -14.811589 0.726 0 84 127
-3.364424 -14.719963 0.762 0 84 127
-3.453762 -14.705868 0.797 0 84 127
-3.414978 -14.722263 0.792 0 84 127
-3.31409 -14.746732 0.76 0 84 127
-3.268076 -14.753343 0.742 0 84 127
-3.422106 -14.718632 0.793 0 84 127
-3.364055 -14.730253 0.771 0 84 127
-3.27702 -14.753275 0.746 0 84 127
-3.290789 -14.740648 0.741 0 84 127
-3.290856 -14.749592 0.75 0 84 127
-3.383941 -14.698796 0.752 0 84 127
-3.200241 -14.772194 0.723 0 84 127
-3.370559 -14.703369 0.749 0 84 127
-3.256391 -14.745828 0.728 0 84 127
-3.266346 -14.760959 0.748 0 84 127
-3.384162 -14.727864 0.78 0 84 127
-3.16598 -14.795262 0.726 0 84 127
-3.465833 -14.705329 0.802 0 84 127
-3.322428 -14.725649 0.745 0 84 127
-3.242339 -14.779924 0.753 0 84 127
-3.195031 -14.792806 0.739 0 84 127
-3.29089 -14.754064 0.755 0 84 127
-3.378998 -14.695703 0.746 0 84 127
-3.330179 -14.745268 0.768 0 84 127
-3.216767 -14.769384 0.729 0 84 127
-3.408639 -14.712025 0.779 0 84 127
-3.379571 -14.712245 0.763 0 84 127
-3.365735 -14.715929 0.758 0 84 127
-3.252929 -14.76106 0.74 0 84 127
-3.413633 -14.721826 0.791 0 84 127
-3.326934 -14.730087 0.751 0 84 127
-3.449273 -14.703667 0.792 0 84 127
-3.293143 -14.756283 0.758 0 84 127
-3.396415 -14.69244 0.753 0 84 127
-3.292235 -14.7545 0.756 0 84 127
-3.254813 -14.773568 0.754 0 84 127
-3.421181 -14.714613 0.788 0 84 127
-3.254592 -14.7445 0.726 0 84 127
-3.312071 -14.716336 0.73 0 84 127
-3.280029 -14.737151 0.732 0 84 127
-3.105811 -14.822553 0.72 0 84 127
-3.166451 -14.798389 0.729 0 84 127
-3.366524 -14.702059 0.746 0 84 127
-3.22566 -14.762609 0.727 0 84 127
-3.379537 -14.707773 0.759 0 84 127
-3.345764 -14.736205 0.768 0 84 127
-3.350236 -14.736172 0.77 0 84 127
-3.404553 -14.704006 0.768 0 84 127
-3.262662 -14.747123 0.733 0 84 127
-3.360372 -14.716416 0.756 0 84 127
-3.217306 -14.781456 0.741 0 84 127
-3.367199 -14.732018 0.775 0 84 127
-3.350639 -14.730354 0.764 0 84 127
-3.427804 -14.703382 0.781 0 84 127
-3.297161 -14.755358 0.76 0 84 127
-3.294505 -14.758956 0.761 0 84 127
-3.260494 -14.756083 0.741 0 84 127
-3.328563 -14.709055 0.732 0 84 127
-3.426561 -14.716361 0.792 0 84 127
-3.375621 -14.722115 0.77 0 84 127
-3.344686 -14.712063 0.744 0 84 127
-3.347949 -14.729481 0.762 0 84 127
-3.329306 -14.747958 0.769 0 84 127
-3.391523 -14.696054 0.754 0 84 127
-3.333659 -14.732272 0.757 0 84 127
-3.397493 -14.716581 0.777 0 84 127
-3.368777 -14.704277 0.75 0 84 127
-3.413917 -14.700356 0.77 0 84 127
-3.252844 -14.749881 0.73 0 84 127
-3.426408 -14.696237 0.773 0 84 127
-3.237867 -14.779958 0.751 0 84 127
-3.296219 -14.749104 0.753 0 84 127
-3.349328 -14.734389 0.767 0 84 127
-3.362018 -14.69762 0.739 0 84 127
-3.307013 -14.757071 0.766 0 84 127
-3.215507 -14.780128 0.739 0 84 127
-3.224519 -14.789004 0.571 0 84 127
-3.214064 -14.825756 0.544 0 84 127
-3.247282 -14.783017 0.553 0 84 127
-3.288688 -14.758553 0.531 0 84 127
-3.274853 -14.762236 0.542 0 84 127
-3.225393 -14.786314 0.573 0 84 127
-3.236908 -14.771468 0.576 0 84 127
-3.285998 -14.757679 0.534 0 84 127
-3.235966 -14.765214 0.584 0 84 127
-3.218265 -14.789946 0.577 0 84 127
-3.262378 -14.768592 0.549 0 84 127
-3.249081 -14.784345 0.548 0 84 127
-3.213725 -14.781035 0.592 0 84 127
-3.207793 -14.824462 0.553 0 84 127
-3.268297 -14.782411 0.528 0 84 127
-3.246005 -14.791524 0.545 0 84 127
-3.280618 -14.755931 0.543 0 84 127
-3.260092 -14.761901 0.56 0 84 127
-3.238474 -14.800973 0.543 0 84 127
-3.270363 -14.760034 0.55 0 84 127
-3.215779 -14.815905 0.554 0 84 127
-3.221341 -14.782767 0.581 0 84 127
-3.217442 -14.799344 0.569 0 84 127
-3.209423 -14.803431 0.573 0 84 127
-3.224654 -14.806891 0.552 0 84 127
-3.270431 -14.768977 0.541 0 84 127
-3.252259 -14.790582 0.539 0 84 127
-3.248928 -14.764221 0.569 0 84 127
-3.206381 -14.815081 0.564 0 84 127
