ply
format ascii 1.0
element vertex 1340
property double x
property double y
property double z
property uchar red
property uchar green
property uchar blue
element face 0
property list uchar int vertex_indices
end_header
0.288254 -16.051357 2.441 190 190 0
0.229184 -16.173897 2.579 190 190 0
0.310045 -16.008589 2.477 190 190 0
0.15658 -16.311987 2.323 190 190 0
0.315493 -15.997897 2.54 190 190 0
0.262394 -16.099909 2.398 190 190 0
0.188308 -16.256323 2.584 190 190 0
0.142943 -16.340952 2.4 190 190 0
0.29007 -16.047794 2.444 190 190 0
0.180153 -16.270124 2.497 190 190 0
0.225586 -16.176552 2.434 190 190 0
0.155638 -16.318239 2.505 190 190 0
0.176555 -16.272781 2.364 190 190 0
0.311408 -16.005917 2.484 190 190 0
0.290053 -16.05003 2.541 190 190 0
0.301874 -16.024628 2.51 190 190 0
0.226057 -16.173426 2.403 190 190 0
0.275508 -16.080778 2.622 190 190 0
0.306901 -16.010355 2.371 190 190 0
0.285076 -16.057596 2.435 190 190 0
0.245125 -16.136003 2.422 190 190 0
0.321378 -15.988551 2.604 190 190 0
0.133829 -16.363243 2.494 190 190 0
0.300931 -16.030882 2.645 190 190 0
0.175142 -16.282164 2.556 190 190 0
0.325935 -15.977405 2.538 190 190 0
0.225149 -16.175209 2.36 190 190 0
0.262394 -16.099909 2.378 190 190 0
0.214254 -16.196592 2.372 190 190 0
0.267842 -16.089216 2.384 190 190 0
0.297317 -16.035774 2.554 190 190 0
0.189687 -16.251413 2.535 190 190 0
0.21696 -16.193481 2.467 190 190 0
0.23512 -16.157841 2.498 190 190 0
0.166567 -16.292383 2.353 190 190 0
0.187871 -16.254978 2.514 190 190 0
0.277324 -16.077215 2.596 190 190 0
0.244217 -16.137785 2.405 190 190 0
0.224678 -16.178335 2.459 190 190 0
0.154747 -16.317785 2.395 190 190 0
0.316839 -15.99746 2.572 190 190 0
0.148828 -16.331604 2.449 190 190 0
0.19152 -16.245613 2.462 190 190 0
0.182003 -16.262089 2.36 190 190 0
0.271927 -16.081198 2.398 190 190 0
0.221954 -16.183681 2.41 190 190 0
0.291432 -16.04512 2.483 190 190 0
0.238281 -16.153841 2.555 190 190 0
0.233304 -16.161406 2.454 190 190 0
0.291432 -16.04512 2.514 190 190 0
0.326389 -15.976513 2.547 190 190 0
0.247849 -16.130657 2.434 190 190 0
0.238298 -16.151604 2.454 190 190 0
0.246958 -16.130203 2.329 190 190 0
0.208335 -16.210411 2.442 190 190 0
0.311844 -16.007261 2.586 190 190 0
0.237844 -16.152496 2.482 190 190 0
0.192882 -16.242941 2.462 190 190 0
0.123421 -16.379265 2.385 190 190 0
0.153368 -16.322695 2.498 190 190 0
0.260998 -16.107054 2.52 190 190 0
0.211496 -16.206409 2.523 190 190 0
0.312298 -16.006371 2.588 190 190 0
0.286001 -16.053577 2.387 190 190 0
0.299587 -16.031319 2.531 190 190 0
0.26236 -16.104382 2.493 190 190 0
0.174705 -16.280817 2.479 190 190 0
0.107498 -16.414923 2.441 190 190 0
0.26964 -16.087889 2.429 190 190 0
0.223787 -16.177881 2.369 190 190 0
0.304127 -16.022408 2.569 190 190 0
0.237878 -16.148024 2.348 190 190 0
0.248706 -16.135584 2.6 190 190 0
0.26009 -16.108835 2.483 190 190 0
0.229184 -16.173897 2.6 190 190 0
0.225603 -16.174316 2.381 190 190 0
0.288288 -16.046886 2.361 190 190 0
0.185635 -16.254961 2.366 190 190 0
0.294627 -16.036648 2.385 190 190 0
0.188813 -16.248724 2.386 190 190 0
0.21738 -16.197063 2.617 190 190 0
0.314131 -16.00057 2.511 190 190 0
0.191991 -16.242487 2.395 190 190 0
0.26737 -16.092344 2.418 190 190 0
0.272801 -16.083887 2.539 190 190 0
0.08843 -16.452345 2.431 190 190 0
0.162465 -16.302639 2.409 190 190 0
0.142001 -16.347206 2.504 190 190 0
0.218776 -16.189919 2.438 190 190 0
0.334998 -15.96182 2.617 190 190 0
0.282335 -16.065176 2.564 190 190 0
0.147449 -16.336514 2.566 190 190 0
0.253314 -16.117729 2.351 190 190 0
0.181566 -16.260744 2.314 190 190 0
0.154713 -16.322258 2.58 190 190 0
0.271927 -16.081198 2.357 190 190 0
0.155638 -16.318239 2.497 190 190 0
0.189216 -16.254541 2.597 190 190 0
0.287346 -16.053141 2.506 190 190 0
0.159757 -16.30575 2.334 190 190 0
0.138386 -16.352098 2.442 190 190 0
0.27687 -16.078104 2.598 190 190 0
0.330021 -15.969386 2.545 190 190 0
0.153402 -16.318222 2.342 190 190 0
0.313678 -16.001461 2.511 190 190 0
0.177412 -16.277708 2.57 190 190 0
0.251918 -16.124874 2.475 190 190 0
0.20968 -16.209974 2.476 190 190 0
0.170619 -16.288836 2.478 190 190 0
0.207444 -16.209957 2.373 190 190 0
0.298225 -16.033991 2.599 190 190 0
0.174285 -16.277237 2.388 190 190 0
0.303673 -16.0233 2.591 190 190 0
0.250102 -16.128439 2.462 190 190 0
0.285093 -16.055359 2.363 190 190 0
0.308717 -16.00679 2.385 190 190 0
0.261939 -16.1008 2.341 190 190 0
0.315039 -15.998789 2.506 190 190 0
0.28822 -16.05583 2.623 190 190 0
0.272835 -16.079416 2.349 190 190 0
0.320941 -15.987206 2.511 190 190 0
0.236011 -16.158295 2.541 190 190 0
0.301874 -16.024628 2.527 190 190 0
0.243309 -16.139568 2.391 190 190 0
0.114324 -16.399323 2.383 190 190 0
0.291869 -16.046465 2.568 190 190 0
0.254607 -16.124001 2.61 190 190 0
0.284202 -16.054905 2.345 190 190 0
0.214254 -16.196592 2.382 190 190 0
0.287329 -16.055376 2.569 190 190 0
0.230143 -16.165407 2.367 190 190 0
0.151569 -16.324022 2.409 190 190 0
0.268261 -16.092798 2.523 190 190 0
0.14153 -16.350332 2.565 190 190 0
0.277341 -16.074978 2.561 190 190 0
0.291415 -16.047358 2.518 190 190 0
0.120226 -16.387737 2.41 190 190 0
0.264192 -16.098581 2.425 190 190 0
0.24151 -16.140896 2.358 190 190 0
0.253751 -16.119074 2.438 190 190 0
0.265991 -16.097254 2.522 190 190 0
0.300041 -16.030428 2.532 190 190 0
0.323665 -15.98186 2.516 190 190 0
0.221954 -16.183681 2.477 190 190 0
0.20514 -16.218884 2.502 190 190 0
0.309138 -16.010372 2.542 190 190 0
0.188813 -16.248724 2.365 190 190 0
0.333636 -15.964493 2.655 190 190 0
0.1552 -16.316895 2.436 190 190 0
0.307305 -16.016171 2.609 190 190 0
0.259216 -16.106146 2.365 190 190 0
0.286858 -16.058504 2.641 190 190 0
0.168332 -16.295527 2.575 190 190 0
0.291919 -16.039759 2.317 190 190 0
0.245091 -16.140476 2.56 190 190 0
0.212387 -16.206863 2.544 190 190 0
0.224678 -16.178335 2.469 190 190 0
0.306447 -16.011246 2.36 190 190 0
0.276013 -16.073179 2.379 190 190 0
0.304632 -16.014809 2.391 190 190 0
0.310936 -16.009043 2.59 190 190 0
0.301386 -16.029991 2.638 190 190 0
0.183802 -16.260761 2.458 190 190 0
0.119318 -16.389521 2.448 190 190 0
0.188359 -16.249615 2.393 190 190 0
0.280048 -16.071867 2.594 190 190 0
0.181078 -16.266108 2.419 190 190 0
0.297805 -16.030411 2.433 190 190 0
0.243309 -16.139568 2.368 190 190 0
0.176555 -16.272781 2.392 190 190 0
0.179733 -16.266544 2.353 190 190 0
0.333636 -15.964493 2.624 190 190 0
0.16793 -16.289711 2.339 190 190 0
0.216943 -16.195717 2.531 190 190 0
0.288254 -16.051357 2.497 190 190 0
0.214236 -16.198828 2.4 190 190 0
0.302361 -16.019264 2.366 190 190 0
0.125674 -16.377047 2.454 190 190 0
0.281881 -16.066069 2.57 190 190 0
0.271003 -16.085217 2.437 190 190 0
0.157487 -16.310204 2.329 190 190 0
0.312735 -16.007715 2.65 190 190 0
0.12337 -16.385973 2.538 190 190 0
0.32728 -15.976967 2.65 190 190 0
0.236919 -16.156513 2.532 190 190 0
0.21607 -16.193027 2.342 190 190 0
0.216523 -16.192137 2.325 190 190 0
0.274668 -16.073616 2.329 190 190 0
0.295535 -16.034866 2.405 190 190 0
0.225098 -16.181915 2.608 190 190 0
0.247361 -16.136021 2.563 190 190 0
0.297821 -16.028175 2.358 190 190 0
0.315965 -15.99477 2.482 190 190 0
0.310483 -16.009933 2.594 190 190 0
0.153804 -16.324039 2.566 190 190 0
0.315005 -16.00326 2.647 190 190 0
0.284185 -16.057142 2.422 190 190 0
0.231925 -16.166315 2.495 190 190 0
0.318183 -15.997024 2.638 190 190 0
0.205157 -16.216648 2.448 190 190 0
0.255096 -16.118637 2.483 190 190 0
0.202904 -16.218866 2.323 190 190 0
0.32005 -15.986752 2.487 190 190 0
0.186997 -16.252289 2.355 190 190 0
0.296443 -16.033083 2.411 190 190 0
0.111146 -16.40556 2.411 190 190 0
0.139765 -16.347189 2.395 190 190 0
0.20329 -16.226919 2.601 190 190 0
0.257837 -16.111055 2.438 190 190 0
0.257349 -16.116419 2.564 190 190 0
0.111146 -16.40556 2.393 190 190 0
0.159757 -16.30575 2.374 190 190 0
0.271439 -16.086561 2.523 190 190 0
0.2973 -16.03801 2.619 190 190 0
0.149282 -16.330713 2.443 190 190 0
0.311844 -16.007261 2.562 190 190 0
0.154276 -16.320913 2.491 190 190 0
0.270968 -16.089689 2.593 190 190 0
0.266934 -16.091 2.389 190 190 0
0.239677 -16.146696 2.362 190 190 0
0.326826 -15.977859 2.577 190 190 0
0.319579 -15.989879 2.556 190 190 0
0.224712 -16.173862 2.318 190 190 0
0.162027 -16.301294 2.327 190 190 0
0.255533 -16.119982 2.571 190 190 0
0.285513 -16.058939 2.509 190 190 0
0.225098 -16.181915 2.588 190 190 0
0.246016 -16.136457 2.466 190 190 0
0.166113 -16.293276 2.317 190 190 0
0.236936 -16.154278 2.496 190 190 0
0.260578 -16.103474 2.371 190 190 0
0.208789 -16.20952 2.425 190 190 0
0.176555 -16.272781 2.384 190 190 0
0.246453 -16.137802 2.57 190 190 0
0.28738 -16.048668 2.338 190 190 0
0.335906 -15.960038 2.64 190 190 0
0.112508 -16.402885 2.441 190 190 0
0.269186 -16.088779 2.435 190 190 0
0.133392 -16.361898 2.428 190 190 0
0.143346 -16.346769 2.574 190 190 0
0.298275 -16.027285 2.333 190 190 0
0.20287 -16.223339 2.472 190 190 0
0.167475 -16.290602 2.343 190 190 0
0.241005 -16.148495 2.573 190 190 0
0.163792 -16.304438 2.564 190 190 0
0.307322 -16.013935 2.507 190 190 0
0.326389 -15.976513 2.532 190 190 0
0.1211 -16.390429 2.541 190 190 0
0.330004 -15.971622 2.588 190 190 0
0.243712 -16.145384 2.588 190 190 0
0.16112 -16.303076 2.345 190 190 0
0.255584 -16.113274 2.322 190 190 0
0.335452 -15.960929 2.653 190 190 0
0.208301 -16.214882 2.601 190 190 0
0.280553 -16.064268 2.386 190 190 0
0.182911 -16.260307 2.398 190 190 0
0.150627 -16.330276 2.572 190 190 0
0.168383 -16.28882 2.377 190 190 0
0.224695 -16.176098 2.34 190 190 0
0.190612 -16.247396 2.441 190 190 0
0.238718 -16.155186 2.6 190 190 0
0.248303 -16.129766 2.434 190 190 0
0.251901 -16.12711 2.566 190 190 0
0.206519 -16.213974 2.437 190 190 0
0.111584 -16.406902 2.475 190 190 0
0.311391 -16.008152 2.622 190 190 0
0.132921 -16.365026 2.491 190 190 0
0.25555 -16.117746 2.486 190 190 0
0.151535 -16.328495 2.574 190 190 0
0.294139 -16.042011 2.533 190 190 0
0.287363 -16.050903 2.418 190 190 0
0.297317 -16.035774 2.54 190 190 0
0.139731 -16.35166 2.502 190 190 0
0.282386 -16.05847 2.333 190 190 0
0.178774 -16.275034 2.558 190 190 0
0.335906 -15.960038 2.617 190 190 0
0.305488 -16.019735 2.545 190 190 0
0.31324 -16.000116 2.464 190 190 0
0.264664 -16.095453 2.394 190 190 0
0.23285 -16.162296 2.439 190 190 0
0.222828 -16.186371 2.572 190 190 0
0.240988 -16.15073 2.59 190 190 0
0.110222 -16.409576 2.442 190 190 0
0.317763 -15.993443 2.496 190 190 0
0.305018 -16.022861 2.613 190 190 0
0.118847 -16.392647 2.473 190 190 0
0.289633 -16.04645 2.409 190 190 0
0.308683 -16.011263 2.476 190 190 0
0.306901 -16.010355 2.365 190 190 0
0.278703 -16.072306 2.563 190 190 0
0.31324 -16.000116 2.448 190 190 0
0.263268 -16.102598 2.524 190 190 0
0.300058 -16.028193 2.522 190 190 0
0.280502 -16.070978 2.589 190 190 0
0.217885 -16.189465 2.374 190 190 0
0.188779 -16.253197 2.555 190 190 0
0.141598 -16.341389 2.345 190 190 0
0.107498 -16.414923 2.508 190 190 0
0.157 -16.315567 2.495 190 190 0
0.324119 -15.980968 2.558 190 190 0
0.226006 -16.180134 2.563 190 190 0
0.287817 -16.050013 2.368 190 190 0
0.203358 -16.217976 2.347 190 190 0
0.153804 -16.324039 2.565 190 190 0
0.286001 -16.053577 2.375 190 190 0
0.180153 -16.270124 2.494 190 190 0
0.1874 -16.258104 2.57 190 190 0
0.270565 -16.083872 2.386 190 190 0
0.262342 -16.106617 2.616 190 190 0
0.251935 -16.122639 2.419 190 190 0
0.295535 -16.034866 2.416 190 190 0
0.206031 -16.219337 2.592 190 190 0
0.176958 -16.278599 2.587 190 190 0
0.260526 -16.110182 2.588 190 190 0
0.148408 -16.328024 2.342 190 190 0
0.175193 -16.275454 2.388 190 190 0
0.265588 -16.091436 2.321 190 190 0
0.307305 -16.016171 2.582 190 190 0
0.232379 -16.165424 2.563 190 190 0
0.24832 -16.127531 2.337 190 190 0
0.139294 -16.350315 2.475 190 190 0
0.19606 -16.236704 2.476 190 190 0
0.279157 -16.071413 2.527 190 190 0
0.204703 -16.217539 2.407 190 190 0
0.225603 -16.174316 2.381 190 190 0
0.217868 -16.1917 2.424 190 190 0
0.226057 -16.173426 2.409 190 190 0
0.174285 -16.277237 2.331 190 190 0
0.173378 -16.279018 2.362 190 190 0
0.229184 -16.173897 2.579 190 190 0
0.308213 -16.014389 2.581 190 190 0
0.293265 -16.03932 2.385 190 190 0
0.332728 -15.966275 2.642 190 190 0
0.162011 -16.30353 2.426 190 190 0
0.209209 -16.2131 2.59 190 190 0
0.152023 -16.323132 2.423 190 190 0
0.161086 -16.307547 2.487 190 190 0
0.171544 -16.284819 2.419 190 190 0
0.277795 -16.074087 2.542 190 190 0
0.296006 -16.031738 2.379 190 190 0
0.201945 -16.227356 2.535 190 190 0
0.3105 -16.007698 2.517 190 190 0
0.188779 -16.253197 2.536 190 190 0
0.222897 -16.177427 2.317 190 190 0
0.329096 -15.973403 2.649 190 190 0
0.295518 -16.037102 2.458 190 190 0
0.242838 -16.142694 2.513 190 190 0
0.212892 -16.199265 2.353 190 190 0
0.249194 -16.13022 2.513 190 190 0
0.189284 -16.245598 2.341 190 190 0
0.295518 -16.037102 2.48 190 190 0
0.32955 -15.972512 2.604 190 190 0
0.312332 -16.001898 2.407 190 190 0
0.19379 -16.241159 2.475 190 190 0
0.151115 -16.324913 2.425 190 190 0
0.251027 -16.12442 2.42 190 190 0
0.146541 -16.338295 2.504 190 190 0
0.113382 -16.405575 2.556 190 190 0
0.183836 -16.256289 2.315 190 190 0
0.282335 -16.065176 2.576 190 190 0
0.146541 -16.338295 2.525 190 190 0
0.23512 -16.157841 2.426 190 190 0
0.142943 -16.340952 2.366 190 190 0
0.140202 -16.348534 2.447 190 190 0
0.150207 -16.326696 2.38 190 190 0
0.210605 -16.205956 2.406 190 190 0
0.315459 -16.002369 2.642 190 190 0
0.132921 -16.365026 2.528 190 190 0
0.190175 -16.246052 2.358 190 190 0
0.198364 -16.227777 2.363 190 190 0
0.254222 -16.115948 2.365 190 190 0
0.126582 -16.375263 2.399 190 190 0
0.305472 -16.021971 2.621 190 190 0
0.156109 -16.315113 2.382 190 190 0
0.282806 -16.06205 2.46 190 190 0
0.267825 -16.091454 2.419 190 190 0
0.189216 -16.254541 2.594 190 190 0
0.210133 -16.209084 2.479 190 190 0
0.136587 -16.353426 2.401 190 190 0
0.208737 -16.216228 2.602 190 190 0
0.135679 -16.355207 2.359 190 190 0
0.107515 -16.412685 2.397 190 190 0
0.224241 -16.176991 2.351 190 190 0
0.123404 -16.3815 2.453 190 190 0
0.253297 -16.119965 2.393 190 190 0
0.209697 -16.207737 2.451 190 190 0
0.241022 -16.146259 2.5 190 190 0
0.320958 -15.984969 2.488 190 190 0
0.180641 -16.264763 2.345 190 190 0
0.29049 -16.051374 2.605 190 190 0
0.20556 -16.222466 2.607 190 190 0
0.158344 -16.31513 2.544 190 190 0
0.214707 -16.195702 2.364 190 190 0
0.268278 -16.090563 2.457 190 190 0
0.251027 -16.12442 2.42 190 190 0
0.176992 -16.274126 2.42 190 190 0
0.180607 -16.269234 2.536 190 190 0
0.231959 -16.161842 2.387 190 190 0
0.242401 -16.14135 2.377 190 190 0
0.210605 -16.205956 2.414 190 190 0
0.252809 -16.125328 2.571 190 190 0
0.296897 -16.032192 2.409 190 190 0
0.232362 -16.16766 2.575 190 190 0
0.16243 -16.307112 2.588 190 190 0
0.227385 -16.175224 2.529 190 190 0
0.151989 -16.327604 2.52 190 190 0
0.236499 -16.152933 2.413 190 190 0
0.204197 -16.225138 2.61 190 190 0
0.275542 -16.076307 2.48 190 190 0
0.121588 -16.385065 2.393 190 190 0
0.150644 -16.328041 2.495 190 190 0
0.191974 -16.244722 2.479 190 190 0
0.280956 -16.070086 2.577 190 190 0
0.152897 -16.325823 2.536 190 190 0
0.269623 -16.090124 2.541 190 190 0
0.146541 -16.338295 2.508 190 190 0
0.294156 -16.039774 2.497 190 190 0
0.289599 -16.05092 2.577 190 190 0
0.263251 -16.104836 2.619 190 190 0
0.171108 -16.283474 2.324 190 190 0
0.162901 -16.303984 2.47 190 190 0
0.281444 -16.064722 2.483 190 190 0
0.213328 -16.200611 2.418 190 190 0
0.256475 -16.113728 2.404 190 190 0
0.294644 -16.034412 2.354 190 190 0
0.312752 -16.00548 2.577 190 190 0
0.254625 -16.121763 2.568 190 190 0
0.155655 -16.316004 2.404 190 190 0
0.170619 -16.288836 2.54 190 190 0
0.293736 -16.036194 2.35 190 190 0
0.208771 -16.211756 2.511 190 190 0
0.12791 -16.377064 2.563 190 190 0
0.1552 -16.316895 2.409 190 190 0
0.298696 -16.030865 2.475 190 190 0
0.167022 -16.291492 2.369 190 190 0
0.226931 -16.176117 2.497 190 190 0
0.172452 -16.283037 2.398 190 190 0
0.226948 -16.17388 2.485 190 190 0
0.281898 -16.063833 2.459 190 190 0
0.262847 -16.099018 2.359 190 190 0
0.168366 -16.291056 2.462 190 190 0
0.312282 -16.008606 2.64 190 190 0
0.247815 -16.13513 2.577 190 190 0
0.220138 -16.187244 2.405 190 190 0
0.117485 -16.395321 2.494 190 190 0
0.185164 -16.258089 2.455 190 190 0
0.233304 -16.161406 2.465 190 190 0
0.300545 -16.022829 2.318 190 190 0
0.228293 -16.173443 2.497 190 190 0
0.147483 -16.332041 2.374 190 190 0
0.22831 -16.171207 2.43 190 190 0
0.324119 -15.980968 2.542 190 190 0
0.326389 -15.976513 2.576 190 190 0
0.136099 -16.358789 2.507 190 190 0
0.289582 -16.053156 2.607 190 190 0
0.28822 -16.05583 2.603 190 190 0
0.139765 -16.347189 2.373 190 190 0
0.165643 -16.296402 2.425 190 190 0
0.224695 -16.176098 2.367 190 190 0
0.278754 -16.065598 2.342 190 190 0
0.309104 -16.014843 2.628 190 190 0
0.211024 -16.209538 2.548 190 190 0
0.241022 -16.146259 2.497 190 190 0
0.105228 -16.419376 2.477 190 190 0
0.219667 -16.190372 2.494 190 190 0
0.27006 -16.091471 2.598 190 190 0
0.236062 -16.151588 2.314 190 190 0
0.324573 -15.980077 2.56 190 190 0
0.293719 -16.038429 2.405 190 190 0
0.196497 -16.238049 2.553 190 190 0
0.133863 -16.358772 2.351 190 190 0
0.140185 -16.350769 2.496 190 190 0
0.132921 -16.365026 2.502 190 190 0
0.282789 -16.064287 2.515 190 190 0
0.289582 -16.053156 2.598 190 190 0
0.2442 -16.140022 2.485 190 190 0
0.172906 -16.282145 2.403 190 190 0
0.138386 -16.352098 2.456 190 190 0
0.190612 -16.247396 2.482 190 190 0
0.307758 -16.01528 2.6 190 190 0
0.266882 -16.097708 2.6 190 190 0
0.157454 -16.314676 2.448 190 190 0
0.279174 -16.069178 2.431 190 190 0
0.293736 -16.036194 2.345 190 190 0
0.159252 -16.313349 2.55 190 190 0
0.270985 -16.087452 2.533 190 190 0
0.2878 -16.052248 2.474 190 190 0
0.269152 -16.093252 2.597 190 190 0
0.144305 -16.338278 2.376 190 190 0
0.254642 -16.119528 2.491 190 190 0
0.21153 -16.201939 2.332 190 190 0
0.208335 -16.210411 2.39 190 190 0
0.202382 -16.228703 2.597 190 190 0
0.213783 -16.199718 2.4 190 190 0
0.329079 -15.975639 2.659 190 190 0
0.278232 -16.075432 2.617 190 190 0
0.302345 -16.0215 2.431 190 190 0
0.300999 -16.021938 2.344 190 190 0
0.283731 -16.058031 2.408 190 190 0
0.307355 -16.009464 2.391 190 190 0
0.275054 -16.081669 2.627 190 190 0
0.151552 -16.326258 2.502 190 190 0
0.259199 -16.108381 2.394 190 190 0
0.273726 -16.07987 2.484 190 190 0
0.291886 -16.04423 2.496 190 190 0
0.30596 -16.016609 2.525 190 190 0
0.330912 -15.96984 2.652 190 190 0
0.317746 -15.995678 2.571 190 190 0
0.186055 -16.258543 2.499 190 190 0
0.184273 -16.257635 2.409 190 190 0
0.276467 -16.072289 2.405 190 190 0
0.168349 -16.293291 2.481 190 190 0
0.248757 -16.128876 2.386 190 190 0
0.176555 -16.272781 2.404 190 190 0
0.147937 -16.33115 2.358 190 190 0
0.223316 -16.181007 2.419 190 190 0
0.136553 -16.357897 2.488 190 190 0
0.305943 -16.018845 2.572 190 190 0
0.152006 -16.325369 2.461 190 190 0
0.273272 -16.080761 2.46 190 190 0
0.275054 -16.081669 2.58 190 190 0
0.15885 -16.307531 2.344 190 190 0
0.31593 -15.999243 2.576 190 190 0
0.247378 -16.133783 2.501 190 190 0
0.26236 -16.104382 2.476 190 190 0
0.335452 -15.960929 2.641 190 190 0
0.288237 -16.053595 2.516 190 190 0
0.224678 -16.178335 2.414 190 190 0
0.272381 -16.080307 2.356 190 190 0
0.229689 -16.166298 2.362 190 190 0
0.251952 -16.120401 2.359 190 190 0
0.300478 -16.031773 2.647 190 190 0
0.22646 -16.179243 2.583 190 190 0
0.187871 -16.254978 2.548 190 190 0
0.325481 -15.978295 2.526 190 190 0
0.204249 -16.21843 2.404 190 190 0
0.248269 -16.134237 2.562 190 190 0
0.203358 -16.217976 2.374 190 190 0
0.144776 -16.335152 2.349 190 190 0
0.292828 -16.037975 2.364 190 190 0
0.228781 -16.168079 2.377 190 190 0
0.129777 -16.366791 2.394 190 190 0
0.309574 -16.011717 2.608 190 190 0
0.259636 -16.109728 2.527 190 190 0
0.266008 -16.095016 2.449 190 190 0
0.309104 -16.014843 2.649 190 190 0
0.277358 -16.072742 2.462 190 190 0
0.285076 -16.057596 2.5 190 190 0
0.197876 -16.233139 2.509 190 190 0
0.269152 -16.093252 2.605 190 190 0
0.316855 -15.995224 2.53 190 190 0
0.291903 -16.041994 2.443 190 190 0
0.321395 -15.986314 2.558 190 190 0
0.232413 -16.160952 2.359 190 190 0
0.235994 -16.160532 2.579 190 190 0
0.279628 -16.068287 2.427 190 190 0
0.161539 -16.306658 2.5 190 190 0
0.284134 -16.063848 2.64 190 190 0
0.205593 -16.217993 2.451 190 190 0
0.176067 -16.278145 2.493 190 190 0
0.125203 -16.380173 2.487 190 190 0
0.119318 -16.389521 2.437 190 190 0
0.22604 -16.175663 2.466 190 190 0
0.112055 -16.403776 2.407 190 190 0
0.188762 -16.255432 2.578 190 190 0
0.186509 -16.25765 2.507 190 190 0
0.179716 -16.26878 2.463 190 190 0
0.308666 -16.013498 2.588 190 190 0
0.151098 -16.32715 2.457 190 190 0
0.295535 -16.034866 2.405 190 190 0
0.213311 -16.202847 2.523 190 190 0
0.104774 -16.420269 2.5 190 190 0
0.310045 -16.008589 2.535 190 190 0
0.206939 -16.217556 2.593 190 190 0
0.291886 -16.04423 2.457 190 190 0
0.287329 -16.055376 2.577 190 190 0
0.325027 -15.979186 2.518 190 190 0
0.112037 -16.406013 2.472 190 190 0
0.308213 -16.014389 2.579 190 190 0
0.241964 -16.140005 2.365 190 190 0
0.319125 -15.990769 2.56 190 190 0
0.275122 -16.072725 2.341 190 190 0
0.112492 -16.405121 2.454 190 190 0
0.264176 -16.100817 2.483 190 190 0
0.137915 -16.355225 2.488 190 190 0
0.244217 -16.137785 2.427 190 190 0
0.326843 -15.975623 2.564 190 190 0
0.1702 -16.285255 2.362 190 190 0
0.286438 -16.054922 2.504 190 190 0
0.12564 -16.381517 2.557 190 190 0
0.325481 -15.978295 2.545 190 190 0
0.180187 -16.265654 2.353 190 190 0
0.157908 -16.313784 2.481 190 190 0
0.278249 -16.073196 2.564 190 190 0
0.288708 -16.050467 2.496 190 190 0
0.284588 -16.062958 2.638 190 190 0
0.195589 -16.23983 2.537 190 190 0
0.135208 -16.358335 2.482 190 190 0
0.302748 -16.027317 2.618 190 190 0
0.152443 -16.326712 2.557 190 190 0
0.145213 -16.336496 2.379 190 190 0
0.302799 -16.020609 2.44 190 190 0
0.241476 -16.145367 2.445 190 190 0
0.267858 -16.086981 2.325 190 190 0
0.142001 -16.347206 2.498 190 190 0
0.278703 -16.072306 2.529 190 190 0
0.126582 -16.375263 2.406 190 190 0
0.290961 -16.048248 2.59 190 190 0
0.297788 -16.032646 2.482 190 190 0
0.285513 -16.058939 2.551 190 190 0
0.195623 -16.235359 2.427 190 190 0
0.246941 -16.132439 2.418 190 190 0
0.231 -16.170334 2.576 190 190 0
0.308213 -16.014389 2.579 190 190 0
0.309155 -16.008135 2.437 190 190 0
0.251464 -16.125765 2.481 190 190 0
0.18286 -16.267015 2.582 190 190 0
0.13203 -16.364573 2.447 190 190 0
0.214254 -16.196592 2.387 190 190 0
0.229218 -16.169426 2.475 190 190 0
0.27191 -16.083433 2.482 190 190 0
0.157891 -16.316021 2.578 190 190 0
0.170636 -16.2866 2.464 190 190 0
0.317292 -15.99657 2.565 190 190 0
0.303673 -16.0233 2.582 190 190 0
0.229252 -16.164953 2.339 190 190 0
0.320907 -15.991677 2.65 190 190 0
0.124312 -16.379719 2.392 190 190 0
0.272835 -16.079416 2.359 190 190 0
0.175159 -16.279926 2.529 190 190 0
0.293736 -16.036194 2.358 190 190 0
0.284622 -16.058485 2.448 190 190 0
0.263721 -16.101707 2.485 190 190 0
0.118864 -16.390411 2.389 190 190 0
0.204214 -16.222902 2.581 190 190 0
0.24647 -16.135567 2.473 190 190 0
0.252389 -16.121748 2.427 190 190 0
0.335906 -15.960038 2.59 190 190 0
0.310062 -16.006353 2.437 190 190 0
0.268732 -16.08967 2.431 190 190 0
0.21153 -16.201939 2.358 190 190 0
0.20472 -16.215303 2.326 190 190 0
0.114778 -16.39843 2.45 190 190 0
0.297788 -16.032646 2.501 190 190 0
0.203306 -16.224684 2.553 190 190 0
0.127944 -16.372591 2.415 190 190 0
0.251935 -16.122639 2.426 190 190 0
0.129306 -16.369919 2.453 190 190 0
0.116141 -16.395758 2.446 190 190 0
0.110676 -16.408686 2.47 190 190 0
0.267842 -16.089216 2.366 190 190 0
0.318688 -15.989425 2.482 190 190 0
0.311391 -16.008152 2.573 190 190 0
0.31593 -15.999243 2.594 190 190 0
0.313206 -16.004589 2.581 190 190 0
0.136099 -16.358789 2.493 190 190 0
0.16924 -16.293745 2.587 190 190 0
0.302815 -16.018373 2.343 190 190 0
0.292794 -16.042448 2.518 190 190 0
0.173797 -16.282598 2.488 190 190 0
0.263738 -16.099472 2.418 190 190 0
0.12564 -16.381517 2.565 190 190 0
0.163844 -16.297729 2.328 190 190 0
0.260107 -16.1066 2.408 190 190 0
0.191974 -16.244722 2.45 190 190 0
0.301403 -16.027754 2.603 190 190 0
0.249228 -16.125748 2.367 190 190 0
0.305943 -16.018845 2.559 190 190 0
0.271019 -16.082979 2.389 190 190 0
0.111584 -16.406902 2.489 190 190 0
0.308213 -16.014389 2.614 190 190 0
0.191066 -16.246506 2.482 190 190 0
0.267387 -16.090109 2.403 190 190 0
0.151132 -16.322678 2.353 190 190 0
0.217414 -16.192591 2.468 190 190 0
0.172889 -16.284382 2.543 190 190 0
0.244217 -16.137785 2.381 190 190 0
0.312787 -16.001007 2.42 190 190 0
0.232867 -16.160061 2.362 190 190 0
0.229184 -16.173897 2.565 190 190 0
0.175613 -16.279036 2.509 190 190 0
0.130685 -16.365009 2.393 190 190 0
0.197456 -16.229559 2.337 190 190 0
0.350888 -15.930634 2.673 190 190 0
0.411319 -15.805423 2.665 190 190 0
0.367265 -15.894087 2.661 190 190 0
0.403601 -15.82057 2.648 190 190 0
0.395429 -15.836608 2.656 190 190 0
0.53304 -15.559925 2.647 190 190 0
0.360002 -15.908342 2.667 190 190 0
0.362725 -15.902997 2.673 190 190 0
0.34544 -15.941327 2.673 190 190 0
0.534401 -15.557253 2.649 190 190 0
0.539849 -15.54656 2.632 190 190 0
0.351341 -15.929745 2.687 190 190 0
0.433128 -15.760418 2.644 190 190 0
0.393613 -15.840173 2.67 190 190 0
0.503059 -15.620967 2.628 190 190 0
0.355898 -15.918598 2.688 190 190 0
0.390435 -15.84641 2.654 190 190 0
0.354066 -15.924397 2.676 190 190 0
0.394522 -15.838389 2.664 190 190 0
0.508053 -15.611167 2.627 190 190 0
0.494887 -15.637006 2.63 190 190 0
0.367265 -15.894087 2.665 190 190 0
0.485354 -15.655717 2.63 190 190 0
0.545297 -15.535869 2.626 190 190 0
0.493979 -15.638788 2.626 190 190 0
0.502151 -15.62275 2.627 190 190 0
0.548475 -15.529632 2.628 190 190 0
0.361363 -15.90567 2.67 190 190 0
0.347256 -15.937763 2.673 190 190 0
0.351341 -15.929745 2.669 190 190 0
0.382247 -15.864683 2.666 190 190 0
0.365903 -15.89676 2.67 190 190 0
0.40002 -15.820991 2.354 190 190 0
0.484463 -15.655263 2.404 190 190 0
0.501278 -15.620059 2.381 190 190 0
0.390033 -15.840592 2.321 190 190 0
0.47313 -15.675302 2.343 190 190 0
0.457223 -15.708723 2.386 190 190 0
0.333704 -15.955548 2.338 190 190 0
0.366425 -15.886925 2.318 190 190 0
0.459493 -15.704268 2.387 190 190 0
0.305539 -16.013027 2.334 190 190 0
0.490835 -15.640553 2.318 190 190 0
0.388671 -15.843265 2.347 190 190 0
0.449976 -15.720744 2.349 190 190 0
0.492198 -15.63788 2.357 190 190 0
0.460401 -15.702486 2.422 190 190 0
0.375488 -15.87134 2.386 190 190 0
0.503984 -15.61695 2.408 190 190 0
0.388217 -15.844156 2.357 190 190 0
0.377287 -15.870012 2.488 190 190 0
0.338681 -15.947984 2.359 190 190 0
0.410445 -15.802733 2.464 190 190 0
0.430875 -15.762638 2.462 190 190 0
0.412715 -15.798278 2.422 190 190 0
0.411807 -15.800059 2.487 190 190 0
0.319159 -15.986298 2.347 190 190 0
0.394572 -15.831682 2.383 190 190 0
0.463579 -15.696249 2.4 190 190 0
0.396388 -15.828118 2.315 190 190 0
0.404089 -15.815207 2.482 190 190 0
0.412244 -15.801405 2.526 190 190 0
0.374109 -15.876249 2.494 190 190 0
0.321412 -15.984078 2.466 190 190 0
0.427714 -15.766639 2.355 190 190 0
0.35003 -15.925709 2.391 190 190 0
0.35869 -15.904308 2.377 190 190 0
0.500387 -15.619605 2.318 190 190 0
0.453591 -15.715852 2.373 190 190 0
0.3523 -15.921254 2.371 190 190 0
0.401836 -15.817427 2.365 190 190 0
0.337756 -15.952003 2.484 190 190 0
0.412244 -15.801405 2.53 190 190 0
0.467211 -15.689121 2.421 190 190 0
0.357765 -15.908326 2.512 190 190 0
0.425461 -15.768858 2.338 190 190 0
0.474492 -15.672628 2.338 190 190 0
0.523523 -15.5764 2.354 190 190 0
0.319613 -15.985406 2.344 190 190 0
0.495375 -15.631643 2.339 190 190 0
0.336864 -15.951549 2.425 190 190 0
0.395935 -15.829009 2.323 190 190 0
0.372327 -15.875341 2.342 190 190 0
0.398205 -15.824553 2.374 190 190 0
0.392269 -15.84061 2.479 190 190 0
0.369098 -15.888287 2.563 190 190 0
0.454516 -15.711834 2.339 190 190 0
0.385442 -15.856211 2.561 190 190 0
0.339589 -15.946202 2.417 190 190 0
0.419525 -15.784912 2.462 190 190 0
0.380919 -15.862885 2.475 190 190 0
0.531258 -15.559017 2.342 190 190 0
0.455878 -15.709161 2.332 190 190 0
0.370494 -15.881142 2.44 190 190 0
0.456769 -15.709615 2.398 190 190 0
0.368241 -15.88336 2.319 190 190 0
0.38366 -15.855303 2.418 190 190 0
0.356857 -15.910108 2.512 190 190 0
0.487641 -15.649026 2.393 190 190 0
0.39274 -15.837481 2.47 190 190 0
0.341354 -15.949346 2.615 190 190 0
0.375471 -15.873576 2.519 190 190 0
0.373235 -15.87356 2.33 190 190 0
0.345944 -15.933728 2.421 190 190 0
0.398188 -15.82679 2.434 190 190 0
0.491743 -15.638771 2.343 190 190 0
0.355915 -15.916363 2.607 190 190 0
0.384096 -15.856647 2.539 190 190 0
0.476308 -15.669065 2.369 190 190 0
0.425444 -15.771094 2.413 190 190 0
0.531712 -15.558126 2.336 190 190 0
0.471297 -15.681103 2.446 190 190 0
0.490835 -15.640553 2.382 190 190 0
0.350014 -15.927945 2.449 190 190 0
0.474492 -15.672628 2.346 190 190 0
0.378649 -15.867339 2.503 190 190 0
0.362288 -15.901651 2.588 190 190 0
0.350938 -15.923927 2.375 190 190 0
0.459039 -15.705159 2.389 190 190 0
0.402273 -15.81877 2.478 190 190 0
0.456769 -15.709615 2.401 190 190 0
0.479032 -15.663719 2.383 190 190 0
0.364121 -15.895852 2.497 190 190 0
0.339572 -15.948438 2.437 190 190 0
0.40725 -15.811206 2.532 190 190 0
0.35457 -15.916799 2.446 190 190 0
0.378178 -15.870466 2.549 190 190 0
0.365029 -15.89407 2.516 190 190 0
0.36777 -15.886488 2.43 190 190 0
0.343624 -15.944891 2.649 190 190 0
0.444058 -15.734563 2.38 190 190 0
0.377287 -15.870012 2.514 190 190 0
0.395918 -15.831244 2.447 190 190 0
0.461292 -15.70294 2.465 190 190 0
0.340951 -15.943528 2.413 190 190 0
0.371368 -15.883832 2.568 190 190 0
0.462217 -15.698922 2.437 190 190 0
0.375942 -15.87045 2.427 190 190 0
0.364121 -15.895852 2.453 190 190 0
0.468119 -15.68734 2.45 190 190 0
0.471314 -15.678865 2.369 190 190 0
0.400894 -15.82368 2.531 190 190 0
0.417726 -15.786242 2.362 190 190 0
0.318705 -15.987188 2.377 190 190 0
0.367719 -15.893196 2.622 190 190 0
0.558497 -15.505557 2.317 190 190 0
0.391849 -15.837028 2.365 190 190 0
0.380499 -15.859303 2.36 190 190 0
0.382735 -15.859321 2.521 190 190 0
0.346348 -15.939545 2.646 190 190 0
0.449505 -15.72387 2.44 190 190 0
0.330021 -15.969386 2.539 190 190 0
0.377304 -15.867777 2.46 190 190 0
0.385493 -15.849502 2.337 190 190 0
0.333233 -15.958676 2.352 190 190 0
0.345037 -15.93551 2.374 190 190 0
0.46859 -15.684213 2.345 190 190 0
0.334595 -15.956002 2.395 190 190 0
0.485825 -15.65259 2.413 190 190 0
0.357294 -15.911453 2.549 190 190 0
0.480831 -15.662392 2.445 190 190 0
0.391378 -15.840156 2.436 190 190 0
0.478107 -15.667737 2.444 190 190 0
0.34275 -15.942201 2.49 190 190 0
0.482193 -15.659719 2.418 190 190 0
0.44589 -15.728763 2.32 190 190 0
0.354537 -15.92127 2.545 190 190 0
0.305539 -16.013027 2.332 190 190 0
0.477653 -15.668629 2.394 190 190 0
0.335032 -15.957348 2.453 190 190 0
0.372764 -15.876687 2.421 190 190 0
0.385896 -15.855319 2.587 190 190 0
0.52808 -15.565254 2.315 190 190 0
0.428622 -15.764857 2.36 190 190 0
0.440425 -15.741691 2.379 190 190 0
0.335015 -15.959584 2.569 190 190 0
0.454953 -15.713178 2.432 190 190 0
0.468136 -15.685102 2.321 190 190 0
0.378212 -15.865994 2.41 190 190 0
0.459039 -15.705159 2.446 190 190 0
0.53035 -15.560799 2.331 190 190 0
0.422283 -15.775095 2.331 190 190 0
0.399532 -15.826353 2.499 190 190 0
0.412698 -15.800514 2.53 190 190 0
0.324136 -15.978732 2.493 190 190 0
0.308717 -16.00679 2.328 190 190 0
0.36365 -15.898979 2.557 190 190 0
0.419054 -15.78804 2.533 190 190 0
0.44589 -15.728763 2.316 190 190 0
0.442679 -15.739471 2.474 190 190 0
0.483118 -15.6557 2.383 190 190 0
0.368207 -15.887833 2.506 190 190 0
0.310533 -16.003227 2.346 190 190 0
0.454499 -15.714069 2.409 190 190 0
0.380028 -15.862431 2.412 190 190 0
0.338664 -15.95022 2.492 190 190 0
0.444982 -15.730545 2.34 190 190 0
0.360002 -15.908342 2.63 190 190 0
0.353662 -15.918581 2.386 190 190 0
0.37046 -15.885613 2.566 190 190 0
0.376362 -15.87403 2.545 190 190 0
0.376379 -15.871794 2.538 190 190 0
0.357782 -15.90609 2.411 190 190 0
0.403164 -15.819224 2.552 190 190 0
0.410428 -15.804969 2.554 190 190 0
0.45312 -15.718979 2.465 190 190 0
0.370931 -15.882486 2.507 190 190 0
0.427731 -15.764403 2.318 190 190 0
0.370023 -15.884268 2.484 190 190 0
0.444948 -15.735017 2.49 190 190 0
0.368644 -15.889177 2.566 190 190 0
0.471297 -15.681103 2.452 190 190 0
0.385005 -15.854865 2.513 190 190 0
0.374597 -15.870886 2.361 190 190 0
0.389125 -15.842375 2.384 190 190 0
0.425461 -15.768858 2.323 190 190 0
0.399113 -15.822772 2.381 190 190 0
0.343187 -15.943546 2.57 190 190 0
0.456315 -15.710505 2.418 190 190 0
0.453137 -15.716743 2.443 190 190 0
0.439046 -15.7466 2.506 190 190 0
0.395446 -15.834373 2.549 190 190 0
0.524885 -15.573727 2.348 190 190 0
0.411353 -15.800951 2.461 190 190 0
0.361868 -15.898071 2.448 190 190 0
0.531241 -15.561253 2.36 190 190 0
0.422249 -15.779567 2.445 190 190 0
0.413186 -15.795151 2.361 190 190 0
0.372276 -15.88205 2.574 190 190 0
0.357328 -15.906981 2.387 190 190 0
0.318235 -15.990315 2.419 190 190 0
0.339538 -15.95291 2.598 190 190 0
0.387309 -15.845939 2.367 190 190 0
0.411807 -15.800059 2.487 190 190 0
0.391831 -15.839265 2.473 190 190 0
0.459056 -15.702924 2.351 190 190 0
0.39775 -15.825445 2.336 190 190 0
0.454499 -15.714069 2.422 190 190 0
0.441788 -15.739017 2.363 190 190 0
0.378649 -15.867339 2.472 190 190 0
0.394067 -15.839281 2.561 190 190 0
0.383626 -15.859775 2.556 190 190 0
0.370057 -15.879797 2.321 190 190 0
0.381827 -15.861102 2.533 190 190 0
0.388183 -15.848628 2.509 190 190 0
0.402744 -15.815644 2.343 190 190 0
0.389527 -15.848191 2.566 190 190 0
0.349089 -15.931963 2.533 190 190 0
0.36777 -15.886488 2.396 190 190 0
0.353679 -15.916345 2.417 190 190 0
0.389579 -15.841483 2.388 190 190 0
0.457694 -15.705597 2.346 190 190 0
0.474475 -15.674866 2.438 190 190 0
0.366862 -15.888269 2.43 190 190 0
0.42045 -15.780895 2.357 190 190 0
0.364575 -15.89496 2.489 190 190 0
0.365903 -15.89676 2.621 190 190 0
0.379103 -15.866448 2.498 190 190 0
0.421812 -15.778221 2.411 190 190 0
0.449942 -15.725216 2.483 190 190 0
0.44315 -15.736344 2.391 190 190 0
0.384585 -15.851285 2.333 190 190 0
0.506725 -15.609368 2.334 190 190 0
0.386384 -15.849956 2.413 190 190 0
0.341371 -15.94711 2.595 190 190 0
0.399532 -15.826353 2.552 190 190 0
0.442695 -15.737236 2.395 190 190 0
0.463125 -15.697141 2.388 190 190 0
0.544423 -15.533178 2.324 190 190 0
0.431329 -15.761746 2.429 190 190 0
0.317343 -15.989861 2.39 190 190 0
0.496738 -15.628969 2.379 190 190 0
0.35183 -15.924381 2.485 190 190 0
0.331383 -15.966712 2.524 190 190 0
0.325969 -15.972932 2.353 190 190 0
0.328239 -15.968477 2.371 190 190 0
0.345928 -15.935964 2.495 190 190 0
0.409117 -15.800934 2.316 190 190 0
0.398641 -15.825899 2.432 190 190 0
0.338664 -15.95022 2.459 190 190 0
0.41364 -15.79426 2.359 190 190 0
0.371385 -15.881596 2.473 190 190 0
0.464958 -15.69134 2.368 190 190 0
0.434087 -15.751929 2.342 190 190 0
0.501278 -15.620059 2.388 190 190 0
0.36091 -15.906561 2.62 190 190 0
0.351864 -15.919909 2.326 190 190 0
0.408646 -15.804061 2.388 190 190 0
0.341354 -15.949346 2.612 190 190 0
0.312803 -15.998772 2.399 190 190 0
0.356857 -15.910108 2.468 190 190 0
0.406342 -15.812987 2.521 190 190 0
0.441771 -15.741254 2.467 190 190 0
0.508087 -15.606695 2.394 190 190 0
0.408629 -15.806296 2.414 190 190 0
0.432237 -15.759964 2.456 190 190 0
0.355445 -15.919489 2.591 190 190 0
0.365063 -15.889597 2.34 190 190 0
0.356353 -15.917706 2.575 190 190 0
0.400475 -15.820099 2.348 190 190 0
0.35003 -15.925709 2.374 190 190 0
0.428639 -15.762621 2.314 190 190 0
0.416364 -15.788914 2.376 190 190 0
0.459964 -15.701141 2.345 190 190 0
0.338681 -15.947984 2.423 190 190 0
0.320505 -15.98586 2.444 190 190 0
0.476745 -15.67041 2.443 190 190 0
0.489928 -15.642335 2.375 190 190 0
0.336864 -15.951549 2.39 190 190 0
0.400003 -15.823226 2.476 190 190 0
0.354519 -15.923508 2.616 190 190 0
0.342312 -15.940856 2.369 190 190 0
0.388183 -15.848628 2.485 190 190 0
0.327331 -15.97026 2.396 190 190 0
0.432237 -15.759964 2.509 190 190 0
0.330038 -15.967149 2.49 190 190 0
0.53943 -15.542979 2.333 190 190 0
0.522161 -15.579074 2.348 190 190 0
0.345944 -15.933728 2.415 190 190 0
0.344582 -15.936401 2.408 190 190 0
0.432691 -15.759074 2.501 190 190 0
0.541245 -15.539415 2.328 190 190 0
0.3523 -15.921254 2.407 190 190 0
0.355478 -15.915017 2.476 190 190 0
0.343641 -15.942655 2.555 190 190 0
0.42087 -15.784476 2.535 190 190 0
0.335015 -15.959584 2.514 190 190 0
0.358673 -15.906544 2.459 190 190 0
0.400457 -15.822335 2.446 190 190 0
0.514443 -15.594221 2.384 190 190 0
0.354991 -15.92038 2.558 190 190 0
0.446311 -15.732343 2.463 190 190 0
0.444041 -15.736798 2.492 190 190 0
0.413169 -15.797386 2.458 190 190 0
0.341808 -15.948455 2.617 190 190 0
0.474929 -15.673974 2.45 190 190 0
0.393631 -15.837935 2.504 190 190 0
0.372276 -15.88205 2.568 190 190 0
0.319142 -15.988533 2.418 190 190 0
0.435869 -15.752837 2.445 190 190 0
0.370511 -15.878905 2.328 190 190 0
0.403164 -15.819224 2.525 190 190 0
0.44542 -15.731889 2.362 190 190 0
0.463125 -15.697141 2.404 190 190 0
0.332762 -15.961803 2.453 190 190 0
0.520799 -15.581747 2.346 190 190 0
0.482193 -15.659719 2.44 190 190 0
0.383223 -15.853957 2.376 190 190 0
0.335503 -15.954221 2.361 190 190 0
0.47086 -15.679757 2.316 190 190 0
0.31963 -15.98317 2.319 190 190 0
0.461309 -15.700704 2.378 190 190 0
0.378212 -15.865994 2.395 190 190 0
0.494013 -15.634316 2.389 190 190 0
0.37954 -15.867793 2.606 190 190 0
0.373672 -15.874905 2.445 190 190 0
0.35003 -15.925709 2.438 190 190 0
0.515805 -15.591548 2.375 190 190 0
0.341354 -15.949346 2.636 190 190 0
0.403635 -15.816098 2.412 190 190 0
0.409083 -15.805407 2.472 190 190 0
0.336394 -15.954675 2.509 190 190 0
0.3219 -15.978715 2.331 190 190 0
0.351376 -15.925272 2.471 190 190 0
0.397716 -15.829917 2.539 190 190 0
0.46859 -15.684213 2.34 190 190 0
0.400475 -15.820099 2.388 190 190 0
0.41364 -15.79426 2.338 190 190 0
0.40271 -15.820116 2.556 190 190 0
0.312349 -15.999662 2.357 190 190 0
0.340917 -15.948001 2.573 190 190 0
0.392722 -15.839719 2.498 190 190 0
0.329584 -15.96804 2.492 190 190 0
0.437231 -15.750164 2.512 190 190 0
0.370477 -15.883378 2.48 190 190 0
0.487204 -15.64768 2.321 190 190 0
0.363667 -15.896742 2.483 190 190 0
0.380953 -15.858412 2.332 190 190 0
0.449959 -15.72298 2.394 190 190 0
0.543062 -15.535851 2.343 190 190 0
0.452229 -15.718525 2.443 190 190 0
0.358236 -15.905199 2.411 190 190 0
0.344582 -15.936401 2.396 190 190 0
0.497191 -15.628079 2.323 190 190 0
0.37231 -15.877577 2.404 190 190 0
0.494467 -15.633425 2.335 190 190 0
0.373201 -15.878031 2.467 190 190 0
0.404543 -15.814316 2.423 190 190 0
0.352284 -15.92349 2.503 190 190 0
0.415019 -15.789351 2.326 190 190 0
0.34502 -15.937746 2.47 190 190 0
0.398624 -15.828135 2.494 190 190 0
0.503547 -15.615605 2.327 190 190 0
0.333687 -15.957786 2.42 190 190 0
0.334124 -15.95913 2.452 190 190 0
0.504001 -15.614714 2.399 190 190 0
0.410008 -15.801388 2.393 190 190 0
0.416835 -15.785788 2.326 190 190 0
0.501731 -15.619169 2.34 190 190 0
0.365063 -15.889597 2.319 190 190 0
0.363684 -15.894506 2.427 190 190 0
0.399986 -15.825461 2.486 190 190 0
0.32913 -15.968932 2.436 190 190 0
0.434053 -15.756401 2.444 190 190 0
0.344129 -15.937291 2.426 190 190 0
0.47767 -15.666391 2.381 190 190 0
0.385913 -15.853084 2.478 190 190 0
0.321412 -15.984078 2.428 190 190 0
0.387746 -15.847283 2.463 190 190 0
0.390906 -15.843283 2.529 190 190 0
0.389544 -15.845956 2.523 190 190 0
0.379103 -15.866448 2.487 190 190 0
0.434978 -15.752383 2.388 190 190 0
0.46674 -15.692248 2.464 190 190 0
0.442712 -15.735 2.33 190 190 0
0.393193 -15.836592 2.396 190 190 0
0.395027 -15.830791 2.329 190 190 0
0.347307 -15.931054 2.417 190 190 0
0.510811 -15.601348 2.382 190 190 0
0.324153 -15.976497 2.391 190 190 0
0.380045 -15.860194 2.375 190 190 0
0.463125 -15.697141 2.383 190 190 0
0.550779 -15.520704 2.327 190 190 0
0.418163 -15.787586 2.467 190 190 0
0.424536 -15.772876 2.341 190 190 0
0.373201 -15.878031 2.462 190 190 0
0.362322 -15.89718 2.379 190 190 0
0.419996 -15.781786 2.381 190 190 0
0.460855 -15.701595 2.374 190 190 0
0.330021 -15.969386 2.53 190 190 0
0.366879 -15.886034 2.323 190 190 0
0.432254 -15.757729 2.373 190 190 0
0.34549 -15.934619 2.385 190 190 0
0.430421 -15.763529 2.489 190 190 0
0.310987 -16.002335 2.335 190 190 0
0.437231 -15.750164 2.448 190 190 0
0.353679 -15.916345 2.418 190 190 0
0.461326 -15.698468 2.361 190 190 0
0.351392 -15.923036 2.434 190 190 0
0.427243 -15.769766 2.482 190 190 0
0.484026 -15.653917 2.353 190 190 0
0.317797 -15.988971 2.344 190 190 0
0.392303 -15.836138 2.32 190 190 0
0.376833 -15.870904 2.465 190 190 0
0.419054 -15.78804 2.498 190 190 0
0.334141 -15.956894 2.363 190 190 0
0.386804 -15.853538 2.58 190 190 0
0.47767 -15.666391 2.332 190 190 0
0.421829 -15.775986 2.325 190 190 0
0.343658 -15.940419 2.505 190 190 0
0.466774 -15.687776 2.318 190 190 0
0.474475 -15.674866 2.452 190 190 0
0.543515 -15.534961 2.336 190 190 0
0.385022 -15.85263 2.39 190 190 0
0.334124 -15.95913 2.481 190 190 0
0.380482 -15.86154 2.455 190 190 0
0.379591 -15.861086 2.364 190 190 0
0.354151 -15.913218 2.389 190 190 0
0.351376 -15.925272 2.49 190 190 0
0.40229 -15.816535 2.379 190 190 0
0.342279 -15.945328 2.583 190 190 0
0.483101 -15.657936 2.439 190 190 0
0.428168 -15.765747 2.411 190 190 0
0.394539 -15.836154 2.503 190 190 0
0.499915 -15.622732 2.359 190 190 0
0.407267 -15.80897 2.436 190 190 0
0.423157 -15.777785 2.445 190 190 0
0.487204 -15.64768 2.372 190 190 0
0.494921 -15.632534 2.337 190 190 0
0.481285 -15.6615 2.437 190 190 0
0.42045 -15.780895 2.355 190 190 0
0.382735 -15.859321 2.498 190 190 0
0.380448 -15.866012 2.568 190 190 0
0.341825 -15.946219 2.577 190 190 0
0.49129 -15.639662 2.36 190 190 0
0.420887 -15.78224 2.433 190 190 0
0.379086 -15.868685 2.571 190 190 0
0.353646 -15.920816 2.516 190 190 0
0.456298 -15.712742 2.483 190 190 0
0.522615 -15.578182 2.37 190 190 0
0.547147 -15.527832 2.328 190 190 0
0.39274 -15.837481 2.468 190 190 0
0.496738 -15.628969 2.332 190 190 0
0.345474 -15.936855 2.505 190 190 0
0.504455 -15.613822 2.326 190 190 0
0.439046 -15.7466 2.473 190 190 0
0.336394 -15.954675 2.503 190 190 0
0.430875 -15.762638 2.495 190 190 0
0.451321 -15.720306 2.434 190 190 0
0.382718 -15.861556 2.563 190 190 0
0.538976 -15.54387 2.34 190 190 0
0.460872 -15.69936 2.359 190 190 0
0.373689 -15.872668 2.321 190 190 0
0.345911 -15.9382 2.562 190 190 0
0.479923 -15.664173 2.427 190 190 0
0.381407 -15.857522 2.331 190 190 0
0.409554 -15.802279 2.405 190 190 0
0.335049 -15.955112 2.397 190 190 0
0.340917 -15.948001 2.543 190 190 0
0.507179 -15.608477 2.339 190 190 0
0.44315 -15.736344 2.418 190 190 0
0.406813 -15.809861 2.463 190 190 0
0.317327 -15.992097 2.428 190 190 0
0.440425 -15.741691 2.375 190 190 0
0.336864 -15.951549 2.362 190 190 0
0.347744 -15.9324 2.485 190 190 0
0.460384 -15.704722 2.472 190 190 0
0.373218 -15.875795 2.455 190 190 0
0.331417 -15.962239 2.399 190 190 0
0.529442 -15.562582 2.332 190 190 0
0.385459 -15.853974 2.53 190 190 0
0.517638 -15.585748 2.32 190 190 0
0.392303 -15.836138 2.351 190 190 0
0.40271 -15.820116 2.538 190 190 0
0.46447 -15.696703 2.466 190 190 0
0.367753 -15.888723 2.515 190 190 0
0.435885 -15.750601 2.417 190 190 0
0.39548 -15.829901 2.377 190 190 0
0.355058 -15.911436 2.346 190 190 0
0.323699 -15.977387 2.358 190 190 0
0.37046 -15.885613 2.563 190 190 0
0.469027 -15.685556 2.42 190 190 0
0.48675 -15.648572 2.341 190 190 0
0.336882 -15.949311 2.329 190 190 0
0.433616 -15.755055 2.378 190 190 0
0.432691 -15.759074 2.428 190 190 0
0.303723 -16.016592 2.326 190 190 0
0.364104 -15.898088 2.555 190 190 0
0.3959 -15.833482 2.533 190 190 0
0.373218 -15.875795 2.417 190 190 0
0.311441 -16.001444 2.371 190 190 0
0.354066 -15.924397 2.63 190 190 0
0.404106 -15.812971 2.372 190 190 0
0.33594 -15.955566 2.484 190 190 0
0.462654 -15.700268 2.465 190 190 0
0.32459 -15.977841 2.463 190 190 0
0.419559 -15.780441 2.326 190 190 0
0.349997 -15.930181 2.585 190 190 0
0.348214 -15.929273 2.405 190 190 0
0.353158 -15.92618 2.651 190 190 0
0.479032 -15.663719 2.345 190 190 0
0.347256 -15.937763 2.635 190 190 0
0.432237 -15.759964 2.471 190 190 0
0.455844 -15.713632 2.457 190 190 0
0.379137 -15.861977 2.319 190 190 0
0.48221 -15.657482 2.384 190 190 0
0.538976 -15.54387 2.331 190 190 0
0.335469 -15.958694 2.57 190 190 0
0.343204 -15.94131 2.47 190 190 0
0.440897 -15.738564 2.315 190 190 0
0.489474 -15.643226 2.347 190 190 0
0.353225 -15.917236 2.314 190 190 0
0.354974 -15.922616 2.646 190 190 0
0.468102 -15.689575 2.456 190 190 0
0.494013 -15.634316 2.314 190 190 0
0.357765 -15.908326 2.478 190 190 0
0.394572 -15.831682 2.367 190 190 0
0.36138 -15.903433 2.542 190 190 0
0.359598 -15.902525 2.403 190 190 0
0.459476 -15.706505 2.463 190 190 0
0.383172 -15.860665 2.589 190 190 0
0.384114 -15.854411 2.417 190 190 0
0.398205 -15.824553 2.393 190 190 0
0.37004 -15.882032 2.427 190 190 0
0.487657 -15.646791 2.379 190 190 0
0.341404 -15.942638 2.363 190 190 0
0.421795 -15.780458 2.484 190 190 0
0.478561 -15.666845 2.428 190 190 0
0.504455 -15.613822 2.329 190 190 0
0.394992 -15.835263 2.485 190 190 0
0.35183 -15.924381 2.45 190 190 0
0.419979 -15.784022 2.42 190 190 0
0.375908 -15.874922 2.596 190 190 0
0.355966 -15.909654 2.442 190 190 0
0.532149 -15.559471 2.361 190 190 0
0.34502 -15.937746 2.515 190 190 0
0.383189 -15.85843 2.504 190 190 0
0.458131 -15.706941 2.443 190 190 0
0.424536 -15.772876 2.407 190 190 0
0.378212 -15.865994 2.385 190 190 0
0.483572 -15.654809 2.368 190 190 0
0.42726 -15.767529 2.417 190 190 0
0.517621 -15.587984 2.357 190 190 0
0.320067 -15.984515 2.377 190 190 0
0.336864 -15.951549 2.376 190 190 0
0.446798 -15.726981 2.325 190 190 0
0.324136 -15.978732 2.495 190 190 0
0.388166 -15.850863 2.57 190 190 0
0.351392 -15.923036 2.401 190 190 0
0.387729 -15.84952 2.488 190 190 0
0.42953 -15.763075 2.412 190 190 0
0.435415 -15.753727 2.489 190 190 0
0.385947 -15.848612 2.34 190 190 0
0.444494 -15.735908 2.456 190 190 0
0.415439 -15.792933 2.462 190 190 0
0.35642 -15.908762 2.441 190 190 0
0.441316 -15.742145 2.466 190 190 0
0.40498 -15.815661 2.547 190 190 0
0.304632 -16.014809 2.33 190 190 0
0.53262 -15.556345 2.322 190 190 0
0.37046 -15.885613 2.599 190 190 0
0.387275 -15.85041 2.473 190 190 0
0.369132 -15.883814 2.406 190 190 0
0.557135 -15.508229 2.321 190 190 0
0.508087 -15.606695 2.351 190 190 0
0.364609 -15.890489 2.323 190 190 0
0.341808 -15.948455 2.639 190 190 0
0.355445 -15.919489 2.588 190 190 0
0.444511 -15.733672 2.381 190 190 0
0.356824 -15.914579 2.57 190 190 0
0.513081 -15.596893 2.355 190 190 0
0.528534 -15.564363 2.32 190 190 0
0.326877 -15.97115 2.363 190 190 0
0.376867 -15.866431 2.377 190 190 0
0.480377 -15.663282 2.406 190 190 0
0.467228 -15.686886 2.348 190 190 0
0.458148 -15.704705 2.353 190 190 0
0.406376 -15.808517 2.362 190 190 0
0.490382 -15.641443 2.328 190 190 0
0.465395 -15.692685 2.424 190 190 0
0.463596 -15.694013 2.346 190 190 0
0.418634 -15.784458 2.393 190 190 0
0.337319 -15.950657 2.408 190 190 0
0.34502 -15.937746 2.492 190 190 0
0.436776 -15.751055 2.503 190 190 0
0.353225 -15.917236 2.364 190 190 0
0.520799 -15.581747 2.338 190 190 0
0.388619 -15.849974 2.592 190 190 0
0.34502 -15.937746 2.511 190 190 0
0.528971 -15.565708 2.353 190 190 0
0.391361 -15.842391 2.508 190 190 0
0.474021 -15.675756 2.388 190 190 0
0.345037 -15.93551 2.419 190 190 0
0.415456 -15.790695 2.407 190 190 0
0.454499 -15.714069 2.426 190 190 0
0.483101 -15.657936 2.428 190 190 0
0.42541 -15.775566 2.514 190 190 0
0.457677 -15.707832 2.379 190 190 0
0.349577 -15.9266 2.388 190 190 0
0.499008 -15.624515 2.335 190 190 0
0.464924 -15.695812 2.454 190 190 0
0.353679 -15.916345 2.434 190 190 0
0.351392 -15.923036 2.4 190 190 0
0.469481 -15.684667 2.376 190 190 0
0.333199 -15.963148 2.523 190 190 0
0.339101 -15.951565 2.588 190 190 0
0.40725 -15.811206 2.523 190 190 0
0.328693 -15.967587 2.409 190 190 0
0.376396 -15.869558 2.397 190 190 0
0.354537 -15.92127 2.573 190 190 0
0.383189 -15.85843 2.521 190 190 0
0.486296 -15.649463 2.357 190 190 0
0.372327 -15.875341 2.357 190 190 0
0.376362 -15.87403 2.561 190 190 0
0.373672 -15.874905 2.41 190 190 0
0.500823 -15.620951 2.366 190 190 0
0.336411 -15.952439 2.375 190 190 0
