ply
format ascii 1.0
element vertex 467
property double x
property double y
property double z
property uchar red
property uchar green
property uchar blue
element face 0
property list uchar int vertex_indices
end_header
-4.902354 -12.117059 0.69 170 84 0
-4.934447 -12.102951 0.674 170 84 0
-4.909147 -12.128187 0.677 170 84 0
-4.918511 -12.124538 0.672 170 84 0
-4.91224 -12.123244 0.678 170 84 0
-4.937137 -12.103825 0.671 170 84 0
-4.921133 -12.116468 0.674 170 84 0
-4.977436 -12.110228 0.555 170 84 0
-4.847718 -12.166221 0.634 170 84 0
-4.900305 -12.141671 0.635 170 84 0
-4.795149 -12.193007 0.531 170 84 0
-4.979655 -12.107974 0.585 170 84 0
-4.984564 -12.106595 0.563 170 84 0
-4.898523 -12.142579 0.655 170 84 0
-4.985892 -12.104795 0.601 170 84 0
-4.991692 -12.102963 0.556 170 84 0
-4.842809 -12.1676 0.638 170 84 0
-4.840136 -12.168962 0.653 170 84 0
-4.79604 -12.192553 0.537 170 84 0
-4.970728 -12.110278 0.639 170 84 0
-4.809405 -12.185742 0.562 170 84 0
-4.723835 -12.224853 0.667 170 84 0
-4.618696 -12.278424 0.569 170 84 0
-4.772403 -12.201229 0.664 170 84 0
-4.622731 -12.279736 0.426 170 84 0
-4.651663 -12.261626 0.585 170 84 0
-4.614695 -12.281586 0.507 170 84 0
-4.788003 -12.194402 0.665 170 84 0
-4.703375 -12.239767 0.409 170 84 0
-4.62806 -12.274776 0.503 170 84 0
-4.706922 -12.235715 0.567 170 84 0
-4.665045 -12.257052 0.49 170 84 0
-4.650369 -12.267898 0.348 170 84 0
-4.677082 -12.252042 0.484 170 84 0
-4.653933 -12.266082 0.322 170 84 0
-4.701156 -12.24202 0.395 170 84 0
-4.609365 -12.286545 0.412 170 84 0
-4.689119 -12.247031 0.425 170 84 0
-4.617368 -12.280223 0.499 170 84 0
-4.645006 -12.268386 0.449 170 84 0
-4.683319 -12.248864 0.498 170 84 0
-4.639223 -12.272454 0.338 170 84 0
-4.650789 -12.264317 0.489 170 84 0
-4.725633 -12.226181 0.576 170 84 0
-4.652588 -12.265645 0.361 170 84 0
-4.690901 -12.246123 0.413 170 84 0
-4.614275 -12.285167 0.357 170 84 0
-4.650352 -12.265661 0.459 170 84 0
-4.642753 -12.266166 0.588 170 84 0
-4.695356 -12.243854 0.434 170 84 0
-4.723431 -12.23067 0.392 170 84 0
-4.696248 -12.2434 0.448 170 84 0
-4.707813 -12.235261 0.578 170 84 0
-4.697592 -12.243835 0.398 170 84 0
-4.79915 -12.189845 0.587 170 84 0
-4.753692 -12.210763 0.638 170 84 0
-4.653916 -12.263845 0.455 170 84 0
-4.761711 -12.206676 0.653 170 84 0
-4.842809 -12.1676 0.663 170 84 0
-4.729668 -12.227492 0.381 170 84 0
-4.720287 -12.228905 0.574 170 84 0
-4.625858 -12.279264 0.328 170 84 0
-4.69001 -12.246577 0.445 170 84 0
-4.738998 -12.219371 0.563 170 84 0
-4.755036 -12.211199 0.602 170 84 0
-4.606238 -12.287016 0.428 170 84 0
-4.721161 -12.226215 0.688 170 84 0
-4.721178 -12.228451 0.593 170 84 0
-4.626731 -12.276574 0.476 170 84 0
-4.712722 -12.233882 0.518 170 84 0
-4.693574 -12.244761 0.449 170 84 0
-4.757273 -12.211183 0.571 170 84 0
-4.613384 -12.285621 0.362 170 84 0
-4.619604 -12.280206 0.469 170 84 0
-4.791131 -12.193931 0.591 170 84 0
-4.698886 -12.237565 0.676 170 84 0
-4.739889 -12.218917 0.572 170 84 0
-4.669517 -12.257019 0.42 170 84 0
-4.682882 -12.250209 0.416 170 84 0
-4.690884 -12.243887 0.556 170 84 0
-4.692246 -12.24656 0.347 170 84 0
-4.626278 -12.275683 0.506 170 84 0
-4.6637 -12.256616 0.568 170 84 0
-4.650352 -12.265661 0.427 170 84 0
-4.665499 -12.257944 0.448 170 84 0
-4.626715 -12.274338 0.586 170 84 0
-4.640568 -12.272891 0.338 170 84 0
-4.687791 -12.24883 0.377 170 84 0
-4.692212 -12.242088 0.584 170 84 0
-4.79604 -12.192553 0.545 170 84 0
-4.671282 -12.253875 0.529 170 84 0
-4.641442 -12.270202 0.404 170 84 0
-4.695322 -12.239381 0.657 170 84 0
-4.742562 -12.217555 0.571 170 84 0
-4.689556 -12.245686 0.456 170 84 0
-4.71716 -12.229377 0.622 170 84 0
-4.627605 -12.273884 0.589 170 84 0
-4.728306 -12.224819 0.589 170 84 0
-4.733215 -12.22344 0.516 170 84 0
-4.646334 -12.266586 0.501 170 84 0
-4.64277 -12.268402 0.472 170 84 0
-4.627623 -12.27612 0.443 170 84 0
-4.66908 -12.258364 0.32 170 84 0
-4.655261 -12.264283 0.404 170 84 0
-4.708251 -12.233916 0.606 170 84 0
-4.811624 -12.183489 0.582 170 84 0
-4.611584 -12.284292 0.449 170 84 0
-4.665936 -12.256598 0.5 170 84 0
-4.658808 -12.26023 0.529 170 84 0
-4.631186 -12.274304 0.482 170 84 0
-4.730088 -12.223911 0.582 170 84 0
-4.661481 -12.258868 0.52 170 84 0
-4.723397 -12.226198 0.631 170 84 0
-4.653025 -12.264299 0.428 170 84 0
-4.718959 -12.230704 0.49 170 84 0
-4.609802 -12.2852 0.442 170 84 0
-4.836572 -12.170777 0.657 170 84 0
-4.748799 -12.214377 0.602 170 84 0
-4.753254 -12.212108 0.596 170 84 0
-4.620494 -12.279752 0.482 170 84 0
-4.703341 -12.235294 0.672 170 84 0
-4.645442 -12.26704 0.51 170 84 0
-4.776875 -12.201195 0.592 170 84 0
-4.689119 -12.247031 0.433 170 84 0
-4.675737 -12.251604 0.543 170 84 0
-4.793804 -12.192569 0.585 170 84 0
-4.670391 -12.254329 0.515 170 84 0
-4.751036 -12.21436 0.555 170 84 0
-4.800495 -12.190283 0.555 170 84 0
-4.68421 -12.24841 0.459 170 84 0
-4.635642 -12.272034 0.449 170 84 0
-4.662826 -12.259306 0.467 170 84 0
-4.623168 -12.27839 0.46 170 84 0
-4.663246 -12.255724 0.614 170 84 0
-4.64277 -12.268402 0.464 170 84 0
-4.616494 -12.282913 0.404 170 84 0
-4.702013 -12.237094 0.621 170 84 0
-4.671736 -12.254766 0.485 170 84 0
-4.678864 -12.251134 0.489 170 84 0
-4.608912 -12.285654 0.435 170 84 0
-4.694011 -12.243416 0.508 170 84 0
-4.646334 -12.266586 0.482 170 84 0
-4.61915 -12.279315 0.518 170 84 0
-4.797368 -12.190753 0.567 170 84 0
-4.645442 -12.26704 0.477 170 84 0
-4.688228 -12.247485 0.419 170 84 0
-4.632532 -12.274741 0.392 170 84 0
-4.780439 -12.199379 0.556 170 84 0
-4.628513 -12.275666 0.445 170 84 0
-4.677536 -12.252934 0.432 170 84 0
-4.772857 -12.20212 0.597 170 84 0
-4.656135 -12.261592 0.521 170 84 0
-4.705594 -12.237514 0.519 170 84 0
-4.801823 -12.188483 0.581 170 84 0
-4.685975 -12.245266 0.594 170 84 0
-4.724288 -12.225744 0.608 170 84 0
-4.694448 -12.24207 0.525 170 84 0
-4.629858 -12.276103 0.397 170 84 0
-4.670374 -12.252092 0.602 170 84 0
-4.676191 -12.252496 0.449 170 84 0
-4.669046 -12.253892 0.575 170 84 0
-4.804933 -12.185776 0.651 170 84 0
-4.689102 -12.244795 0.515 170 84 0
-4.636113 -12.275161 0.317 170 84 0
-4.69354 -12.240289 0.641 170 84 0
-4.689993 -12.244341 0.522 170 84 0
-4.683756 -12.247519 0.532 170 84 0
-4.75771 -12.209837 0.594 170 84 0
-4.665936 -12.256598 0.494 170 84 0
-4.624058 -12.277936 0.474 170 84 0
-4.782675 -12.199362 0.529 170 84 0
-4.634297 -12.271598 0.505 170 84 0
-4.681066 -12.246645 0.64 170 84 0
-4.673955 -12.252512 0.545 170 84 0
-4.625387 -12.276137 0.543 170 84 0
-4.725616 -12.223945 0.668 170 84 0
-4.8379 -12.168978 0.689 170 84 0
-4.845028 -12.165346 0.687 170 84 0
-4.6811 -12.251117 0.407 170 84 0
-4.724322 -12.230216 0.407 170 84 0
-4.681957 -12.246191 0.653 170 84 0
-4.669517 -12.257019 0.423 170 84 0
-4.64277 -12.268402 0.471 170 84 0
-4.67572 -12.249369 0.615 170 84 0
-4.69312 -12.24387 0.471 170 84 0
-4.710032 -12.233008 0.638 170 84 0
-4.720725 -12.22756 0.627 170 84 0
-4.635205 -12.273379 0.446 170 84 0
-4.69354 -12.240289 0.659 170 84 0
-4.696667 -12.239819 0.577 170 84 0
-4.840136 -12.168962 0.663 170 84 0
-4.632515 -12.272506 0.543 170 84 0
-4.689085 -12.242558 0.631 170 84 0
-4.690464 -12.247468 0.381 170 84 0
-4.671753 -12.257002 0.33 170 84 0
-4.680629 -12.24799 0.555 170 84 0
-4.60802 -12.286108 0.468 170 84 0
-4.807169 -12.18576 0.631 170 84 0
-4.66059 -12.259322 0.492 170 84 0
-4.673955 -12.252512 0.541 170 84 0
-4.668172 -12.256581 0.478 170 84 0
-4.685084 -12.24572 0.562 170 84 0
-4.72027 -12.226669 0.666 170 84 0
-4.647242 -12.268369 0.37 170 84 0
-4.633406 -12.272052 0.511 170 84 0
-4.632532 -12.274741 0.408 170 84 0
-4.714033 -12.229847 0.666 170 84 0
-4.80806 -12.185306 0.616 170 84 0
-4.646771 -12.265242 0.548 170 84 0
-4.722523 -12.228889 0.491 170 84 0
-4.6695 -12.254783 0.498 170 84 0
-4.650352 -12.265661 0.414 170 84 0
-4.686883 -12.247047 0.49 170 84 0
-4.628077 -12.277011 0.412 170 84 0
-4.698903 -12.2398 0.548 170 84 0
-4.63075 -12.275649 0.396 170 84 0
-4.619166 -12.281551 0.401 170 84 0
-4.652134 -12.264753 0.461 170 84 0
-4.639677 -12.273345 0.335 170 84 0
-4.631641 -12.275195 0.425 170 84 0
-4.78444 -12.196218 0.636 170 84 0
-4.780893 -12.200271 0.541 170 84 0
-4.616039 -12.282022 0.434 170 84 0
-4.667718 -12.255691 0.501 170 84 0
-4.657026 -12.261138 0.479 170 84 0
-4.711848 -12.236572 0.402 170 84 0
-4.663263 -12.25796 0.516 170 84 0
-4.718051 -12.228923 0.63 170 84 0
-4.674409 -12.253404 0.438 170 84 0
-4.683319 -12.248864 0.475 170 84 0
-4.657463 -12.259793 0.577 170 84 0
-4.681974 -12.248426 0.537 170 84 0
-4.686429 -12.246157 0.512 170 84 0
-4.797351 -12.188518 0.678 170 84 0
-4.805387 -12.186667 0.617 170 84 0
-4.692229 -12.244324 0.499 170 84 0
-4.644535 -12.265258 0.576 170 84 0
-4.620041 -12.278861 0.524 170 84 0
-4.641005 -12.271546 0.394 170 84 0
-4.756818 -12.210291 0.589 170 84 0
-4.646334 -12.266586 0.495 170 84 0
-4.624058 -12.277936 0.44 170 84 0
-4.640551 -12.270656 0.442 170 84 0
-4.800478 -12.188046 0.654 170 84 0
-4.79424 -12.191224 0.649 170 84 0
-4.653025 -12.264299 0.463 170 84 0
-4.745689 -12.217085 0.557 170 84 0
-4.697575 -12.2416 0.513 170 84 0
-4.668155 -12.254346 0.567 170 84 0
-4.673501 -12.251622 0.601 170 84 0
-4.67841 -12.250242 0.533 170 84 0
-4.786222 -12.19531 0.662 170 84 0
-4.777766 -12.200741 0.582 170 84 0
-4.778203 -12.199395 0.642 170 84 0
-4.732761 -12.222549 0.577 170 84 0
-4.716269 -12.229831 0.613 170 84 0
-4.649915 -12.267007 0.392 170 84 0
-4.690867 -12.241651 0.629 170 84 0
-4.653008 -12.262064 0.579 170 84 0
-4.665571 -12.09068 0.707 170 84 0
-4.67628 -12.087468 0.707 170 84 0
-4.669487 -12.07634 0.707 170 84 0
-4.668681 -12.087974 0.707 170 84 0
-4.723571 -12.072351 0.706 170 84 0
-4.688266 -12.075749 0.707 170 84 0
-4.652944 -12.076913 0.708 170 84 0
-4.666797 -12.075465 0.708 170 84 0
-4.683726 -12.06684 0.707 170 84 0
-4.674918 -12.084796 0.707 170 84 0
-4.660679 -12.094296 0.707 170 84 0
-4.698767 -12.221912 0.698 170 84 0
-4.694435 -12.063628 0.707 170 84 0
-4.659601 -12.070153 0.708 170 84 0
-4.692318 -12.079296 0.707 170 84 0
-4.678181 -12.102212 0.706 170 84 0
-4.513858 -11.841386 0.696 170 84 0
-4.60256 -11.861284 0.707 170 84 0
-4.527677 -11.835466 0.697 170 84 0
-4.551836 -11.836625 0.7 170 84 0
-4.558362 -11.871459 0.703 170 84 0
-4.510764 -11.846328 0.696 170 84 0
-4.573492 -11.861506 0.704 170 84 0
-4.580721 -11.871288 0.706 170 84 0
-4.602644 -11.872464 0.708 170 84 0
-4.564967 -11.857991 0.703 170 84 0
-4.568701 -11.878536 0.705 170 84 0
-4.491264 -11.869732 0.696 170 84 0
-4.568009 -11.846341 0.702 170 84 0
-4.573547 -11.927694 0.704 170 84 0
-4.584455 -11.891833 0.707 170 84 0
-4.505843 -11.904952 0.698 170 84 0
-4.459867 -11.975515 0.691 170 84 0
-4.519445 -11.929446 0.698 170 84 0
-4.549553 -11.889415 0.703 170 84 0
-4.567967 -11.958595 0.703 170 84 0
-4.597536 -11.906492 0.708 170 84 0
-4.603404 -11.913604 0.708 170 84 0
-4.638302 -12.092229 0.706 170 84 0
-4.501324 -11.957759 0.696 170 84 0
-4.636821 -12.073904 0.706 170 84 0
-4.609607 -11.905953 0.709 170 84 0
-4.463223 -11.887387 0.694 170 84 0
-4.51805 -11.922301 0.699 170 84 0
-4.64938 -12.078729 0.707 170 84 0
-4.525445 -11.894964 0.7 170 84 0
-4.54495 -11.931042 0.701 170 84 0
-4.435504 -11.947526 0.689 170 84 0
-4.472977 -11.935166 0.693 170 84 0
-4.485719 -11.905106 0.696 170 84 0
-4.501358 -11.962231 0.696 170 84 0
-4.512907 -11.951858 0.697 170 84 0
-4.554683 -11.917104 0.703 170 84 0
-4.564925 -11.970246 0.702 170 84 0
-4.451996 -11.940245 0.691 170 84 0
-4.509559 -11.92326 0.698 170 84 0
-4.573377 -11.905334 0.705 170 84 0
-4.492932 -11.912654 0.696 170 84 0
-4.607019 -11.918496 0.708 170 84 0
-4.552243 -11.890289 0.703 170 84 0
-4.560487 -11.974751 0.701 170 84 0
-4.476961 -11.929769 0.694 170 84 0
-4.57731 -11.893229 0.706 170 84 0
-4.605237 -11.919404 0.708 170 84 0
-4.461946 -11.895894 0.693 170 84 0
-4.576135 -11.915153 0.705 170 84 0
-4.623439 -12.078478 0.705 170 84 0
-4.537855 -11.939146 0.7 170 84 0
-4.4972 -11.885787 0.698 170 84 0
-4.462332 -11.887841 0.694 170 84 0
-4.595899 -12.279939 0.45 170 84 0
-4.603095 -12.285252 0.429 170 84 0
-4.600842 -12.283032 0.478 170 84 0
-4.596807 -12.281721 0.449 170 84 0
-4.596807 -12.281721 0.428 170 84 0
-4.584214 -12.272425 0.452 170 84 0
-4.59906 -12.28394 0.401 170 84 0
-4.593663 -12.279956 0.399 170 84 0
-4.590485 -12.273719 0.53 170 84 0
-4.601749 -12.284814 0.433 170 84 0
-4.582415 -12.271097 0.466 170 84 0
-4.590047 -12.275064 0.512 170 84 0
-4.595881 -12.277703 0.534 170 84 0
-4.583306 -12.270642 0.507 170 84 0
-4.603112 -12.287487 0.387 170 84 0
-4.59995 -12.283486 0.444 170 84 0
-4.591863 -12.278627 0.412 170 84 0
-4.596807 -12.281721 0.419 170 84 0
-4.589611 -12.276409 0.453 170 84 0
-4.585996 -12.271517 0.534 170 84 0
-4.584633 -12.268844 0.531 170 84 0
-4.561128 -12.235928 0.444 170 84 0
-4.575099 -12.250133 0.517 170 84 0
-4.563534 -12.258271 0.394 170 84 0
-4.574243 -12.255059 0.49 170 84 0
-4.553393 -12.218545 0.44 170 84 0
-4.577001 -12.264876 0.482 170 84 0
-4.563784 -12.232329 0.48 170 84 0
-4.568375 -12.247948 0.463 170 84 0
-4.567535 -12.25511 0.436 170 84 0
-4.573755 -12.249696 0.503 170 84 0
-4.581388 -12.253663 0.556 170 84 0
-4.581842 -12.254554 0.559 170 84 0
-4.579169 -12.255916 0.532 170 84 0
-4.575032 -12.241189 0.542 170 84 0
-4.567853 -12.238112 0.496 170 84 0
-4.561497 -12.225638 0.483 170 84 0
-4.5656 -12.235894 0.481 170 84 0
-4.552014 -12.213635 0.449 170 84 0
-4.585457 -12.259446 0.568 170 84 0
-4.576042 -12.256387 0.506 170 84 0
-4.552468 -12.214526 0.445 170 84 0
-4.570123 -12.242567 0.502 170 84 0
-4.568812 -12.246603 0.478 170 84 0
-4.576479 -12.255041 0.509 170 84 0
-4.559414 -12.245779 0.403 170 84 0
-4.573738 -12.24746 0.511 170 84 0
-4.573738 -12.24746 0.518 170 84 0
-4.577875 -12.262186 0.495 170 84 0
-4.570106 -12.240332 0.507 170 84 0
-4.564488 -12.20728 0.592 170 84 0
-4.573534 -12.220628 0.62 170 84 0
-4.567683 -12.215753 0.589 170 84 0
-4.551963 -12.206927 0.478 170 84 0
-4.550096 -12.196655 0.497 170 84 0
-4.580866 -12.243828 0.583 170 84 0
-4.54971 -12.204708 0.456 170 84 0
-4.553779 -12.210491 0.474 170 84 0
-4.558285 -12.21493 0.502 170 84 0
-4.558302 -12.217165 0.485 170 84 0
-4.55235 -12.198874 0.518 170 84 0
-4.557814 -12.211802 0.503 170 84 0
-4.556015 -12.210474 0.497 170 84 0
-4.569953 -12.220208 0.588 170 84 0
-4.569584 -12.230496 0.541 170 84 0
-4.555913 -12.197059 0.562 170 84 0
-4.548314 -12.197563 0.477 170 84 0
-4.572155 -12.215718 0.629 170 84 0
-4.56585 -12.209952 0.6 170 84 0
-4.556503 -12.215837 0.481 170 84 0
-4.579975 -12.244282 0.574 170 84 0
-4.548751 -12.196218 0.489 170 84 0
-4.543842 -12.197597 0.43 170 84 0
-4.553342 -12.211836 0.468 170 84 0
-4.555578 -12.21182 0.487 170 84 0
-4.573534 -12.220628 0.626 170 84 0
-4.579521 -12.243391 0.578 170 84 0
-4.550584 -12.202018 0.477 170 84 0
-4.546969 -12.197126 0.47 170 84 0
-4.578159 -12.240717 0.577 170 84 0
-4.540597 -12.182417 0.475 170 84 0
-4.568608 -12.21977 0.582 170 84 0
-4.547877 -12.198908 0.47 170 84 0
-4.55694 -12.214492 0.49 170 84 0
-4.543724 -12.181945 0.501 170 84 0
-4.552383 -12.203346 0.49 170 84 0
-4.54285 -12.184635 0.482 170 84 0
-4.551963 -12.206927 0.473 170 84 0
-4.540631 -12.186889 0.455 170 84 0
-4.555595 -12.214056 0.477 170 84 0
-4.562371 -12.222948 0.502 170 84 0
-4.574425 -12.220174 0.637 170 84 0
-4.430578 -11.946669 0.647 170 84 0
-4.439658 -11.964488 0.611 170 84 0
-4.438733 -11.96047 0.648 170 84 0
-4.465955 -12.011695 0.659 170 84 0
-4.446468 -11.977854 0.612 170 84 0
-4.431469 -11.946215 0.663 170 84 0
-4.456421 -11.992984 0.659 170 84 0
-4.434193 -11.95156 0.654 170 84 0
-4.535382 -12.143547 0.645 170 84 0
-4.47095 -12.021496 0.648 170 84 0
-4.438733 -11.96047 0.661 170 84 0
-4.431469 -11.946215 0.656 170 84 0
-4.449192 -11.983199 0.607 170 84 0
-4.440566 -11.966271 0.636 170 84 0
-4.439658 -11.964488 0.632 170 84 0
-4.490454 -12.057573 0.657 170 84 0
-4.528135 -12.131527 0.638 170 84 0
-4.457784 -11.995657 0.667 170 84 0
-4.426476 -11.936414 0.662 170 84 0
-4.535853 -12.146674 0.639 170 84 0
-4.447796 -11.976054 0.688 170 84 0
-4.474581 -12.028624 0.646 170 84 0
-4.535836 -12.144438 0.67 170 84 0
-4.439204 -11.963598 0.635 170 84 0
-4.555375 -12.184987 0.617 170 84 0
-4.471403 -12.022387 0.664 170 84 0
-4.456439 -11.99522 0.651 170 84 0
-4.531313 -12.137764 0.632 170 84 0
-4.505232 -11.824456 0.7 170 84 0
-4.50034 -11.828071 0.696 170 84 0
-4.507014 -11.823548 0.698 170 84 0
-4.481628 -11.837605 0.701 170 84 0
-4.505232 -11.824456 0.7 170 84 0
-4.486974 -11.834881 0.702 170 84 0
-4.478955 -11.838966 0.702 170 84 0
-4.501231 -11.827617 0.697 170 84 0
-4.420149 -11.86893 0.69 170 84 0
-4.506123 -11.824002 0.702 170 84 0
-4.504426 -11.83609 0.695 170 84 0
-4.52001 -11.827027 0.695 170 84 0
-4.496339 -11.831232 0.693 170 84 0
-4.503585 -11.843252 0.695 170 84 0
-4.480436 -11.857292 0.694 170 84 0
-4.51964 -11.837317 0.696 170 84 0
-4.589878 -11.781327 0.699 170 84 0
-4.479863 -11.840749 0.692 170 84 0
