ply
format ascii 1.0
element vertex 1300
property double x
property double y
property double z
property uchar red
property uchar green
property uchar blue
element face 0
property list uchar int vertex_indices
end_header
-2.273114 -15.122254 0.734 255 127 0
-2.070801 -14.923433 0.733 255 127 0
-2.143706 -15.04229 0.733 255 127 0
-2.068866 -14.904217 0.733 255 127 0
-1.956963 -14.891649 0.732 255 127 0
-1.85289 -14.79092 0.732 255 127 0
-2.076512 -15.086628 0.732 255 127 0
-2.083814 -14.929149 0.733 255 127 0
-2.170161 -15.169101 0.732 255 127 0
-2.235226 -15.197676 0.732 255 127 0
-2.053481 -15.116319 0.731 255 127 0
-2.131924 -15.08084 0.732 255 127 0
-2.087306 -15.094596 0.732 255 127 0
-2.089732 -14.942966 0.733 255 127 0
-2.307228 -15.138543 0.734 255 127 0
-2.172019 -15.06041 0.733 255 127 0
-2.333169 -15.138794 0.734 255 127 0
-2.131334 -15.06206 0.733 255 127 0
-1.729175 -14.636224 0.732 255 127 0
-1.83888 -14.712761 0.733 255 127 0
-2.143838 -15.236384 0.731 255 127 0
-1.858991 -14.769853 0.732 255 127 0
-2.049688 -14.970105 0.732 255 127 0
-2.19415 -15.147899 0.732 255 127 0
-2.049285 -14.975922 0.732 255 127 0
-2.094697 -15.007777 0.733 255 127 0
-2.140953 -15.091951 0.732 255 127 0
-1.742053 -14.624051 0.732 255 127 0
-2.205759 -15.027507 0.734 255 127 0
-2.087933 -14.941639 0.733 255 127 0
-1.986401 -14.881141 0.733 255 127 0
-2.144072 -15.208207 0.731 255 127 0
-2.139637 -15.036507 0.733 255 127 0
-2.01804 -14.866141 0.733 255 127 0
-2.068603 -14.987403 0.733 255 127 0
-1.84297 -14.780261 0.732 255 127 0
-2.25185 -15.148803 0.733 255 127 0
-2.0958 -15.153118 0.731 255 127 0
-1.820402 -14.694118 0.733 255 127 0
-2.226141 -15.120375 0.733 255 127 0
-2.072091 -15.093369 0.731 255 127 0
-2.050579 -14.969651 0.732 255 127 0
-2.078468 -15.167561 0.731 255 127 0
-1.785903 -14.685883 0.732 255 127 0
-2.062599 -14.962403 0.733 255 127 0
-2.119132 -15.104193 0.732 255 127 0
-1.9165 -14.922369 0.731 255 127 0
-1.941388 -14.783986 0.733 255 127 0
-2.281541 -15.171833 0.733 255 127 0
-2.212929 -15.147309 0.733 255 127 0
-2.175324 -15.201262 0.732 255 127 0
-2.025652 -15.04408 0.731 255 127 0
-2.166745 -15.131559 0.732 255 127 0
-2.229256 -15.177149 0.733 255 127 0
-2.193764 -15.155951 0.732 255 127 0
-2.237776 -15.121181 0.733 255 127 0
-1.855966 -14.783741 0.732 255 127 0
-1.927471 -14.83597 0.732 255 127 0
-2.036594 -15.012691 0.732 255 127 0
-2.136154 -14.990021 0.733 255 127 0
-1.955725 -14.964109 0.731 255 127 0
-2.165727 -14.997399 0.734 255 127 0
-2.210837 -15.048488 0.734 255 127 0
-2.069133 -15.1162 0.731 255 127 0
-2.15058 -15.240805 0.731 255 127 0
-1.959892 -14.923828 0.732 255 127 0
-1.895187 -14.766001 0.733 255 127 0
-2.092016 -15.125866 0.731 255 127 0
-2.079325 -14.926947 0.733 255 127 0
-2.086711 -15.016335 0.732 255 127 0
-1.966192 -14.870113 0.732 255 127 0
-2.214291 -15.149981 0.733 255 127 0
-1.971763 -14.955937 0.732 255 127 0
-2.188897 -15.045076 0.733 255 127 0
-1.932992 -14.915087 0.732 255 127 0
-2.102092 -14.98044 0.733 255 127 0
-2.010569 -15.001261 0.732 255 127 0
-1.957609 -14.976618 0.731 255 127 0
-1.85855 -14.711717 0.733 255 127 0
-1.790494 -14.7015 0.732 255 127 0
-2.095469 -14.991672 0.733 255 127 0
-2.154759 -15.143278 0.732 255 127 0
-2.135284 -15.052192 0.733 255 127 0
-1.755065 -14.629766 0.732 255 127 0
-2.28359 -15.14722 0.734 255 127 0
-2.137215 -15.247615 0.731 255 127 0
-1.96475 -14.915741 0.732 255 127 0
-1.798831 -14.680418 0.732 255 127 0
-1.877167 -14.80773 0.732 255 127 0
-1.915808 -14.890173 0.732 255 127 0
-2.173351 -15.118093 0.732 255 127 0
-1.93154 -14.841753 0.732 255 127 0
-2.203692 -15.049884 0.734 255 127 0
-2.147949 -15.129913 0.732 255 127 0
-2.034469 -14.909398 0.733 255 127 0
-2.184816 -15.096539 0.733 255 127 0
-2.033926 -15.073534 0.731 255 127 0
-2.309934 -15.141653 0.734 255 127 0
-1.894092 -14.739623 0.733 255 127 0
-1.973855 -14.819071 0.733 255 127 0
-2.183857 -15.088049 0.733 255 127 0
-2.105588 -15.205369 0.731 255 127 0
-2.081561 -14.926929 0.733 255 127 0
-2.1925 -15.107214 0.733 255 127 0
-2.228314 -15.170896 0.733 255 127 0
-1.957282 -14.874653 0.732 255 127 0
-1.793655 -14.705502 0.732 255 127 0
-1.887724 -14.784393 0.732 255 127 0
-2.129353 -15.095617 0.732 255 127 0
-2.160843 -15.119976 0.732 255 127 0
-1.943535 -14.948997 0.731 255 127 0
-2.042424 -14.955849 0.733 255 127 0
-2.055314 -14.886431 0.733 255 127 0
-2.134996 -15.249868 0.731 255 127 0
-2.1276 -15.041517 0.733 255 127 0
-2.146744 -14.971157 0.734 255 127 0
-2.057181 -15.132391 0.731 255 127 0
-2.05926 -15.05277 0.732 255 127 0
-2.317868 -15.126387 0.734 255 127 0
-2.064678 -15.11847 0.731 255 127 0
-2.259427 -15.086581 0.734 255 127 0
-2.112296 -14.969629 0.733 255 127 0
-2.020811 -15.054403 0.731 255 127 0
-1.966866 -14.900071 0.732 255 127 0
-2.034995 -14.978714 0.732 255 127 0
-2.222641 -15.071653 0.734 255 127 0
-2.168867 -15.175371 0.732 255 127 0
-1.773089 -14.647518 0.732 255 127 0
-1.977228 -14.968865 0.732 255 127 0
-2.25417 -15.159966 0.733 255 127 0
-2.017328 -15.007917 0.732 255 127 0
-1.858214 -14.726479 0.733 255 127 0
-1.893876 -14.770037 0.733 255 127 0
-2.169223 -14.986639 0.734 255 127 0
-2.201312 -15.148739 0.732 255 127 0
-1.880511 -14.776846 0.732 255 127 0
-2.016814 -14.881356 0.733 255 127 0
-2.220426 -15.133388 0.733 255 127 0
-1.898688 -14.814722 0.732 255 127 0
-1.933059 -14.924031 0.731 255 127 0
-2.057923 -14.935606 0.733 255 127 0
-2.242269 -15.182864 0.733 255 127 0
-2.124771 -15.198962 0.731 255 127 0
-2.059913 -15.021011 0.732 255 127 0
-2.23618 -15.146685 0.733 255 127 0
-2.056205 -15.121665 0.731 255 127 0
-1.86945 -14.792583 0.732 255 127 0
-2.144322 -15.182266 0.731 255 127 0
-2.041177 -14.909347 0.733 255 127 0
-1.807359 -14.743412 0.732 255 127 0
-1.826762 -14.766073 0.732 255 127 0
-2.269835 -15.102602 0.734 255 127 0
-1.960562 -14.894306 0.732 255 127 0
-2.212539 -15.095881 0.733 255 127 0
-2.1234 -15.077327 0.732 255 127 0
-2.208492 -15.151815 0.733 255 127 0
-2.015847 -14.989593 0.732 255 127 0
-2.034256 -14.999292 0.732 255 127 0
-2.227499 -15.063567 0.734 255 127 0
-2.101035 -15.018016 0.733 255 127 0
-2.036085 -14.945611 0.733 255 127 0
-2.181511 -15.191376 0.732 255 127 0
-2.054041 -14.954419 0.733 255 127 0
-2.193599 -15.193072 0.732 255 127 0
-2.070168 -15.016908 0.732 255 127 0
-2.257242 -15.093305 0.734 255 127 0
-2.169469 -15.136906 0.732 255 127 0
-2.094205 -15.178622 0.731 255 127 0
-2.062654 -15.028593 0.732 255 127 0
-2.189368 -15.048204 0.733 255 127 0
-2.048457 -14.925839 0.733 255 127 0
-2.203973 -15.204622 0.732 255 127 0
-2.225556 -15.161077 0.733 255 127 0
-2.066006 -15.116671 0.731 255 127 0
-1.965 -14.8898 0.732 255 127 0
-2.234921 -15.157429 0.733 255 127 0
-1.892501 -14.824608 0.732 255 127 0
-2.048551 -15.055982 0.732 255 127 0
-1.807287 -14.674987 0.733 255 127 0
-1.976422 -14.9805 0.731 255 127 0
-1.729562 -14.628171 0.732 255 127 0
-1.721929 -14.624204 0.732 255 127 0
-2.221436 -15.148585 0.733 255 127 0
-1.869518 -14.801526 0.732 255 127 0
-1.803893 -14.699163 0.732 255 127 0
-1.837204 -14.786566 0.732 255 127 0
-2.173237 -15.161922 0.732 255 127 0
-2.207312 -15.114257 0.733 255 127 0
-2.147636 -15.206391 0.731 255 127 0
-1.990593 -14.962056 0.732 255 127 0
-1.941006 -14.851521 0.732 255 127 0
-2.263076 -15.095944 0.734 255 127 0
-2.089397 -14.957728 0.733 255 127 0
-2.244132 -15.133656 0.733 255 127 0
-2.044906 -15.106097 0.731 255 127 0
-1.921879 -14.924116 0.731 255 127 0
-1.946484 -14.807203 0.733 255 127 0
-1.837556 -14.774041 0.732 255 127 0
-2.015473 -14.940401 0.732 255 127 0
-2.14907 -15.041801 0.733 255 127 0
-2.162515 -15.222379 0.731 255 127 0
-2.216234 -15.052472 0.734 255 127 0
-2.126081 -15.194927 0.731 255 127 0
-2.322324 -15.124117 0.734 255 127 0
-1.899646 -14.823212 0.732 255 127 0
-2.054016 -15.06891 0.731 255 127 0
-1.796595 -14.680434 0.732 255 127 0
-2.183097 -15.046909 0.733 255 127 0
-2.167636 -15.131105 0.732 255 127 0
-1.888403 -14.873834 0.731 255 127 0
-2.1879 -15.208322 0.732 255 127 0
-1.786628 -14.722549 0.732 255 127 0
-1.806112 -14.69691 0.732 255 127 0
-1.80206 -14.693362 0.732 255 127 0
-2.165447 -15.078349 0.733 255 127 0
-2.19583 -15.133574 0.733 255 127 0
-1.962361 -14.895634 0.732 255 127 0
-2.161386 -15.191528 0.731 255 127 0
-2.027417 -15.040936 0.731 255 127 0
-2.129463 -15.227996 0.731 255 127 0
-2.058657 -15.091235 0.731 255 127 0
-1.856132 -14.746619 0.732 255 127 0
-1.976163 -14.887479 0.732 255 127 0
-2.163741 -15.207163 0.731 255 127 0
-2.155205 -15.025208 0.733 255 127 0
-2.152552 -15.088285 0.733 255 127 0
-2.195045 -15.206925 0.732 255 127 0
-1.973749 -14.981862 0.731 255 127 0
-2.158888 -15.039043 0.733 255 127 0
-2.104718 -15.031852 0.733 255 127 0
-1.907165 -14.871008 0.732 255 127 0
-2.096759 -15.161608 0.731 255 127 0
-2.13951 -15.13758 0.732 255 127 0
-1.690654 -14.569431 0.732 255 127 0
-2.1867 -15.109047 0.733 255 127 0
-1.828103 -14.707029 0.732 255 127 0
-2.155476 -15.060983 0.733 255 127 0
-2.067291 -14.991438 0.732 255 127 0
-2.276882 -15.14727 0.733 255 127 0
-2.138912 -14.999839 0.733 255 127 0
-2.224355 -15.061802 0.734 255 127 0
-2.127855 -15.075057 0.732 255 127 0
-2.190858 -15.185491 0.732 255 127 0
-2.204354 -15.137088 0.733 255 127 0
-1.726838 -14.622825 0.732 255 127 0
-2.093899 -15.138373 0.731 255 127 0
-1.983508 -14.853434 0.733 255 127 0
-1.833623 -14.786146 0.732 255 127 0
-2.096021 -15.182186 0.731 255 127 0
-2.155268 -15.210359 0.731 255 127 0
-2.225204 -15.173602 0.733 255 127 0
-2.158234 -15.070802 0.733 255 127 0
-1.853531 -14.816406 0.732 255 127 0
-1.830292 -14.759786 0.732 255 127 0
-2.227253 -15.148989 0.733 255 127 0
-2.070984 -15.124237 0.731 255 127 0
-1.978649 -14.861522 0.733 255 127 0
-2.022487 -14.980597 0.732 255 127 0
-2.002312 -14.974043 0.732 255 127 0
-2.028826 -14.990835 0.732 255 127 0
-1.963969 -14.812884 0.733 255 127 0
-1.932605 -14.923141 0.731 255 127 0
-1.800079 -14.72692 0.732 255 127 0
-2.0158 -15.042365 0.731 255 127 0
-1.972183 -14.952357 0.732 255 127 0
-2.159435 -15.170076 0.732 255 127 0
-2.044533 -15.056906 0.731 255 127 0
-2.072226 -15.111258 0.731 255 127 0
-1.97094 -14.965336 0.732 255 127 0
-2.316188 -15.140711 0.734 255 127 0
-2.009979 -14.982482 0.732 255 127 0
-2.076274 -15.055324 0.732 255 127 0
-1.920407 -14.789064 0.733 255 127 0
-1.976014 -14.926835 0.732 255 127 0
-2.061076 -15.056333 0.732 255 127 0
-2.211033 -15.192046 0.732 255 127 0
-2.055976 -14.973635 0.733 255 127 0
-2.105631 -15.093115 0.732 255 127 0
-2.134521 -15.187261 0.731 255 127 0
-2.299628 -15.139048 0.734 255 127 0
-1.86757 -14.839556 0.732 255 127 0
-2.182843 -15.01337 0.734 255 127 0
-2.117587 -15.136405 0.732 255 127 0
-1.897364 -14.876002 0.732 255 127 0
-2.081243 -14.943926 0.733 255 127 0
-2.22744 -15.173585 0.733 255 127 0
-1.926444 -14.818537 0.733 255 127 0
-2.134304 -14.981985 0.733 255 127 0
-1.870108 -14.820306 0.732 255 127 0
-2.069422 -15.154213 0.731 255 127 0
-2.166224 -15.121724 0.732 255 127 0
-2.046956 -15.081485 0.731 255 127 0
-2.007768 -14.868009 0.733 255 127 0
-1.947498 -14.881883 0.732 255 127 0
-2.018172 -15.060237 0.731 255 127 0
-1.891644 -14.829534 0.732 255 127 0
-2.203171 -15.040049 0.734 255 127 0
-1.835333 -14.716813 0.732 255 127 0
-1.71231 -14.594313 0.732 255 127 0
-1.972124 -14.826687 0.733 255 127 0
-1.74123 -14.63345 0.732 255 127 0
-1.968797 -14.859807 0.733 255 127 0
-2.225925 -15.150788 0.733 255 127 0
-1.815781 -14.733509 0.732 255 127 0
-2.025041 -14.963583 0.732 255 127 0
-2.00919 -14.996351 0.732 255 127 0
-1.868576 -14.795273 0.732 255 127 0
-1.976184 -14.949196 0.732 255 127 0
-2.158111 -14.995667 0.734 255 127 0
-2.193064 -15.004794 0.734 255 127 0
-1.989061 -14.937023 0.732 255 127 0
-1.923661 -14.923208 0.731 255 127 0
-2.165294 -15.058225 0.733 255 127 0
-2.222985 -15.175856 0.732 255 127 0
-2.221101 -15.163347 0.733 255 127 0
-1.940535 -14.848393 0.732 255 127 0
-2.008116 -15.031691 0.731 255 127 0
-2.104901 -14.996966 0.733 255 127 0
-1.993546 -14.879745 0.733 255 127 0
-2.092893 -14.946968 0.733 255 127 0
-1.884601 -14.844346 0.732 255 127 0
-2.142743 -14.974318 0.734 255 127 0
-2.251718 -15.190395 0.733 255 127 0
-1.98094 -14.927693 0.732 255 127 0
-1.825719 -14.746404 0.732 255 127 0
-1.645242 -14.537577 0.732 255 127 0
-1.646571 -14.535778 0.731 255 127 0
-1.63492 -14.532736 0.725 255 127 0
-1.850883 -14.938967 0.732 255 127 0
-2.027918 -15.224742 0.732 255 127 0
-2.011646 -15.26109 0.732 255 127 0
-1.954779 -15.134063 0.732 255 127 0
-2.06114 -15.241485 0.731 255 127 0
-1.979744 -15.123587 0.732 255 127 0
-2.038593 -15.217058 0.731 255 127 0
-2.078502 -15.172032 0.731 255 127 0
-1.889574 -15.028118 0.732 255 127 0
-1.953531 -15.087561 0.732 255 127 0
-1.782013 -14.821422 0.732 255 127 0
-1.990288 -15.157496 0.732 255 127 0
-1.833355 -14.809851 0.732 255 127 0
-1.83706 -14.885405 0.732 255 127 0
-2.006695 -15.139035 0.731 255 127 0
-2.028652 -15.144683 0.731 255 127 0
-1.723074 -14.65729 0.732 255 127 0
-1.833627 -14.845628 0.732 255 127 0
-1.878856 -14.912368 0.732 255 127 0
-1.979036 -15.089156 0.731 255 127 0
-1.949666 -15.10861 0.732 255 127 0
-1.672919 -14.589692 0.732 255 127 0
-1.993703 -15.195038 0.732 255 127 0
-2.038219 -15.167866 0.731 255 127 0
-1.986957 -15.131135 0.732 255 127 0
-1.832406 -14.920323 0.732 255 127 0
-1.933017 -15.036285 0.732 255 127 0
-1.722434 -14.631803 0.732 255 127 0
-1.796774 -14.821757 0.732 255 127 0
-1.850056 -14.888884 0.732 255 127 0
-1.753542 -14.723695 0.732 255 127 0
-1.821739 -14.811281 0.732 255 127 0
-1.907963 -14.9761 0.732 255 127 0
-1.698241 -14.626173 0.732 255 127 0
-1.950901 -14.976668 0.731 255 127 0
-1.780617 -14.814277 0.732 255 127 0
-1.909813 -14.984137 0.732 255 127 0
-1.853717 -14.841002 0.732 255 127 0
-1.891199 -14.947605 0.732 255 127 0
-1.948673 -15.095648 0.732 255 127 0
-1.922995 -15.012211 0.732 255 127 0
-1.768427 -14.799164 0.732 255 127 0
-1.827959 -14.805867 0.732 255 127 0
-1.883447 -14.927986 0.732 255 127 0
-1.811017 -14.871738 0.732 255 127 0
-1.678282 -14.589204 0.732 255 127 0
-1.990551 -15.07431 0.731 255 127 0
-2.041835 -15.172758 0.731 255 127 0
-1.86152 -14.86733 0.732 255 127 0
-1.998909 -15.114944 0.731 255 127 0
-1.799646 -14.787745 0.732 255 127 0
-1.795929 -14.769438 0.732 255 127 0
-1.812934 -14.888718 0.732 255 127 0
-1.835664 -14.87826 0.732 255 127 0
-1.930038 -14.9974 0.732 255 127 0
-2.009266 -15.124257 0.731 255 127 0
-1.804656 -14.799783 0.732 255 127 0
-1.957868 -15.069639 0.732 255 127 0
-1.937654 -14.999131 0.731 255 127 0
-2.024223 -15.26815 0.732 255 127 0
-1.847179 -14.863413 0.732 255 127 0
-1.800486 -14.780584 0.732 255 127 0
-1.814305 -14.774665 0.732 255 127 0
-1.939216 -14.969155 0.731 255 127 0
-1.967223 -15.182715 0.732 255 127 0
-1.68104 -14.599022 0.732 255 127 0
-2.055874 -15.195907 0.731 255 127 0
-1.851469 -14.898264 0.732 255 127 0
-1.964954 -15.178262 0.732 255 127 0
-2.059485 -15.141318 0.731 255 127 0
-1.88943 -14.891269 0.731 255 127 0
-1.995596 -15.090819 0.731 255 127 0
-2.001027 -15.099276 0.731 255 127 0
-1.96475 -15.151429 0.732 255 127 0
-1.749559 -14.729093 0.732 255 127 0
-1.831141 -14.871585 0.732 255 127 0
-1.768961 -14.751753 0.732 255 127 0
-1.905744 -14.978354 0.732 255 127 0
-1.793294 -14.834752 0.732 255 127 0
-1.749019 -14.717021 0.732 255 127 0
-1.931952 -14.954898 0.731 255 127 0
-1.838222 -14.920726 0.732 255 127 0
-1.811564 -14.767082 0.732 255 127 0
-2.000649 -15.226291 0.732 255 127 0
-1.884487 -14.888175 0.731 255 127 0
-1.804169 -14.79442 0.732 255 127 0
-2.037584 -15.20186 0.731 255 127 0
-1.737317 -14.707271 0.732 255 127 0
-2.019093 -15.240462 0.732 255 127 0
-2.055073 -15.267022 0.732 255 127 0
-1.98725 -15.228628 0.732 255 127 0
-1.702055 -14.598415 0.732 255 127 0
-1.983626 -15.104774 0.731 255 127 0
-1.789764 -14.841041 0.732 255 127 0
-1.828752 -14.851478 0.732 255 127 0
-2.040536 -15.119548 0.731 255 127 0
-1.994607 -15.137338 0.732 255 127 0
-2.000789 -15.067971 0.731 255 127 0
-2.046935 -15.255457 0.732 255 127 0
-2.06484 -15.257556 0.731 255 127 0
-1.845015 -14.931856 0.732 255 127 0
-1.833877 -14.819686 0.732 255 127 0
-2.014621 -15.240497 0.732 255 127 0
-1.883078 -14.938275 0.732 255 127 0
-1.775453 -14.782116 0.732 255 127 0
-1.689263 -14.621768 0.732 255 127 0
-1.908514 -14.930926 0.731 255 127 0
-1.707422 -14.657409 0.732 255 127 0
-1.943841 -14.989244 0.731 255 127 0
-1.899303 -14.9547 0.732 255 127 0
-1.748918 -14.703606 0.732 255 127 0
-1.824242 -14.787559 0.732 255 127 0
-1.684519 -14.586026 0.732 255 127 0
-2.12696 -15.251719 0.731 255 127 0
-1.868669 -14.925415 0.732 255 127 0
-1.841485 -14.938144 0.732 255 127 0
-1.837123 -14.834867 0.732 255 127 0
-1.856929 -14.851711 0.732 255 127 0
-1.898518 -15.02805 0.732 255 127 0
-2.060143 -15.169042 0.731 255 127 0
-2.019547 -15.241353 0.732 255 127 0
-1.906219 -15.040961 0.732 255 127 0
-1.719408 -14.64569 0.732 255 127 0
-2.017132 -15.100048 0.731 255 127 0
-1.717949 -14.689082 0.732 255 127 0
-1.768287 -14.721794 0.732 255 127 0
-1.970393 -15.069991 0.731 255 127 0
-1.872904 -14.894077 0.732 255 127 0
-1.810575 -14.813601 0.732 255 127 0
-1.952271 -15.098304 0.732 255 127 0
-1.844743 -14.896079 0.732 255 127 0
-2.007989 -15.132765 0.731 255 127 0
-1.900164 -15.009254 0.732 255 127 0
-1.964007 -15.112527 0.732 255 127 0
-2.034211 -15.287753 0.732 255 127 0
-1.808861 -14.823454 0.732 255 127 0
-1.929466 -14.980856 0.731 255 127 0
-1.728823 -14.648748 0.732 255 127 0
-1.825544 -14.900249 0.732 255 127 0
-2.114838 -15.245549 0.731 255 127 0
-1.975908 -15.089627 0.731 255 127 0
-1.796608 -14.858878 0.732 255 127 0
-1.69945 -14.608722 0.732 255 127 0
-1.814263 -14.886919 0.732 255 127 0
-2.018477 -15.100485 0.731 255 127 0
-1.793506 -14.744859 0.732 255 127 0
-2.056248 -15.2451 0.731 255 127 0
-1.89601 -14.992291 0.732 255 127 0
-1.673742 -14.580295 0.732 255 127 0
-1.857443 -14.978272 0.732 255 127 0
-1.835528 -14.860372 0.732 255 127 0
-2.052243 -15.188779 0.731 255 127 0
-1.688945 -14.638765 0.732 255 127 0
-1.815281 -14.785391 0.732 255 127 0
-2.075761 -15.164451 0.731 255 127 0
-1.934158 -15.009891 0.732 255 127 0
-1.763649 -14.758949 0.732 255 127 0
-1.954563 -15.164476 0.732 255 127 0
-2.033663 -15.15672 0.731 255 127 0
-2.018571 -15.230627 0.732 255 127 0
-1.89932 -14.956935 0.732 255 127 0
-1.989205 -15.073874 0.731 255 127 0
-1.816584 -14.898082 0.732 255 127 0
-1.676767 -14.566407 0.732 255 127 0
-1.926746 -15.034991 0.732 255 127 0
-1.981662 -15.140568 0.732 255 127 0
-2.086525 -15.227427 0.731 255 127 0
-1.738981 -14.690711 0.732 255 127 0
-1.929776 -15.080585 0.732 255 127 0
-1.715861 -14.649741 0.732 255 127 0
-1.955245 -15.077708 0.732 255 127 0
-2.04385 -15.143673 0.731 255 127 0
-1.803494 -14.764461 0.732 255 127 0
-1.965187 -15.150084 0.732 255 127 0
-1.742498 -14.741668 0.732 255 127 0
-1.832884 -14.806724 0.732 255 127 0
-2.086525 -15.227427 0.731 255 127 0
-1.73061 -14.707322 0.732 255 127 0
-2.045267 -15.212535 0.731 255 127 0
-2.074908 -15.228857 0.731 255 127 0
-1.894382 -15.013324 0.732 255 127 0
-1.904335 -15.028454 0.732 255 127 0
-1.991382 -15.183874 0.732 255 127 0
-1.871109 -14.952229 0.732 255 127 0
-1.822871 -14.901611 0.732 255 127 0
-1.966286 -15.000256 0.731 255 127 0
-1.981 -15.053364 0.731 255 127 0
-1.910203 -15.035564 0.732 255 127 0
-1.825239 -14.860003 0.732 255 127 0
-1.6881 -14.586446 0.732 255 127 0
-1.950536 -15.046438 0.732 255 127 0
-1.944015 -15.071086 0.732 255 127 0
-1.76314 -14.691869 0.732 255 127 0
-1.935512 -15.12929 0.732 255 127 0
-1.998595 -15.191422 0.732 255 127 0
-1.902973 -15.02578 0.732 255 127 0
-2.037307 -15.106604 0.731 255 127 0
-1.905477 -15.002059 0.732 255 127 0
-1.756029 -14.697737 0.732 255 127 0
-2.06453 -15.157827 0.731 255 127 0
-1.983712 -15.115954 0.732 255 127 0
-1.74414 -14.663391 0.732 255 127 0
-1.946111 -14.9937 0.731 255 127 0
-1.964257 -15.086585 0.732 255 127 0
-1.741853 -14.6567 0.732 255 127 0
-2.063673 -15.162753 0.731 255 127 0
-1.946921 -15.041547 0.732 255 127 0
-1.842787 -14.815146 0.732 255 127 0
-2.003139 -15.259813 0.732 255 127 0
-2.062311 -15.160081 0.731 255 127 0
-1.792081 -14.792723 0.732 255 127 0
-2.050601 -15.267056 0.732 255 127 0
-1.945572 -14.981629 0.731 255 127 0
-2.015966 -15.240932 0.732 255 127 0
-1.830925 -14.901999 0.732 255 127 0
-1.721648 -14.705153 0.732 255 127 0
-2.075141 -15.200681 0.731 255 127 0
-2.024906 -15.181384 0.731 255 127 0
-1.950256 -15.127389 0.732 255 127 0
-1.87309 -14.918673 0.732 255 127 0
-1.877643 -14.870338 0.731 255 127 0
-1.90453 -14.936323 0.731 255 127 0
-1.964012 -15.172007 0.732 255 127 0
-2.087972 -15.241281 0.731 255 127 0
-1.918973 -14.953655 0.731 255 127 0
-2.069545 -15.229345 0.731 255 127 0
-1.882641 -14.93962 0.732 255 127 0
-1.904212 -14.95332 0.732 255 127 0
-1.89411 -14.977547 0.732 255 127 0
-2.077802 -15.256563 0.731 255 127 0
-1.919278 -14.993903 0.732 255 127 0
-2.093182 -15.220669 0.731 255 127 0
-2.015796 -15.218574 0.732 255 127 0
-2.013089 -15.215463 0.732 255 127 0
-2.05752 -15.177112 0.731 255 127 0
-2.040337 -15.152197 0.731 255 127 0
-1.885212 -14.924842 0.732 255 127 0
-1.737165 -14.687147 0.732 255 127 0
-1.793646 -14.822227 0.732 255 127 0
-1.738777 -14.663878 0.732 255 127 0
-1.915447 -15.019424 0.732 255 127 0
-1.678146 -14.571316 0.732 255 127 0
-1.839249 -14.938161 0.732 255 127 0
-1.819876 -14.860491 0.732 255 127 0
-2.052714 -15.191907 0.731 255 127 0
-2.017303 -15.122408 0.731 255 127 0
-1.966273 -15.0575 0.731 255 127 0
-2.07134 -15.171192 0.731 255 127 0
-1.906732 -14.931834 0.731 255 127 0
-1.898904 -15.019997 0.732 255 127 0
-2.09964 -15.246559 0.731 255 127 0
-2.010793 -15.089809 0.731 255 127 0
-2.077208 -15.178304 0.731 255 127 0
-1.997352 -15.204402 0.732 255 127 0
-1.920738 -14.950511 0.731 255 127 0
-1.726031 -14.634459 0.732 255 127 0
-1.963876 -15.154119 0.732 255 127 0
-1.966753 -15.179589 0.732 255 127 0
-1.961856 -15.123723 0.732 255 127 0
-1.995447 -15.130177 0.731 255 127 0
-2.019504 -15.117919 0.731 255 127 0
-1.874249 -14.894513 0.732 255 127 0
-2.022831 -15.084799 0.731 255 127 0
-2.050563 -15.203103 0.731 255 127 0
-1.786866 -14.753854 0.732 255 127 0
-1.911577 -14.980992 0.732 255 127 0
-1.865292 -14.951826 0.732 255 127 0
-1.828599 -14.831354 0.732 255 127 0
-2.105541 -15.258142 0.731 255 127 0
-1.764099 -14.700359 0.732 255 127 0
-1.735672 -14.726068 0.732 255 127 0
-1.944991 -15.081812 0.732 255 127 0
-1.821085 -14.84304 0.732 255 127 0
-1.967241 -15.184953 0.732 255 127 0
-2.004578 -15.154705 0.732 255 127 0
-2.046353 -15.119951 0.731 255 127 0
-2.034452 -15.14285 0.731 255 127 0
-2.082706 -15.195704 0.731 255 127 0
-1.811178 -14.775136 0.732 255 127 0
-2.045136 -15.254128 0.732 255 127 0
-1.725497 -14.681869 0.732 255 127 0
-1.875365 -14.982609 0.732 255 127 0
-1.874491 -14.985299 0.732 255 127 0
-2.110298 -15.236639 0.731 255 127 0
-1.685813 -14.579755 0.732 255 127 0
-1.836936 -14.810271 0.732 255 127 0
-2.07176 -15.167611 0.731 255 127 0
-1.861223 -14.946043 0.732 255 127 0
-1.964915 -15.114308 0.732 255 127 0
-2.107909 -15.216533 0.731 255 127 0
-1.955505 -15.17073 0.732 255 127 0
-1.827276 -14.892634 0.732 255 127 0
-1.706111 -14.661444 0.732 255 127 0
-1.751438 -14.682119 0.732 255 127 0
-2.056163 -15.233919 0.731 255 127 0
-1.67717 -14.56059 0.732 255 127 0
-1.852008 -14.910336 0.732 255 127 0
-1.813656 -14.865904 0.732 255 127 0
-1.966901 -15.140232 0.732 255 127 0
-2.041805 -15.227767 0.731 255 127 0
-1.675745 -14.608455 0.732 255 127 0
-1.73338 -14.659895 0.732 255 127 0
-1.923204 -15.098525 0.732 255 127 0
-1.69883 -14.644951 0.732 255 127 0
-2.031664 -15.188041 0.731 255 127 0
-1.785788 -14.729712 0.732 255 127 0
-1.73935 -14.680422 0.732 255 127 0
-2.054979 -15.13688 0.731 255 127 0
-1.964423 -15.049463 0.731 255 127 0
-2.026616 -15.112051 0.731 255 127 0
-2.075948 -15.189046 0.731 255 127 0
-1.920327 -15.073054 0.732 255 127 0
-2.037778 -15.10973 0.731 255 127 0
-1.945572 -14.981629 0.731 255 127 0
-1.901654 -14.910853 0.731 255 127 0
-1.912974 -14.988137 0.732 255 127 0
-1.967088 -15.164828 0.732 255 127 0
-1.857031 -14.865128 0.732 255 127 0
-1.677777 -14.581605 0.732 255 127 0
-1.931986 -14.959371 0.731 255 127 0
-1.980028 -15.102118 0.731 255 127 0
-1.787859 -14.766815 0.732 255 127 0
-1.934006 -14.989767 0.731 255 127 0
-1.914319 -14.988574 0.732 255 127 0
-2.03609 -15.24078 0.732 255 127 0
-1.761795 -14.691432 0.732 255 127 0
-1.895718 -14.894798 0.731 255 127 0
-2.042828 -15.18572 0.731 255 127 0
-1.966795 -15.067335 0.731 255 127 0
-1.924379 -15.076602 0.732 255 127 0
-1.94701 -15.112207 0.732 255 127 0
-2.011248 -15.090701 0.731 255 127 0
-1.949496 -15.086249 0.732 255 127 0
-1.847048 -14.905006 0.732 255 127 0
-1.951779 -15.03346 0.731 255 127 0
-1.965704 -15.100438 0.732 255 127 0
-1.946501 -15.045128 0.732 255 127 0
-1.893775 -14.992309 0.732 255 127 0
-1.795288 -14.74395 0.732 255 127 0
-1.82204 -14.792048 0.732 255 127 0
-1.945564 -15.098355 0.732 255 127 0
-1.667369 -14.565583 0.732 255 127 0
-1.879748 -14.911914 0.732 255 127 0
-2.029394 -15.183586 0.731 255 127 0
-1.753254 -14.685682 0.732 255 127 0
-1.955347 -15.091125 0.732 255 127 0
-1.872373 -15.000968 0.732 255 127 0
-2.015924 -15.117499 0.731 255 127 0
-1.906834 -14.945251 0.732 255 127 0
-2.009992 -15.160924 0.731 255 127 0
-1.859993 -14.901777 0.732 255 127 0
-2.066605 -15.254413 0.731 255 127 0
-1.878156 -14.9969 0.732 255 127 0
-2.058225 -15.152061 0.731 255 127 0
-1.8516 -14.856671 0.732 255 127 0
-1.963002 -15.156809 0.732 255 127 0
-2.028037 -15.240394 0.732 255 127 0
-1.725395 -14.668452 0.732 255 127 0
-1.952759 -15.103667 0.732 255 127 0
-1.732035 -14.659457 0.732 255 127 0
-1.982388 -15.177235 0.732 255 127 0
-1.938015 -15.105568 0.732 255 127 0
-1.846033 -14.830327 0.732 255 127 0
-1.674009 -14.556588 0.732 255 127 0
-1.866815 -14.857898 0.731 255 127 0
-1.959433 -15.099145 0.732 255 127 0
-1.8567 -14.93937 0.732 255 127 0
-2.023849 -15.218959 0.732 255 127 0
-2.01502 -15.175198 0.731 255 127 0
-2.052226 -15.186543 0.731 255 127 0
-1.86923 -14.999203 0.732 255 127 0
-1.794487 -14.815066 0.732 255 127 0
-1.845066 -14.938563 0.732 255 127 0
-1.765164 -14.781747 0.732 255 127 0
-1.898938 -15.024469 0.732 255 127 0
-1.923169 -15.094052 0.732 255 127 0
-1.765919 -14.763405 0.732 255 127 0
-1.86729 -14.920506 0.732 255 127 0
-1.955449 -15.104541 0.732 255 127 0
-1.714283 -14.677482 0.732 255 127 0
-1.936149 -15.095296 0.732 255 127 0
-1.939411 -15.112713 0.732 255 127 0
-1.774948 -14.774517 0.732 255 127 0
-1.927438 -15.067187 0.732 255 127 0
-1.79573 -14.802087 0.732 255 127 0
-1.895943 -14.983348 0.732 255 127 0
-1.940739 -15.110914 0.732 255 127 0
-2.092507 -15.190709 0.731 255 127 0
-1.914823 -14.996174 0.732 255 127 0
-2.085855 -15.25695 0.731 255 127 0
-1.995142 -15.089929 0.731 255 127 0
-2.028593 -15.254701 0.732 255 127 0
-2.11519 -15.233024 0.731 255 127 0
-1.945466 -15.14442 0.732 255 127 0
-1.829859 -14.820611 0.732 255 127 0
-1.791287 -14.747111 0.732 255 127 0
-2.024901 -15.121902 0.731 255 127 0
-1.991073 -15.084146 0.731 255 127 0
-1.944634 -15.034856 0.732 255 127 0
-1.931375 -15.114563 0.732 255 127 0
-1.872085 -14.962956 0.732 255 127 0
-2.019436 -15.108974 0.731 255 127 0
-1.681358 -14.582025 0.732 255 127 0
-2.08022 -15.221662 0.731 255 127 0
-1.927298 -14.989818 0.732 255 127 0
-2.02076 -15.283382 0.732 255 127 0
-1.719124 -14.667158 0.732 255 127 0
-2.000106 -15.154738 0.732 255 127 0
-1.947447 -15.110863 0.732 255 127 0
-1.919695 -14.930841 0.731 255 127 0
-1.842105 -14.901914 0.732 255 127 0
-1.786747 -14.738201 0.732 255 127 0
-1.853229 -14.83564 0.732 255 127 0
-1.728522 -14.667982 0.732 255 127 0
-1.810143 -14.874428 0.732 255 127 0
-1.971806 -15.079372 0.731 255 127 0
-2.027278 -15.199255 0.731 255 127 0
-1.893367 -14.938644 0.732 255 127 0
-1.961843 -15.180968 0.732 255 127 0
-1.973966 -15.187138 0.732 255 127 0
-1.953964 -15.026734 0.731 255 127 0
-2.063389 -15.184222 0.731 255 127 0
-2.058229 -15.211542 0.731 255 127 0
-1.96954 -15.134398 0.732 255 127 0
-1.92538 -14.972837 0.731 255 127 0
-1.879196 -14.957088 0.732 255 127 0
-1.72321 -14.675178 0.732 255 127 0
-1.753712 -14.746056 0.732 255 127 0
-2.101876 -15.246541 0.731 255 127 0
-1.674162 -14.576714 0.732 255 127 0
-1.722535 -14.645219 0.732 255 127 0
-1.820818 -14.866744 0.732 255 127 0
-1.789556 -14.754727 0.732 255 127 0
-1.775062 -14.730687 0.732 255 127 0
-1.957231 -15.103633 0.732 255 127 0
-2.009135 -15.165851 0.732 255 127 0
-1.780124 -14.749433 0.732 255 127 0
-1.721979 -14.630912 0.732 255 127 0
-1.851753 -14.876795 0.732 255 127 0
-1.725026 -14.678742 0.732 255 127 0
-1.829715 -14.919449 0.732 255 127 0
-1.954537 -15.043278 0.731 255 127 0
-2.011756 -15.157781 0.731 255 127 0
-1.926042 -15.060041 0.732 255 127 0
-1.792785 -14.767673 0.732 255 127 0
-1.919936 -15.021626 0.732 255 127 0
-1.937251 -15.004948 0.731 255 127 0
-2.051449 -15.143167 0.731 255 127 0
-1.923984 -14.965693 0.731 255 127 0
-1.933421 -15.030469 0.732 255 127 0
-1.759979 -14.687868 0.732 255 127 0
-1.881712 -14.876122 0.731 255 127 0
-2.057877 -15.224067 0.731 255 127 0
-2.036438 -15.168774 0.731 255 127 0
-1.990988 -15.072965 0.731 255 127 0
-1.940548 -15.026837 0.732 255 127 0
-1.923852 -15.007285 0.732 255 127 0
-1.721526 -14.630021 0.732 255 127 0
-1.965535 -15.078077 0.732 255 127 0
-1.869908 -14.852955 0.731 255 127 0
-2.106734 -15.238455 0.731 255 127 0
-1.789696 -14.832096 0.732 255 127 0
-1.810932 -14.860558 0.732 255 127 0
-1.81999 -14.816661 0.732 255 127 0
-1.941143 -15.105097 0.732 255 127 0
-1.959611 -15.004778 0.731 255 127 0
-2.111071 -15.220533 0.731 255 127 0
-1.751964 -14.751435 0.732 255 127 0
-1.764205 -14.773256 0.732 255 127 0
-2.023446 -15.224776 0.732 255 127 0
-1.931049 -15.012598 0.732 255 127 0
-1.92706 -14.958513 0.731 255 127 0
-2.065748 -15.259338 0.731 255 127 0
-1.718364 -14.626019 0.732 255 127 0
-1.888271 -14.915427 0.732 255 127 0
-1.791656 -14.736823 0.732 255 127 0
-1.856849 -14.900013 0.732 255 127 0
-1.836232 -14.835321 0.732 255 127 0
-1.913347 -15.03733 0.732 255 127 0
-2.101893 -15.248778 0.731 255 127 0
-1.99588 -15.06935 0.731 255 127 0
-1.927349 -14.996526 0.732 255 127 0
-1.668192 -14.556187 0.732 255 127 0
-1.678753 -14.592331 0.732 255 127 0
-1.90677 -14.995788 0.732 255 127 0
-2.120235 -15.249534 0.731 255 127 0
-2.021346 -15.242681 0.732 255 127 0
-2.008969 -15.202971 0.732 255 127 0
-1.690187 -14.625786 0.732 255 127 0
-1.974593 -15.034181 0.731 255 127 0
-1.853972 -14.874542 0.732 255 127 0
-1.793294 -14.834752 0.732 255 127 0
-2.000696 -15.173518 0.732 255 127 0
-1.953655 -15.162694 0.732 255 127 0
-2.095469 -15.22736 0.731 255 127 0
-1.833979 -14.833102 0.732 255 127 0
-1.953281 -15.113502 0.732 255 127 0
-1.91745 -15.047585 0.732 255 127 0
-1.788198 -14.811536 0.732 255 127 0
-1.86586 -14.908888 0.732 255 127 0
-1.992099 -15.101579 0.731 255 127 0
-1.709403 -14.623852 0.732 255 127 0
-2.089329 -15.184472 0.731 255 127 0
-1.774176 -14.790623 0.732 255 127 0
-1.929525 -15.106527 0.732 255 127 0
-1.950494 -15.158693 0.732 255 127 0
-1.816426 -14.818477 0.732 255 127 0
-2.044559 -15.178103 0.731 255 127 0
-1.916147 -14.934894 0.731 255 127 0
-1.974738 -15.171031 0.732 255 127 0
-1.933365 -14.96428 0.731 255 127 0
-2.053236 -15.201741 0.731 255 127 0
-1.96534 -15.170209 0.732 255 127 0
-1.693128 -14.600719 0.732 255 127 0
-1.745841 -14.710784 0.732 255 127 0
-2.029632 -15.21489 0.732 255 127 0
-1.85098 -14.892901 0.732 255 127 0
-1.846419 -14.822274 0.732 255 127 0
-1.793125 -14.812393 0.732 255 127 0
-1.720236 -14.695773 0.732 255 127 0
-1.899761 -15.015072 0.732 255 127 0
-2.051869 -15.139586 0.731 255 127 0
-2.017913 -15.202904 0.732 255 127 0
-2.007442 -15.23742 0.732 255 127 0
-1.996194 -15.228561 0.732 255 127 0
-2.056117 -15.286693 0.732 255 127 0
-1.843747 -14.823636 0.732 255 127 0
-1.875912 -14.877954 0.731 255 127 0
-1.879854 -14.984811 0.732 255 127 0
-1.763042 -14.737934 0.732 255 127 0
-1.954019 -15.092924 0.732 255 127 0
-1.984619 -15.117737 0.732 255 127 0
-2.044779 -15.207171 0.731 255 127 0
-1.798742 -14.845445 0.732 255 127 0
-1.744127 -14.720636 0.732 255 127 0
-1.807096 -14.826598 0.732 255 127 0
-1.782733 -14.798608 0.732 255 127 0
-1.838803 -14.820543 0.732 255 127 0
-1.961033 -15.133121 0.732 255 127 0
-1.764205 -14.773256 0.732 255 127 0
-1.923152 -15.091816 0.732 255 127 0
-1.915668 -15.048492 0.732 255 127 0
-1.766254 -14.748643 0.732 255 127 0
-1.713086 -14.637688 0.732 255 127 0
-1.974471 -15.194736 0.732 255 127 0
-1.964881 -15.109836 0.732 255 127 0
-1.968963 -15.058373 0.731 255 127 0
-2.033761 -15.110655 0.731 255 127 0
-1.995982 -15.082767 0.731 255 127 0
-2.060805 -15.256246 0.731 255 127 0
-1.944808 -15.116697 0.732 255 127 0
-1.738947 -14.686239 0.732 255 127 0
-1.910492 -15.073577 0.732 255 127 0
-1.830623 -14.921231 0.732 255 127 0
-1.882412 -15.027279 0.732 255 127 0
-1.758066 -14.73037 0.732 255 127 0
-1.738981 -14.690711 0.732 255 127 0
-1.705301 -14.613596 0.732 255 127 0
-1.825761 -14.869837 0.732 255 127 0
-1.861677 -14.946935 0.732 255 127 0
-1.877159 -14.924456 0.732 255 127 0
-1.681175 -14.61691 0.732 255 127 0
-2.098834 -15.258193 0.731 255 127 0
-1.910148 -14.969376 0.732 255 127 0
-2.032713 -15.267192 0.732 255 127 0
-1.994055 -15.182512 0.732 255 127 0
-2.072655 -15.226639 0.731 255 127 0
-1.943471 -14.999534 0.731 255 127 0
-1.757255 -14.682522 0.732 255 127 0
-1.958894 -15.087073 0.732 255 127 0
-1.790451 -14.813755 0.732 255 127 0
-1.711037 -14.6623 0.732 255 127 0
-1.841179 -14.897895 0.732 255 127 0
-1.815404 -14.860524 0.732 255 127 0
-1.892862 -14.931046 0.732 255 127 0
-1.893282 -14.927464 0.732 255 127 0
-1.685762 -14.573047 0.732 255 127 0
-1.860082 -14.972439 0.732 255 127 0
-1.803329 -14.801581 0.732 255 127 0
-1.684841 -14.62851 0.732 255 127 0
-1.697112 -14.595322 0.732 255 127 0
-1.96158 -15.028466 0.731 255 127 0
-1.743924 -14.693804 0.732 255 127 0
-1.852258 -14.884394 0.732 255 127 0
-2.0218 -15.243572 0.732 255 127 0
-2.010424 -15.100099 0.731 255 127 0
-1.820143 -14.836784 0.732 255 127 0
-1.823656 -14.828261 0.732 255 127 0
-2.009215 -15.11755 0.731 255 127 0
-1.919211 -14.984959 0.732 255 127 0
-1.760637 -14.715591 0.732 255 127 0
-1.96618 -15.163046 0.732 255 127 0
-2.015066 -15.122425 0.731 255 127 0
-2.006288 -15.085372 0.731 255 127 0
-1.811806 -14.857868 0.732 255 127 0
-1.867744 -14.921396 0.732 255 127 0
-1.982926 -15.189305 0.732 255 127 0
-1.984819 -15.085087 0.731 255 127 0
-1.970126 -15.093697 0.732 255 127 0
-1.990954 -15.068493 0.731 255 127 0
-1.912015 -14.979648 0.732 255 127 0
-1.743707 -14.724217 0.732 255 127 0
-1.930747 -15.031831 0.732 255 127 0
-1.838587 -14.850957 0.732 255 127 0
-2.049201 -15.20043 0.731 255 127 0
-1.656422 -14.537492 0.732 255 127 0
-1.657365 -14.543746 0.732 255 127 0
-1.649799 -14.548722 0.732 255 127 0
-1.653766 -14.541089 0.732 255 127 0
-1.665252 -14.581253 0.732 255 127 0
-1.656172 -14.563433 0.732 255 127 0
-1.642569 -14.538939 0.732 255 127 0
-2.376063 -14.073174 0.71 255 127 0
-2.388974 -14.065473 0.727 255 127 0
-2.402674 -14.043902 0.73 255 127 0
-2.388486 -14.060111 0.72 255 127 0
-2.37608 -14.07541 0.711 255 127 0
-2.402254 -14.047483 0.733 255 127 0
-2.38852 -14.064583 0.725 255 127 0
-2.38541 -14.067289 0.721 255 127 0
-2.388537 -14.066818 0.727 255 127 0
-2.393378 -14.056496 0.726 255 127 0
-2.38852 -14.064583 0.724 255 127 0
-2.296343 -14.117161 0.712 255 127 0
-2.334673 -14.099875 0.693 255 127 0
-2.348475 -14.09172 0.697 255 127 0
-2.36717 -14.07995 0.716 255 127 0
-2.286105 -14.123499 0.708 255 127 0
-2.312852 -14.112115 0.687 255 127 0
-2.218405 -14.160238 0.693 255 127 0
-2.243337 -14.14529 0.704 255 127 0
-2.294141 -14.121649 0.689 255 127 0
-2.348913 -14.090375 0.703 255 127 0
-2.225096 -14.157951 0.685 255 127 0
-2.234881 -14.150722 0.7 255 127 0
-2.332 -14.101237 0.69 255 127 0
-2.355587 -14.085852 0.711 255 127 0
-2.30838 -14.112149 0.697 255 127 0
-2.238445 -14.148906 0.696 255 127 0
-2.219296 -14.159784 0.69 255 127 0
-2.325309 -14.103523 0.701 255 127 0
-2.262956 -14.137539 0.688 255 127 0
-2.298142 -14.118488 0.697 255 127 0
-2.302597 -14.116219 0.689 255 127 0
-2.280759 -14.126223 0.703 255 127 0
-2.322636 -14.104885 0.699 255 127 0
-2.291451 -14.120775 0.699 255 127 0
-2.271412 -14.132109 0.693 255 127 0
-2.161835 -14.190185 0.687 255 127 0
-2.301252 -14.115781 0.703 255 127 0
-2.280759 -14.126223 0.701 255 127 0
-2.322199 -14.106231 0.689 255 127 0
-2.189456 -14.176111 0.687 255 127 0
-2.281196 -14.124879 0.709 255 127 0
-2.265629 -14.136177 0.687 255 127 0
-2.359605 -14.084928 0.703 255 127 0
-2.177436 -14.183358 0.683 255 127 0
-2.327528 -14.101271 0.707 255 127 0
-2.271412 -14.132109 0.699 255 127 0
-2.364951 -14.082203 0.705 255 127 0
-2.222407 -14.157078 0.7 255 127 0
-2.303925 -14.114419 0.705 255 127 0
-2.134668 -14.20515 0.685 255 127 0
-2.341331 -14.093116 0.719 255 127 0
-2.262939 -14.135303 0.705 255 127 0
-2.352022 -14.087668 0.715 255 127 0
-2.22777 -14.15659 0.686 255 127 0
-2.229988 -14.154336 0.696 255 127 0
-2.234007 -14.153412 0.685 255 127 0
-2.238445 -14.148906 0.698 255 127 0
-2.158725 -14.192892 0.682 255 127 0
-2.303488 -14.115765 0.696 255 127 0
-2.341331 -14.093116 0.714 255 127 0
-2.102643 -14.228201 0.691 255 127 0
-2.29905 -14.120271 0.724 255 127 0
-2.157431 -14.199162 0.702 255 127 0
-2.043955 -14.273817 0.708 255 127 0
-1.945944 -14.323755 0.684 255 127 0
-2.182464 -14.197631 0.73 255 127 0
-1.901984 -14.365234 0.71 255 127 0
-2.175234 -14.187847 0.702 255 127 0
-1.97096 -14.319988 0.705 255 127 0
-2.025159 -14.27217 0.68 255 127 0
-1.778304 -14.450699 0.722 255 127 0
-1.887813 -14.383678 0.728 255 127 0
-2.120951 -14.224484 0.707 255 127 0
-1.951342 -14.32774 0.696 255 127 0
-2.143679 -14.214025 0.713 255 127 0
-2.304362 -14.113075 0.716 255 127 0
-1.814364 -14.428959 0.725 255 127 0
-2.153969 -14.214395 0.726 255 127 0
-1.88102 -14.372549 0.698 255 127 0
-2.120128 -14.233883 0.722 255 127 0
-2.129406 -14.219053 0.706 255 127 0
-2.034086 -14.269866 0.687 255 127 0
-1.925587 -14.352085 0.712 255 127 0
-1.682648 -14.516273 0.731 255 127 0
-2.193928 -14.176077 0.703 255 127 0
-2.057638 -14.25001 0.679 255 127 0
-2.060413 -14.262064 0.703 255 127 0
-1.945105 -14.330918 0.696 255 127 0
-2.328419 -14.100817 0.723 255 127 0
-2.208706 -14.178648 0.726 255 127 0
-2.232729 -14.161919 0.723 255 127 0
-2.062734 -14.273228 0.727 255 127 0
-1.844085 -14.396979 0.7 255 127 0
-1.890923 -14.380971 0.726 255 127 0
-1.907245 -14.35133 0.689 255 127 0
-1.889998 -14.376953 0.717 255 127 0
-2.052479 -14.277329 0.725 255 127 0
-1.953055 -14.317888 0.681 255 127 0
-1.990478 -14.29882 0.69 255 127 0
-1.945995 -14.330464 0.695 255 127 0
-2.189944 -14.181475 0.708 255 127 0
-1.85661 -14.397331 0.716 255 127 0
-1.893022 -14.363066 0.693 255 127 0
-2.174394 -14.195009 0.714 255 127 0
-2.028002 -14.293169 0.723 255 127 0
-1.971431 -14.323114 0.713 255 127 0
-1.951426 -14.33892 0.719 255 127 0
-1.960217 -14.318727 0.692 255 127 0
-2.193508 -14.179658 0.709 255 127 0
-2.115553 -14.2205 0.692 255 127 0
-2.14864 -14.219356 0.73 255 127 0
-2.300832 -14.119363 0.724 255 127 0
-1.744025 -14.471532 0.72 255 127 0
-2.050646 -14.27153 0.71 255 127 0
-1.792106 -14.442544 0.722 255 127 0
-2.321762 -14.107575 0.727 255 127 0
-1.910826 -14.35175 0.694 255 127 0
-1.954536 -14.336213 0.717 255 127 0
-2.235419 -14.162793 0.727 255 127 0
-2.311087 -14.11526 0.727 255 127 0
-2.092103 -14.253773 0.727 255 127 0
-1.943356 -14.336298 0.705 255 127 0
-2.115185 -14.23079 0.71 255 127 0
-1.811657 -14.425848 0.716 255 127 0
-2.167317 -14.205349 0.726 255 127 0
-1.778253 -14.443991 0.71 255 127 0
-1.814313 -14.422251 0.712 255 127 0
-1.69465 -14.50679 0.728 255 127 0
-2.051889 -14.258551 0.686 255 127 0
-1.897579 -14.374212 0.721 255 127 0
-1.697761 -14.504084 0.726 255 127 0
-2.024841 -14.289167 0.712 255 127 0
-2.02084 -14.292329 0.715 255 127 0
-2.168577 -14.194606 0.707 255 127 0
-2.101752 -14.228655 0.691 255 127 0
-2.078149 -14.241804 0.687 255 127 0
-2.096422 -14.233615 0.694 255 127 0
-1.960773 -14.333035 0.719 255 127 0
-1.924276 -14.35612 0.718 255 127 0
-2.115974 -14.21692 0.686 255 127 0
-2.260283 -14.138901 0.712 255 127 0
-1.947289 -14.324193 0.686 255 127 0
-1.842842 -14.409959 0.722 255 127 0
-2.172209 -14.201735 0.724 255 127 0
-1.8709 -14.39454 0.726 255 127 0
-1.899396 -14.377776 0.729 255 127 0
-2.235806 -14.154739 0.711 255 127 0
-1.949105 -14.327757 0.694 255 127 0
-1.944633 -14.327791 0.69 255 127 0
-1.751573 -14.464318 0.716 255 127 0
-2.201141 -14.183625 0.725 255 127 0
-2.187691 -14.179255 0.701 255 127 0
-1.873001 -14.376635 0.696 255 127 0
-1.916609 -14.347682 0.694 255 127 0
-1.921552 -14.350775 0.705 255 127 0
-2.272808 -14.139254 0.727 255 127 0
-1.998531 -14.299206 0.7 255 127 0
-1.878432 -14.385091 0.717 255 127 0
-2.114629 -14.216482 0.683 255 127 0
-1.906405 -14.358493 0.701 255 127 0
-2.198366 -14.171572 0.7 255 127 0
-1.921535 -14.348538 0.701 255 127 0
-2.043518 -14.275162 0.708 255 127 0
-1.688885 -14.513095 0.731 255 127 0
-2.00117 -14.293372 0.692 255 127 0
-2.056446 -14.269696 0.713 255 127 0
-1.973281 -14.331151 0.731 255 127 0
-2.181908 -14.183325 0.701 255 127 0
-2.007526 -14.305846 0.723 255 127 0
-2.279482 -14.13473 0.726 255 127 0
-1.766754 -14.461073 0.728 255 127 0
-1.964269 -14.322275 0.703 255 127 0
-2.09518 -14.246594 0.718 255 127 0
-2.243841 -14.152889 0.719 255 127 0
-1.899345 -14.371068 0.716 255 127 0
-2.178764 -14.18156 0.693 255 127 0
-2.133005 -14.22171 0.716 255 127 0
-1.859669 -14.387917 0.701 255 127 0
-1.842791 -14.403251 0.709 255 127 0
-2.217566 -14.1674 0.714 255 127 0
-2.093885 -14.252865 0.727 255 127 0
-1.776504 -14.449371 0.718 255 127 0
-2.092824 -14.23096 0.685 255 127 0
-1.776925 -14.44579 0.71 255 127 0
-1.684867 -14.51402 0.73 255 127 0
-2.135241 -14.221692 0.718 255 127 0
-1.861939 -14.392371 0.711 255 127 0
-2.058716 -14.274152 0.726 255 127 0
-2.055555 -14.27015 0.713 255 127 0
-1.970455 -14.312389 0.692 255 127 0
-1.968775 -14.326714 0.717 255 127 0
-2.090135 -14.230085 0.68 255 127 0
-1.791635 -14.439417 0.717 255 127 0
-2.113891 -14.237061 0.722 255 127 0
-1.894822 -14.364394 0.7 255 127 0
-2.030187 -14.286444 0.713 255 127 0
-2.10325 -14.249216 0.731 255 127 0
-2.133357 -14.209185 0.691 255 127 0
-1.716909 -14.493204 0.728 255 127 0
-1.920661 -14.351229 0.704 255 127 0
-2.063625 -14.272773 0.729 255 127 0
-2.126382 -14.232941 0.73 255 127 0
-1.958435 -14.319635 0.69 255 127 0
-1.967447 -14.328512 0.718 255 127 0
-1.843699 -14.405032 0.715 255 127 0
-2.167249 -14.196405 0.709 255 127 0
-2.05942 -14.249102 0.678 255 127 0
-2.075442 -14.238693 0.677 255 127 0
-1.857064 -14.398223 0.716 255 127 0
-2.019359 -14.274004 0.678 255 127 0
-2.07783 -14.258801 0.719 255 127 0
-1.889476 -14.367119 0.698 255 127 0
-2.05547 -14.25897 0.692 255 127 0
-2.283903 -14.127989 0.72 255 127 0
-1.942885 -14.333171 0.698 255 127 0
-2.142284 -14.206881 0.699 255 127 0
-1.966017 -14.316895 0.695 255 127 0
-1.772066 -14.453876 0.721 255 127 0
-1.847229 -14.398745 0.707 255 127 0
-2.122801 -14.232521 0.724 255 127 0
-2.092001 -14.240356 0.702 255 127 0
-1.971045 -14.331167 0.727 255 127 0
-2.251373 -14.14344 0.709 255 127 0
-2.342693 -14.095789 0.73 255 127 0
-2.000227 -14.287118 0.68 255 127 0
-2.041316 -14.279651 0.716 255 127 0
-1.970978 -14.322224 0.711 255 127 0
-1.768956 -14.456584 0.721 255 127 0
-2.043064 -14.274271 0.706 255 127 0
-2.229182 -14.165971 0.727 255 127 0
-1.920257 -14.357045 0.716 255 127 0
-1.958134 -14.338869 0.727 255 127 0
-2.06312 -14.265174 0.713 255 127 0
-2.081763 -14.246696 0.7 255 127 0
-2.161954 -14.205837 0.72 255 127 0
-1.90069 -14.371506 0.718 255 127 0
-1.869488 -14.385159 0.708 255 127 0
-2.072938 -14.262416 0.721 255 127 0
-1.872547 -14.375744 0.694 255 127 0
-2.140183 -14.224786 0.729 255 127 0
-2.069255 -14.24858 0.689 255 127 0
-2.079629 -14.260129 0.723 255 127 0
-1.894436 -14.372447 0.713 255 127 0
-1.862864 -14.39639 0.721 255 127 0
-2.099583 -14.237617 0.706 255 127 0
-2.044812 -14.268891 0.699 255 127 0
-1.845884 -14.398308 0.703 255 127 0
-2.240294 -14.156941 0.721 255 127 0
-1.710655 -14.494146 0.723 255 127 0
-1.860157 -14.393279 0.712 255 127 0
-2.196669 -14.18366 0.719 255 127 0
-1.96104 -14.30933 0.674 255 127 0
-2.293233 -14.119867 0.715 255 127 0
-2.065675 -14.24816 0.684 255 127 0
-2.154355 -14.206342 0.713 255 127 0
-1.720927 -14.49228 0.731 255 127 0
-2.208218 -14.173285 0.713 255 127 0
-2.108443 -14.226369 0.694 255 127 0
-2.142687 -14.201064 0.689 255 127 0
-2.030607 -14.282863 0.707 255 127 0
-2.224239 -14.162877 0.714 255 127 0
-2.024705 -14.27128 0.68 255 127 0
-1.999859 -14.297408 0.698 255 127 0
-1.97407 -14.317281 0.706 255 127 0
-1.796056 -14.432675 0.709 255 127 0
-2.155666 -14.202308 0.706 255 127 0
-1.804092 -14.430825 0.716 255 127 0
-1.962822 -14.308422 0.675 255 127 0
-1.817894 -14.42267 0.717 255 127 0
-1.868109 -14.38025 0.696 255 127 0
-2.203797 -14.180028 0.723 255 127 0
-2.301689 -14.114437 0.716 255 127 0
-1.942851 -14.328699 0.69 255 127 0
-2.192248 -14.190401 0.728 255 127 0
-2.031816 -14.265412 0.675 255 127 0
-2.054125 -14.258534 0.691 255 127 0
-2.131995 -14.206512 0.685 255 127 0
-1.874379 -14.381544 0.707 255 127 0
-1.936228 -14.33993 0.701 255 127 0
-2.191777 -14.187274 0.721 255 127 0
-1.95852 -14.330816 0.712 255 127 0
-1.899396 -14.377776 0.729 255 127 0
-1.993083 -14.288514 0.672 255 127 0
-1.825913 -14.418584 0.719 255 127 0
-2.039381 -14.260435 0.677 255 127 0
-1.80542 -14.429026 0.713 255 127 0
-2.136132 -14.221238 0.718 255 127 0
-2.087529 -14.240391 0.695 255 127 0
-2.11078 -14.239767 0.722 255 127 0
-2.087041 -14.235028 0.686 255 127 0
-1.862007 -14.401316 0.729 255 127 0
-1.792542 -14.441199 0.722 255 127 0
-2.160626 -14.207636 0.722 255 127 0
-2.050629 -14.269294 0.706 255 127 0
-2.25455 -14.149677 0.724 255 127 0
-2.105417 -14.240255 0.716 255 127 0
-2.045367 -14.283197 0.725 255 127 0
-2.310599 -14.109897 0.716 255 127 0
-2.236225 -14.151158 0.707 255 127 0
-1.861083 -14.397298 0.719 255 127 0
-2.049755 -14.271984 0.71 255 127 0
-1.969229 -14.327604 0.718 255 127 0
-1.820987 -14.417727 0.71 255 127 0
-1.991924 -14.312673 0.718 255 127 0
-1.944633 -14.327791 0.689 255 127 0
-2.070668 -14.257961 0.709 255 127 0
-1.959309 -14.316946 0.687 255 127 0
-2.019796 -14.272658 0.676 255 127 0
-2.175251 -14.190083 0.707 255 127 0
-2.100105 -14.247451 0.724 255 127 0
-2.221533 -14.159767 0.705 255 127 0
-2.257678 -14.149207 0.728 255 127 0
-2.021293 -14.29322 0.715 255 127 0
-1.750262 -14.468353 0.722 255 127 0
-2.049318 -14.273329 0.712 255 127 0
-1.926024 -14.35074 0.711 255 127 0
-1.975483 -14.326662 0.723 255 127 0
-2.212236 -14.17236 0.716 255 127 0
-2.27459 -14.138346 0.729 255 127 0
-1.853415 -14.388859 0.696 255 127 0
-1.932193 -14.338618 0.695 255 127 0
-1.917012 -14.341865 0.683 255 127 0
-1.952334 -14.340701 0.724 255 127 0
-1.757828 -14.463377 0.721 255 127 0
-2.029262 -14.282426 0.706 255 127 0
-1.764535 -14.463326 0.73 255 127 0
-1.929168 -14.352505 0.718 255 127 0
-1.973146 -14.313263 0.696 255 127 0
-2.118311 -14.230318 0.713 255 127 0
-1.811691 -14.430321 0.724 255 127 0
-2.183236 -14.181525 0.7 255 127 0
-2.235403 -14.160557 0.723 255 127 0
-1.805437 -14.431263 0.717 255 127 0
-2.139712 -14.221659 0.723 255 127 0
-1.892149 -14.365756 0.698 255 127 0
-1.845918 -14.40278 0.713 255 127 0
-2.090253 -14.245737 0.709 255 127 0
-2.277666 -14.131166 0.718 255 127 0
-1.753372 -14.465647 0.72 255 127 0
-1.921501 -14.344067 0.691 255 127 0
-2.036475 -14.289973 0.729 255 127 0
-1.77916 -14.445773 0.714 255 127 0
-1.942516 -14.343459 0.717 255 127 0
-2.123658 -14.227594 0.715 255 127 0
-2.203797 -14.180028 0.722 255 127 0
-1.972356 -14.327133 0.723 255 127 0
-2.084084 -14.257859 0.726 255 127 0
-2.306195 -14.118875 0.729 255 127 0
-2.059976 -14.263409 0.705 255 127 0
-2.074754 -14.26598 0.73 255 127 0
-1.906944 -14.370564 0.726 255 127 0
-1.94919 -14.338937 0.716 255 127 0
-2.134282 -14.213203 0.7 255 127 0
-1.878885 -14.385982 0.72 255 127 0
-2.018132 -14.289218 0.704 255 127 0
-2.171199 -14.186537 0.694 255 127 0
-2.180631 -14.191832 0.717 255 127 0
-1.907347 -14.364746 0.715 255 127 0
-1.813019 -14.428521 0.723 255 127 0
