ply
format ascii 1.0
element vertex 1303
property double x
property double y
property double z
property uchar red
property uchar green
property uchar blue
element face 0
property list uchar int vertex_indices
end_header
-2.938068 -14.229015 0.34 170 255 0
-2.946859 -14.208823 0.357 170 255 0
-2.951314 -14.206553 0.366 170 255 0
-2.938051 -14.226779 0.34 170 255 0
-2.942676 -14.246869 0.35 170 255 0
-2.935009 -14.23843 0.336 170 255 0
-2.933698 -14.242465 0.334 170 255 0
-2.973475 -14.239032 0.408 170 255 0
-2.94271 -14.251342 0.35 170 255 0
-2.940588 -14.207529 0.346 170 255 0
-2.969911 -14.240848 0.402 170 255 0
-2.955803 -14.208755 0.373 170 255 0
-2.937767 -14.248248 0.341 170 255 0
-2.968532 -14.235939 0.4 170 255 0
-2.947635 -14.252198 0.36 170 255 0
-2.948022 -14.244144 0.36 170 255 0
-2.952812 -14.227115 0.367 170 255 0
-2.968969 -14.234594 0.401 170 255 0
-2.946961 -14.222239 0.357 170 255 0
-2.954106 -14.220843 0.371 170 255 0
-2.951921 -14.227569 0.366 170 255 0
-2.981948 -14.235838 0.425 170 255 0
-2.97566 -14.232307 0.413 170 255 0
-2.944992 -14.198551 0.354 170 255 0
-2.938742 -14.258973 0.342 170 255 0
-2.965808 -14.230594 0.395 170 255 0
-2.978838 -14.238544 0.418 170 255 0
-2.976602 -14.238562 0.416 170 255 0
-2.951097 -14.236966 0.367 170 255 0
-2.958527 -14.214102 0.379 170 255 0
-2.964934 -14.233283 0.393 170 255 0
-2.932034 -14.259026 0.33 170 255 0
-2.939498 -14.240632 0.344 170 255 0
-2.944118 -14.201241 0.353 170 255 0
-2.948493 -14.247272 0.361 170 255 0
-2.732987 -13.901413 0.418 170 255 0
-2.749683 -13.920964 0.406 170 255 0
-2.764092 -13.933825 0.38 170 255 0
-2.746505 -13.914727 0.393 170 255 0
-2.742924 -13.914307 0.414 170 255 0
-2.763235 -13.93875 0.399 170 255 0
-2.764143 -13.940532 0.404 170 255 0
-2.765908 -13.937388 0.381 170 255 0
-2.773155 -13.949409 0.389 170 255 0
-2.775845 -13.950282 0.381 170 255 0
-2.769977 -13.943172 0.386 170 255 0
-2.77181 -13.948972 0.394 170 255 0
-2.785327 -13.962286 0.375 170 255 0
-2.747413 -13.91651 0.398 170 255 0
-2.783057 -13.95783 0.371 170 255 0
-2.770414 -13.941827 0.375 170 255 0
-2.733424 -13.900068 0.406 170 255 0
-2.758695 -13.92984 0.392 170 255 0
-2.727119 -13.894302 0.418 170 255 0
-2.780822 -13.957848 0.382 170 255 0
-2.781695 -13.955157 0.37 170 255 0
-2.779948 -13.960538 0.397 170 255 0
-2.704993 -13.866295 0.425 170 255 0
-2.780804 -13.955611 0.375 170 255 0
-2.768212 -13.946315 0.405 170 255 0
-2.754189 -13.925403 0.398 170 255 0
-2.765925 -13.939624 0.391 170 255 0
-2.764092 -13.933825 0.378 170 255 0
-2.7402 -13.908961 0.408 170 255 0
-2.765454 -13.936498 0.382 170 255 0
-2.717619 -13.880063 0.417 170 255 0
-2.737947 -13.906742 0.412 170 255 0
-2.754643 -13.926293 0.397 170 255 0
-2.658054 -13.868887 0.687 170 255 0
-2.689476 -13.884301 0.658 170 255 0
-2.667485 -13.874182 0.676 170 255 0
-2.691157 -13.869977 0.69 170 255 0
-2.726126 -13.88134 0.669 170 255 0
-2.713483 -13.865336 0.703 170 255 0
-2.604572 -13.83441 0.755 170 255 0
-2.717284 -13.894824 0.637 170 255 0
-2.684818 -13.859739 0.711 170 255 0
-2.725116 -13.866142 0.702 170 255 0
-2.700623 -13.879745 0.668 170 255 0
-2.655347 -13.865777 0.692 170 255 0
-2.68887 -13.863286 0.703 170 255 0
-2.625689 -13.847219 0.73 170 255 0
-2.692116 -13.878468 0.67 170 255 0
-2.644956 -13.851993 0.721 170 255 0
-2.742216 -13.879876 0.674 170 255 0
-2.691309 -13.890101 0.646 170 255 0
-2.683625 -13.879427 0.666 170 255 0
-2.689022 -13.88341 0.659 170 255 0
-2.731422 -13.871908 0.691 170 255 0
-2.718493 -13.877373 0.677 170 255 0
-2.622074 -13.842327 0.74 170 255 0
-2.657044 -13.853689 0.72 170 255 0
-2.67769 -13.863371 0.702 170 255 0
-2.579857 -13.818944 0.786 170 255 0
-2.598738 -13.83177 0.76 170 255 0
-2.570442 -13.815886 0.793 170 255 0
-2.685675 -13.854814 0.721 170 255 0
-2.727454 -13.87954 0.672 170 255 0
-2.727 -13.87865 0.676 170 255 0
-2.65306 -13.859086 0.708 170 255 0
-2.677604 -13.852191 0.727 170 255 0
-2.707683 -13.867168 0.697 170 255 0
-2.627908 -13.844966 0.736 170 255 0
-2.692048 -13.869523 0.69 170 255 0
-2.677185 -13.855772 0.718 170 255 0
-2.755665 -13.884246 0.667 170 255 0
-2.680817 -13.862901 0.703 170 255 0
-2.699714 -13.877962 0.672 170 255 0
-2.6117 -13.830777 0.766 170 255 0
-2.609447 -13.828558 0.769 170 255 0
-2.576713 -13.817179 0.79 170 255 0
-2.670159 -13.87282 0.678 170 255 0
-2.664744 -13.8666 0.692 170 255 0
-2.604504 -13.825466 0.774 170 255 0
-2.631977 -13.850749 0.723 170 255 0
-2.683439 -13.85483 0.721 170 255 0
-2.684313 -13.85214 0.727 170 255 0
-2.607682 -13.831703 0.761 170 255 0
-2.741761 -13.878985 0.675 170 255 0
-2.646788 -13.857792 0.711 170 255 0
-2.737726 -13.877674 0.679 170 255 0
-2.762357 -13.88196 0.672 170 255 0
-2.752084 -13.883826 0.667 170 255 0
-2.706053 -13.888201 0.65 170 255 0
-2.698688 -13.860528 0.711 170 255 0
-2.678983 -13.8571 0.716 170 255 0
-2.757011 -13.884684 0.666 170 255 0
-2.669098 -13.850915 0.727 170 255 0
-2.659768 -13.859035 0.71 170 255 0
-2.721268 -13.889427 0.65 170 255 0
-2.693863 -13.873087 0.682 170 255 0
-2.580748 -13.81849 0.787 170 255 0
-2.687979 -13.86374 0.702 170 255 0
-2.666527 -13.865692 0.695 170 255 0
-2.667821 -13.859422 0.709 170 255 0
-2.709901 -13.864916 0.702 170 255 0
-2.732011 -13.890687 0.648 170 255 0
-2.677304 -13.871425 0.684 170 255 0
-2.660222 -13.859926 0.706 170 255 0
-2.69963 -13.866783 0.697 170 255 0
-2.716796 -13.889462 0.65 170 255 0
-2.73692 -13.889308 0.653 170 255 0
-2.674109 -13.862951 0.702 170 255 0
-2.705548 -13.880602 0.669 170 255 0
-2.697983 -13.885579 0.655 170 255 0
-2.670981 -13.863422 0.701 170 255 0
-2.74003 -13.8866 0.659 170 255 0
-2.669284 -13.87551 0.675 170 255 0
-2.655313 -13.861305 0.703 170 255 0
-2.667452 -13.869711 0.686 170 255 0
-2.667889 -13.868365 0.688 170 255 0
-2.666056 -13.862565 0.701 170 255 0
-2.709566 -13.879677 0.67 170 255 0
-2.634599 -13.842679 0.742 170 255 0
-2.709465 -13.866261 0.7 170 255 0
-2.719049 -13.891681 0.645 170 255 0
-2.710372 -13.868043 0.696 170 255 0
-2.697529 -13.884687 0.658 170 255 0
-2.713181 -13.884568 0.659 170 255 0
-2.641375 -13.851572 0.722 170 255 0
-2.653395 -13.844325 0.742 170 255 0
-2.714895 -13.874717 0.682 170 255 0
-2.649882 -13.852849 0.721 170 255 0
-2.651765 -13.865356 0.693 170 255 0
-2.731859 -13.870563 0.694 170 255 0
-2.671083 -13.876838 0.672 170 255 0
-2.674211 -13.876368 0.672 170 255 0
-2.636397 -13.844007 0.739 170 255 0
-2.660425 -13.886759 0.678 170 255 0
-2.687274 -13.888791 0.65 170 255 0
-2.625303 -13.855271 0.723 170 255 0
-2.592938 -13.833604 0.762 170 255 0
-2.657718 -13.883648 0.682 170 255 0
-2.62621 -13.857054 0.721 170 255 0
-2.597444 -13.838041 0.756 170 255 0
-2.651817 -13.872066 0.691 170 255 0
-2.67211 -13.894273 0.663 170 255 0
-2.674312 -13.889784 0.663 170 255 0
-2.667065 -13.877764 0.674 170 255 0
-2.700304 -13.896742 0.634 170 255 0
-2.64151 -13.86946 0.702 170 255 0
-2.664006 -13.887178 0.674 170 255 0
-2.623958 -13.854835 0.724 170 255 0
-2.664965 -13.895668 0.671 170 255 0
-2.671571 -13.882201 0.668 170 255 0
-2.640586 -13.865442 0.704 170 255 0
-2.67026 -13.886236 0.669 170 255 0
-2.675691 -13.894692 0.66 170 255 0
-2.621755 -13.859324 0.725 170 255 0
-2.624917 -13.863324 0.721 170 255 0
-2.676077 -13.88664 0.662 170 255 0
-2.438582 -14.002038 0.744 170 255 0
-2.591733 -13.910536 0.709 170 255 0
-2.618731 -13.873211 0.718 170 255 0
-2.470187 -13.982567 0.738 170 255 0
-2.563942 -13.902248 0.734 170 255 0
-2.529163 -13.974964 0.704 170 255 0
-2.612324 -13.854029 0.736 170 255 0
-2.581491 -13.857393 0.754 170 255 0
-2.557484 -13.876359 0.756 170 255 0
-2.46723 -14.005398 0.724 170 255 0
-2.584185 -13.917748 0.709 170 255 0
-2.4911 -13.968544 0.735 170 255 0
-2.559466 -13.842802 0.779 170 255 0
-2.591011 -13.93335 0.693 170 255 0
-2.631845 -13.892342 0.696 170 255 0
-2.547739 -13.947541 0.712 170 255 0
-2.562423 -13.819971 0.794 170 255 0
-2.52467 -13.91328 0.752 170 255 0
-2.477786 -13.982062 0.734 170 255 0
-2.573289 -13.896364 0.732 170 255 0
-2.573243 -13.949138 0.694 170 255 0
-2.501368 -13.907197 0.772 170 255 0
-2.460284 -13.974145 0.751 170 255 0
-2.55384 -13.926476 0.723 170 255 0
-2.592233 -13.858653 0.746 170 255 0
-2.613151 -13.904112 0.7 170 255 0
-2.454501 -13.978214 0.752 170 255 0
-2.462571 -13.980836 0.745 170 255 0
-2.605802 -13.878675 0.722 170 255 0
-2.569453 -13.862404 0.759 170 255 0
-2.458791 -14.013065 0.724 170 255 0
-2.482105 -13.961905 0.746 170 255 0
-2.563862 -13.95055 0.699 170 255 0
-2.510299 -13.964374 0.725 170 255 0
-2.428412 -14.017321 0.74 170 255 0
-2.623639 -13.871832 0.715 170 255 0
-2.542978 -13.909564 0.743 170 255 0
-2.578296 -13.848921 0.763 170 255 0
-2.528285 -13.918173 0.746 170 255 0
-2.579781 -13.926726 0.705 170 255 0
-2.596761 -13.924809 0.696 170 255 0
-2.583413 -13.933855 0.698 170 255 0
-2.461833 -14.001414 0.731 170 255 0
-2.540326 -13.972643 0.699 170 255 0
-2.643462 -13.890912 0.689 170 255 0
-2.526842 -13.9638 0.714 170 255 0
-2.619286 -13.887518 0.708 170 255 0
-2.511572 -13.896386 0.772 170 255 0
-2.579963 -13.891841 0.73 170 255 0
-2.460335 -13.980853 0.747 170 255 0
-2.469903 -14.004036 0.724 170 255 0
-2.521242 -13.932984 0.74 170 255 0
-2.524233 -13.914625 0.751 170 255 0
-2.577982 -13.925399 0.708 170 255 0
-2.515191 -13.960759 0.725 170 255 0
-2.602594 -13.927447 0.69 170 255 0
-2.590609 -13.939166 0.69 170 255 0
-2.595865 -13.865782 0.738 170 255 0
-2.645329 -13.901184 0.68 170 255 0
-2.531043 -13.927991 0.737 170 255 0
-2.568444 -13.847206 0.77 170 255 0
-2.502501 -13.997527 0.706 170 255 0
-2.587528 -13.886865 0.729 170 255 0
-2.526702 -13.886432 0.77 170 255 0
-2.557484 -13.876359 0.757 170 255 0
-2.607992 -13.931432 0.684 170 255 0
-2.559907 -13.900938 0.737 170 255 0
-2.540627 -13.95341 0.712 170 255 0
-2.566297 -13.917884 0.721 170 255 0
-2.616596 -13.886643 0.71 170 255 0
-2.604339 -13.862587 0.735 170 255 0
-2.550573 -13.849578 0.78 170 255 0
-2.508683 -13.928161 0.752 170 255 0
-2.603953 -13.87064 0.729 170 255 0
-2.513354 -13.895477 0.772 170 255 0
-2.604173 -13.899708 0.708 170 255 0
-2.52618 -13.876596 0.777 170 255 0
-2.438616 -14.00651 0.741 170 255 0
-2.591194 -13.898465 0.718 170 255 0
-2.568545 -13.860622 0.761 170 255 0
-2.519107 -13.946418 0.732 170 255 0
-2.612375 -13.860737 0.731 170 255 0
-2.496043 -13.971638 0.729 170 255 0
-2.595463 -13.871598 0.735 170 255 0
-2.510902 -13.925908 0.752 170 255 0
-2.53602 -13.935555 0.728 170 255 0
-2.519947 -13.939256 0.736 170 255 0
-2.5723 -13.942883 0.7 170 255 0
-2.488126 -13.98914 0.722 170 255 0
-2.493523 -13.993124 0.716 170 255 0
-2.62781 -13.89103 0.699 170 255 0
-2.512735 -13.931707 0.747 170 255 0
-2.642066 -13.883767 0.695 170 255 0
-2.426158 -14.015101 0.743 170 255 0
-2.548744 -13.903259 0.743 170 255 0
-2.635006 -13.896343 0.691 170 255 0
-2.563959 -13.904486 0.732 170 255 0
-2.560297 -13.952366 0.701 170 255 0
-2.540878 -13.927468 0.731 170 255 0
-2.560221 -13.824459 0.792 170 255 0
-2.602629 -13.93192 0.687 170 255 0
-2.58696 -13.929803 0.698 170 255 0
-2.507223 -13.971553 0.722 170 255 0
-2.644875 -13.900293 0.681 170 255 0
-2.621942 -13.88392 0.708 170 255 0
-2.514063 -13.929909 0.747 170 255 0
-2.525849 -13.950839 0.724 170 255 0
-2.544595 -13.945777 0.715 170 255 0
-2.508734 -13.934869 0.747 170 255 0
-2.594996 -13.927953 0.695 170 255 0
-2.445409 -14.017639 0.728 170 255 0
-2.58141 -13.905695 0.72 170 255 0
-2.467345 -13.96157 0.756 170 255 0
-2.544879 -13.924308 0.731 170 255 0
-2.49458 -13.955548 0.742 170 255 0
-2.58037 -13.945505 0.692 170 255 0
-2.534271 -13.940935 0.726 170 255 0
-2.457059 -14.020681 0.718 170 255 0
-2.494448 -13.997142 0.712 170 255 0
-2.514801 -13.90933 0.761 170 255 0
-2.577557 -13.869498 0.748 170 255 0
-2.57452 -13.94063 0.699 170 255 0
-2.48244 -13.947144 0.756 170 255 0
-2.571354 -13.877148 0.747 170 255 0
-2.446736 -14.01584 0.729 170 255 0
-2.485703 -13.964561 0.741 170 255 0
-2.597232 -13.927936 0.694 170 255 0
-2.514347 -13.90844 0.763 170 255 0
-2.435557 -14.015924 0.736 170 255 0
-2.546224 -13.924745 0.729 170 255 0
-2.564446 -13.909848 0.728 170 255 0
-2.530198 -13.875671 0.775 170 255 0
-2.470942 -13.964226 0.752 170 255 0
-2.614093 -13.910366 0.694 170 255 0
-2.560213 -13.941186 0.708 170 255 0
-2.51556 -13.950469 0.732 170 255 0
-2.631039 -13.903976 0.688 170 255 0
-2.587948 -13.883284 0.731 170 255 0
-2.494732 -13.975673 0.728 170 255 0
-2.487519 -13.968124 0.737 170 255 0
-2.560896 -13.854419 0.77 170 255 0
-2.51968 -13.96296 0.719 170 255 0
-2.512955 -13.960775 0.725 170 255 0
-2.558626 -13.849964 0.775 170 255 0
-2.465261 -13.981709 0.742 170 255 0
-2.62176 -13.918805 0.684 170 255 0
-2.542706 -13.873788 0.769 170 255 0
-2.511848 -13.991643 0.704 170 255 0
-2.607016 -13.920706 0.692 170 255 0
-2.525497 -13.963365 0.715 170 255 0
-2.5377 -13.921231 0.738 170 255 0
-2.534827 -13.955243 0.716 170 255 0
-2.5957 -13.902903 0.712 170 255 0
-2.476742 -13.962392 0.749 170 255 0
-2.550764 -13.933655 0.72 170 255 0
-2.613503 -13.891587 0.708 170 255 0
-2.47908 -13.975791 0.738 170 255 0
-2.540759 -13.911817 0.742 170 255 0
-2.577337 -13.84043 0.768 170 255 0
-2.611823 -13.90591 0.7 170 255 0
-2.589276 -13.881484 0.731 170 255 0
-2.526622 -13.934732 0.735 170 255 0
-2.624025 -13.863778 0.721 170 255 0
-2.541467 -13.946248 0.717 170 255 0
-2.47353 -13.951683 0.759 170 255 0
-2.567358 -13.939791 0.704 170 255 0
-2.636805 -13.897671 0.688 170 255 0
-2.480208 -14.006641 0.715 170 255 0
-2.57183 -13.939756 0.701 170 255 0
-2.525612 -13.919535 0.747 170 255 0
-2.647582 -13.903403 0.677 170 255 0
-2.55611 -13.930931 0.718 170 255 0
-2.588504 -13.89759 0.721 170 255 0
-2.54375 -13.893458 0.753 170 255 0
-2.594287 -13.893521 0.72 170 255 0
-2.544272 -13.903294 0.746 170 255 0
-2.553984 -13.827638 0.794 170 255 0
-2.544607 -13.888532 0.757 170 255 0
-2.64479 -13.889113 0.689 170 255 0
-2.549839 -13.929637 0.723 170 255 0
-2.526673 -13.941441 0.73 170 255 0
-2.627254 -13.876724 0.71 170 255 0
-2.544192 -13.951594 0.712 170 255 0
-2.586298 -13.842599 0.762 170 255 0
-2.548286 -13.842887 0.786 170 255 0
-2.540644 -13.955647 0.71 170 255 0
-2.438263 -14.019034 0.732 170 255 0
-2.592777 -13.930205 0.695 170 255 0
-2.479682 -13.937325 0.764 170 255 0
-2.495653 -13.92021 0.766 170 255 0
-2.557034 -13.934949 0.715 170 255 0
-2.542728 -13.935505 0.724 170 255 0
-2.556296 -13.955527 0.701 170 255 0
-2.589378 -13.8949 0.723 170 255 0
-2.560289 -13.833404 0.786 170 255 0
-2.453593 -13.976432 0.754 170 255 0
-2.594503 -13.863109 0.742 170 255 0
-2.619825 -13.89959 0.699 170 255 0
-2.59346 -13.843438 0.756 170 255 0
-2.631124 -13.915156 0.679 170 255 0
-2.574965 -13.822558 0.783 170 255 0
-2.517058 -13.97103 0.715 170 255 0
-2.615115 -13.868319 0.724 170 255 0
-2.57174 -13.869095 0.752 170 255 0
-2.528836 -13.872998 0.778 170 255 0
-2.458065 -13.976398 0.751 170 255 0
-2.603923 -13.925649 0.691 170 255 0
-2.565406 -13.918338 0.722 170 255 0
-2.428361 -14.010613 0.744 170 255 0
-2.607049 -13.925178 0.689 170 255 0
-2.549186 -13.961395 0.701 170 255 0
-2.525374 -13.88823 0.77 170 255 0
-2.586535 -13.873902 0.739 170 255 0
-2.519693 -13.905716 0.761 170 255 0
-2.578818 -13.858755 0.755 170 255 0
-2.618917 -13.897806 0.701 170 255 0
-2.550539 -13.845106 0.784 170 255 0
-2.585979 -13.859595 0.749 170 255 0
-2.583188 -13.845305 0.761 170 255 0
-2.562398 -13.934462 0.711 170 255 0
-2.458706 -14.001885 0.733 170 255 0
-2.603838 -13.914469 0.699 170 255 0
-2.531225 -13.893106 0.762 170 255 0
-2.57917 -13.846231 0.764 170 255 0
-2.585763 -13.890009 0.728 170 255 0
-2.531598 -13.942297 0.726 170 255 0
-2.512434 -13.950941 0.733 170 255 0
-2.604305 -13.858114 0.738 170 255 0
-2.528522 -13.949476 0.724 170 255 0
-2.43907 -14.007401 0.739 170 255 0
-2.633492 -13.873546 0.708 170 255 0
-2.540996 -13.943121 0.719 170 255 0
-2.510346 -13.9116 0.763 170 255 0
-2.527848 -13.919518 0.746 170 255 0
-2.496043 -13.971638 0.729 170 255 0
-2.578716 -13.845339 0.764 170 255 0
-2.486004 -13.945328 0.755 170 255 0
-2.536405 -13.927503 0.734 170 255 0
-2.437741 -14.0092 0.74 170 255 0
-2.445795 -14.009586 0.734 170 255 0
-2.523274 -13.906136 0.758 170 255 0
-2.506969 -13.938013 0.746 170 255 0
-2.556508 -13.865633 0.765 170 255 0
-2.638621 -13.901235 0.685 170 255 0
-2.51842 -13.973703 0.713 170 255 0
-2.532371 -13.926191 0.737 170 255 0
-2.607504 -13.926068 0.688 170 255 0
-2.510418 -13.980025 0.714 170 255 0
-2.453933 -14.021152 0.72 170 255 0
-2.586688 -13.894026 0.724 170 255 0
-2.466924 -13.96515 0.753 170 255 0
-2.576823 -13.949557 0.691 170 255 0
-2.507991 -13.895966 0.776 170 255 0
-2.532859 -13.931555 0.733 170 255 0
-2.49359 -14.002068 0.709 170 255 0
-2.604576 -13.89389 0.713 170 255 0
-2.594673 -13.885468 0.725 170 255 0
-2.529664 -13.923081 0.742 170 255 0
-2.501894 -13.976512 0.722 170 255 0
-2.536223 -13.962388 0.709 170 255 0
-2.517724 -13.882028 0.779 170 255 0
-2.438263 -14.019034 0.732 170 255 0
-2.481787 -13.978901 0.734 170 255 0
-2.475567 -13.984315 0.733 170 255 0
-2.549168 -13.959159 0.703 170 255 0
-2.564863 -13.846786 0.773 170 255 0
-2.564786 -13.954568 0.696 170 255 0
-2.438281 -14.021271 0.731 170 255 0
-2.520351 -13.933438 0.741 170 255 0
-2.60621 -13.93234 0.677 170 255 0
-2.50203 -13.9944 0.683 170 255 0
-2.505157 -13.99393 0.689 170 255 0
-2.518522 -13.98712 0.694 170 255 0
-2.57906 -13.949541 0.682 170 255 0
-2.530962 -13.976293 0.671 170 255 0
-2.600864 -13.935063 0.673 170 255 0
-2.583498 -13.945034 0.669 170 255 0
-2.486463 -14.005699 0.691 170 255 0
-2.601738 -13.932374 0.656 170 255 0
-2.555456 -13.962688 0.677 170 255 0
-2.571461 -13.950046 0.659 170 255 0
-2.530071 -13.976747 0.671 170 255 0
-2.478444 -14.009785 0.692 170 255 0
-2.647162 -13.906984 0.672 170 255 0
-2.499811 -13.996654 0.687 170 255 0
-2.465095 -14.018831 0.701 170 255 0
-2.627577 -13.919209 0.677 170 255 0
-2.493137 -14.001177 0.693 170 255 0
-2.626686 -13.919662 0.675 170 255 0
-2.540309 -13.970407 0.672 170 255 0
-2.492263 -14.003867 0.704 170 255 0
-2.521631 -13.984412 0.689 170 255 0
-2.575024 -13.94823 0.657 170 255 0
-2.539889 -13.973988 0.697 170 255 0
-2.519396 -13.98443 0.681 170 255 0
-2.56477 -13.952332 0.649 170 255 0
-2.560786 -13.957729 0.669 170 255 0
-2.65429 -13.903353 0.672 170 255 0
-2.532324 -13.978965 0.693 170 255 0
-2.544781 -13.970372 0.691 170 255 0
-2.580388 -13.947742 0.68 170 255 0
-2.511814 -13.98717 0.673 170 255 0
-2.607084 -13.92965 0.66 170 255 0
-2.544311 -13.967246 0.662 170 255 0
-2.602192 -13.933265 0.672 170 255 0
-2.541217 -13.972189 0.69 170 255 0
-2.580824 -13.946396 0.668 170 255 0
-2.525196 -13.982596 0.694 170 255 0
-2.515832 -13.986246 0.682 170 255 0
-2.547437 -13.966775 0.674 170 255 0
-2.535434 -13.976258 0.694 170 255 0
-2.546092 -13.966338 0.667 170 255 0
-2.608429 -13.930086 0.668 170 255 0
-2.607084 -13.92965 0.661 170 255 0
-2.478461 -14.012021 0.707 170 255 0
-2.594627 -13.938242 0.674 170 255 0
-2.642707 -13.909254 0.67 170 255 0
-2.542545 -13.97039 0.676 170 255 0
-2.478007 -14.01113 0.696 170 255 0
-2.574151 -13.950919 0.679 170 255 0
-2.521615 -13.982177 0.675 170 255 0
-2.584372 -13.942344 0.659 170 255 0
-2.504703 -13.993038 0.678 170 255 0
-2.580824 -13.946396 0.667 170 255 0
-2.483353 -14.008407 0.699 170 255 0
-2.468659 -14.017015 0.699 170 255 0
-2.563475 -13.958603 0.685 170 255 0
-2.582623 -13.947725 0.688 170 255 0
-2.494045 -14.002959 0.707 170 255 0
-2.552766 -13.961815 0.663 170 255 0
-2.515849 -13.988482 0.693 170 255 0
-2.599065 -13.933736 0.661 170 255 0
-2.517614 -13.985338 0.678 170 255 0
-2.639597 -13.911961 0.675 170 255 0
-2.535888 -13.977148 0.696 170 255 0
-2.543873 -13.968591 0.674 170 255 0
-2.515378 -13.985354 0.673 170 255 0
-2.474005 -14.014291 0.705 170 255 0
-2.463313 -14.019739 0.701 170 255 0
-2.557658 -13.9582 0.656 170 255 0
-2.459296 -14.020664 0.705 170 255 0
-2.571461 -13.950046 0.655 170 255 0
-2.640488 -13.911507 0.673 170 255 0
-2.656471 -13.837146 0.624 170 255 0
-2.693677 -13.848492 0.598 170 255 0
-2.706673 -13.851971 0.578 170 255 0
-2.669921 -13.841516 0.634 170 255 0
-2.723267 -13.858106 0.572 170 255 0
-2.705782 -13.852425 0.6 170 255 0
-2.692383 -13.854763 0.718 170 255 0
-2.629588 -13.830642 0.693 170 255 0
-2.710691 -13.851046 0.522 170 255 0
-2.665449 -13.841551 0.651 170 255 0
-2.681152 -13.848139 0.671 170 255 0
-2.700907 -13.858276 0.717 170 255 0
-2.682934 -13.847231 0.645 170 255 0
-2.641273 -13.838156 0.747 170 255 0
-2.71518 -13.853248 0.543 170 255 0
-2.63944 -13.832355 0.661 170 255 0
-2.699948 -13.849786 0.587 170 255 0
-2.603142 -13.822793 0.722 170 255 0
-2.5906 -13.820204 0.755 170 255 0
-2.673099 -13.847754 0.722 170 255 0
-2.76007 -13.875269 0.646 170 255 0
-2.675284 -13.841028 0.58 170 255 0
-2.70358 -13.856914 0.685 170 255 0
-2.700873 -13.853804 0.643 170 255 0
-2.72552 -13.860325 0.592 170 255 0
-2.70938 -13.855081 0.621 170 255 0
-2.724209 -13.86436 0.677 170 255 0
-2.630933 -13.831079 0.7 170 255 0
-2.7251 -13.863906 0.668 170 255 0
-2.660086 -13.842038 0.696 170 255 0
-2.660506 -13.838457 0.633 170 255 0
-2.704034 -13.857804 0.689 170 255 0
-2.716559 -13.858157 0.612 170 255 0
-2.75469 -13.873521 0.646 170 255 0
-2.665886 -13.840205 0.629 170 255 0
-2.674864 -13.844609 0.651 170 255 0
-2.717904 -13.858594 0.621 170 255 0
-2.698166 -13.850694 0.611 170 255 0
-2.713852 -13.855046 0.581 170 255 0
-2.710305 -13.859099 0.671 170 255 0
-2.632278 -13.831516 0.694 170 255 0
-2.761415 -13.875705 0.655 170 255 0
-2.645274 -13.834995 0.675 170 255 0
-2.619753 -13.831163 0.758 170 255 0
-2.636784 -13.835954 0.741 170 255 0
-2.714777 -13.859065 0.654 170 255 0
-2.663667 -13.842459 0.685 170 255 0
-2.694114 -13.847146 0.568 170 255 0
-2.73359 -13.862947 0.603 170 255 0
-2.647544 -13.83945 0.739 170 255 0
-2.632295 -13.833752 0.725 170 255 0
-2.658741 -13.841601 0.71 170 255 0
-2.609884 -13.827213 0.763 170 255 0
-2.600015 -13.823263 0.741 170 255 0
-2.679824 -13.849938 0.715 170 255 0
-2.699545 -13.855602 0.687 170 255 0
-2.621972 -13.828911 0.714 170 255 0
-2.669013 -13.839734 0.6 170 255 0
-2.713432 -13.858627 0.651 170 255 0
-2.71476 -13.85683 0.606 170 255 0
-2.664995 -13.840659 0.643 170 255 0
-2.716996 -13.856812 0.593 170 255 0
-2.649343 -13.840778 0.738 170 255 0
-2.727353 -13.866125 0.694 170 255 0
-2.632749 -13.834643 0.743 170 255 0
-2.708943 -13.856426 0.638 170 255 0
-2.672191 -13.845971 0.699 170 255 0
-2.664104 -13.841113 0.665 170 255 0
-2.675755 -13.844155 0.642 170 255 0
-2.673973 -13.845063 0.66 170 255 0
-2.678025 -13.848611 0.701 170 255 0
-2.746183 -13.872244 0.687 170 255 0
-2.694551 -13.845802 0.541 170 255 0
-2.615264 -13.828961 0.755 170 255 0
-2.697309 -13.855619 0.704 170 255 0
-2.764122 -13.878816 0.67 170 255 0
-2.756926 -13.873504 0.631 170 255 0
-2.656051 -13.840727 0.701 170 255 0
-2.669064 -13.846442 0.711 170 255 0
-2.722393 -13.860796 0.639 170 255 0
-2.726444 -13.864343 0.662 170 255 0
-2.662288 -13.837549 0.609 170 255 0
-2.70131 -13.852459 0.622 170 255 0
-2.70896 -13.858662 0.677 170 255 0
-2.645274 -13.834995 0.666 170 255 0
-2.63137 -13.829734 0.673 170 255 0
-2.70131 -13.852459 0.619 170 255 0
-2.610775 -13.826759 0.74 170 255 0
-2.698586 -13.847113 0.534 170 255 0
-2.694585 -13.850274 0.618 170 255 0
-2.706236 -13.853315 0.602 170 255 0
-2.664104 -13.841113 0.65 170 255 0
-2.688314 -13.84898 0.637 170 255 0
-2.721972 -13.864377 0.7 170 255 0
-2.707144 -13.855098 0.631 170 255 0
-2.723267 -13.858106 0.579 170 255 0
-2.57984 -13.816709 0.777 170 255 0
-2.717938 -13.863067 0.694 170 255 0
-2.668576 -13.841079 0.628 170 255 0
-2.630025 -13.829296 0.673 170 255 0
-2.686952 -13.846307 0.596 170 255 0
-2.697258 -13.848911 0.58 170 255 0
-2.726008 -13.865688 0.693 170 255 0
-2.654218 -13.834927 0.618 170 255 0
-2.758724 -13.874831 0.644 170 255 0
-2.626444 -13.828876 0.684 170 255 0
-2.716996 -13.856812 0.587 170 255 0
-2.762759 -13.876143 0.64 170 255 0
-2.706707 -13.856442 0.656 170 255 0
-2.695039 -13.851164 0.631 170 255 0
-2.623754 -13.828003 0.681 170 255 0
-2.645274 -13.834995 0.671 170 255 0
-2.712507 -13.854609 0.589 170 255 0
-2.692769 -13.84671 0.578 170 255 0
-2.611229 -13.82765 0.77 170 255 0
-2.702184 -13.849769 0.557 170 255 0
-2.677134 -13.849065 0.713 170 255 0
-2.6444 -13.837685 0.724 170 255 0
-2.690113 -13.850307 0.644 170 255 0
-2.656505 -13.841618 0.707 170 255 0
-2.734951 -13.86562 0.638 170 255 0
-2.747965 -13.871336 0.641 170 255 0
-2.759179 -13.875723 0.657 170 255 0
-2.700856 -13.851567 0.606 170 255 0
-2.73675 -13.866948 0.648 170 255 0
-2.635876 -13.834171 0.719 170 255 0
-2.738096 -13.867385 0.643 170 255 0
-2.660523 -13.840693 0.681 170 255 0
-2.705782 -13.852425 0.584 170 255 0
-2.694619 -13.854746 0.709 170 255 0
-2.671703 -13.840609 0.593 170 255 0
-2.756943 -13.875739 0.678 170 255 0
-2.749764 -13.872663 0.676 170 255 0
-2.717938 -13.863067 0.697 170 255 0
-2.721939 -13.859905 0.616 170 255 0
-2.629588 -13.830642 0.697 170 255 0
-2.618828 -13.827146 0.701 170 255 0
-2.630513 -13.83466 0.752 170 255 0
-2.666323 -13.838861 0.607 170 255 0
-2.670812 -13.841063 0.609 170 255 0
-2.674864 -13.844609 0.652 170 255 0
-2.631404 -13.834206 0.746 170 255 0
-2.73137 -13.8652 0.642 170 255 0
-2.709868 -13.860444 0.704 170 255 0
-2.605378 -13.822775 0.719 170 255 0
-2.710288 -13.856862 0.634 170 255 0
-2.693257 -13.852072 0.661 170 255 0
-2.723704 -13.856761 0.554 170 255 0
-2.688297 -13.846744 0.608 170 255 0
-2.630059 -13.833769 0.747 170 255 0
-2.742114 -13.866461 0.598 170 255 0
-2.69013 -13.852544 0.692 170 255 0
-2.583438 -13.819365 0.783 170 255 0
-2.68744 -13.851669 0.698 170 255 0
-2.710759 -13.85999 0.701 170 255 0
-2.687843 -13.845853 0.583 170 255 0
-2.639474 -13.836828 0.739 170 255 0
-2.635859 -13.831936 0.667 170 255 0
-2.602705 -13.824137 0.745 170 255 0
-2.706656 -13.849735 0.54 170 255 0
-2.739441 -13.867823 0.638 170 255 0
-2.680244 -13.846357 0.648 170 255 0
-2.657396 -13.841164 0.693 170 255 0
-2.713415 -13.856392 0.608 170 255 0
-2.719669 -13.85545 0.56 170 255 0
-2.709868 -13.860444 0.7 170 255 0
-2.744838 -13.871806 0.683 170 255 0
-2.708455 -13.851063 0.549 170 255 0
-2.755598 -13.875302 0.673 170 255 0
-2.615247 -13.826726 0.715 170 255 0
-2.704034 -13.857804 0.7 170 255 0
-2.694131 -13.849382 0.603 170 255 0
-2.717467 -13.859939 0.656 170 255 0
-2.638095 -13.831919 0.651 170 255 0
-2.732262 -13.864746 0.641 170 255 0
-2.698637 -13.853821 0.659 170 255 0
-2.667248 -13.842878 0.667 170 255 0
-2.707598 -13.855989 0.638 170 255 0
-2.69635 -13.84713 0.553 170 255 0
-2.661414 -13.84024 0.659 170 255 0
-2.635859 -13.831936 0.671 170 255 0
-2.613448 -13.825397 0.708 170 255 0
-2.721905 -13.855433 0.544 170 255 0
-2.711213 -13.860881 0.697 170 255 0
-2.632715 -13.830171 0.662 170 255 0
-2.68786 -13.848088 0.627 170 255 0
-2.724175 -13.859888 0.603 170 255 0
-2.750655 -13.87221 0.652 170 255 0
-2.765904 -13.877908 0.655 170 255 0
-2.742584 -13.869587 0.658 170 255 0
-2.656017 -13.836255 0.623 170 255 0
-2.756035 -13.873958 0.64 170 255 0
-2.700839 -13.849332 0.562 170 255 0
-2.685153 -13.844978 0.593 170 255 0
-2.706202 -13.848844 0.531 170 255 0
-2.746166 -13.870007 0.644 170 255 0
-2.647964 -13.835869 0.669 170 255 0
-2.679353 -13.846811 0.667 170 255 0
-2.760524 -13.876159 0.665 170 255 0
-2.737625 -13.864258 0.599 170 255 0
-2.616592 -13.827163 0.719 170 255 0
-2.675284 -13.841028 0.584 170 255 0
-2.68206 -13.849921 0.707 170 255 0
-2.716088 -13.85503 0.557 170 255 0
-2.653378 -13.84209 0.738 170 255 0
-2.738533 -13.866039 0.617 170 255 0
-2.633203 -13.835533 0.753 170 255 0
-2.747965 -13.871336 0.65 170 255 0
-2.64751 -13.834978 0.66 170 255 0
-2.690079 -13.845835 0.574 170 255 0
-2.669484 -13.842861 0.655 170 255 0
-2.681135 -13.845903 0.624 170 255 0
-2.664575 -13.84424 0.7 170 255 0
-2.760978 -13.87705 0.672 170 255 0
-2.663684 -13.844694 0.731 170 255 0
-2.713398 -13.854156 0.558 170 255 0
-2.700889 -13.856039 0.683 170 255 0
-2.675301 -13.843265 0.621 170 255 0
-2.710708 -13.853282 0.569 170 255 0
-2.678882 -13.843684 0.604 170 255 0
-2.735826 -13.86293 0.583 170 255 0
-2.619719 -13.826692 0.689 170 255 0
-2.71249 -13.852374 0.538 170 255 0
-2.714306 -13.855938 0.597 170 255 0
-2.703983 -13.851097 0.571 170 255 0
-2.646636 -13.837668 0.71 170 255 0
-2.727302 -13.859417 0.572 170 255 0
-2.670812 -13.841063 0.605 170 255 0
-2.588801 -13.818876 0.751 170 255 0
-2.738533 -13.866039 0.614 170 255 0
-2.713432 -13.858627 0.644 170 255 0
-2.60184 -13.94579 0.462 170 255 0
-2.591686 -13.963308 0.475 170 255 0
-2.612128 -13.946159 0.477 170 255 0
-2.639597 -13.911961 0.465 170 255 0
-2.669051 -13.903687 0.495 170 255 0
-2.612566 -13.944814 0.477 170 255 0
-2.626368 -13.936659 0.483 170 255 0
-2.68312 -13.871827 0.466 170 255 0
-2.66816 -13.904141 0.494 170 255 0
-2.667452 -13.869711 0.441 170 255 0
-2.612464 -13.931397 0.455 170 255 0
-2.68055 -13.886605 0.484 170 255 0
-2.624921 -13.922806 0.46 170 255 0
-2.659534 -13.887213 0.455 170 255 0
-2.661855 -13.898376 0.476 170 255 0
-2.607555 -13.932776 0.45 170 255 0
-2.640942 -13.912398 0.468 170 255 0
-2.684045 -13.875845 0.473 170 255 0
-2.65782 -13.897064 0.469 170 255 0
-2.66362 -13.895231 0.474 170 255 0
-2.57516 -13.966117 0.455 170 255 0
-2.625477 -13.937113 0.484 170 255 0
-2.696015 -13.861891 0.469 170 255 0
-2.624904 -13.92057 0.458 170 255 0
-2.639092 -13.904362 0.452 170 255 0
-2.644001 -13.902984 0.459 170 255 0
-2.657922 -13.91048 0.488 170 255 0
-2.552096 -13.991337 0.46 170 255 0
-2.621896 -13.936692 0.476 170 255 0
-2.611708 -13.949739 0.483 170 255 0
-2.681674 -13.857974 0.443 170 255 0
-2.610312 -13.942595 0.47 170 255 0
-2.580557 -13.970102 0.469 170 255 0
-2.60949 -13.951993 0.483 170 255 0
-2.670578 -13.869239 0.444 170 255 0
-2.629864 -13.9259 0.472 170 255 0
-2.662831 -13.909101 0.493 170 255 0
-2.584121 -13.968286 0.471 170 255 0
-2.618213 -13.922856 0.45 170 255 0
-2.591215 -13.960181 0.469 170 255 0
-2.599637 -13.950278 0.466 170 255 0
-2.583146 -13.95756 0.454 170 255 0
-2.565932 -13.987655 0.474 170 255 0
-2.680011 -13.874535 0.465 170 255 0
-2.62008 -13.933129 0.469 170 255 0
-2.615727 -13.948815 0.486 170 255 0
-2.687592 -13.871794 0.472 170 255 0
-2.672479 -13.883983 0.469 170 255 0
-2.643263 -13.923561 0.488 170 255 0
-2.558367 -13.992631 0.471 170 255 0
-2.678279 -13.882151 0.474 170 255 0
-2.685742 -13.863757 0.458 170 255 0
-2.685946 -13.89059 0.498 170 255 0
-2.594779 -13.958365 0.472 170 255 0
-2.671118 -13.88131 0.464 170 255 0
-2.609438 -13.945285 0.473 170 255 0
-2.678564 -13.860682 0.443 170 255 0
-2.594814 -13.962838 0.478 170 255 0
-2.570319 -13.97644 0.463 170 255 0
-2.670125 -13.868348 0.443 170 255 0
-2.690652 -13.862378 0.462 170 255 0
-2.694721 -13.868161 0.478 170 255 0
-2.646742 -13.910564 0.472 170 255 0
-2.531688 -14.012959 0.464 170 255 0
-2.581431 -13.967411 0.466 170 255 0
-2.675941 -13.868751 0.451 170 255 0
-2.697512 -13.882451 0.502 170 255 0
-2.700067 -13.865438 0.481 170 255 0
-2.611204 -13.942141 0.471 170 255 0
-2.538781 -14.004855 0.463 170 255 0
-2.606715 -13.939939 0.46 170 255 0
-2.64269 -13.907018 0.463 170 255 0
-2.692939 -13.869069 0.476 170 255 0
-2.664409 -13.881361 0.454 170 255 0
-2.581851 -13.963831 0.461 170 255 0
-2.563225 -13.984544 0.466 170 255 0
-2.557845 -13.982796 0.456 170 255 0
-2.638842 -13.930303 0.491 170 255 0
-2.668983 -13.894743 0.481 170 255 0
-2.59167 -13.961073 0.471 170 255 0
-2.598258 -13.945369 0.457 170 255 0
-2.645482 -13.921308 0.487 170 255 0
-2.567629 -13.975567 0.459 170 255 0
-2.625443 -13.932641 0.476 170 255 0
-2.691576 -13.866396 0.47 170 255 0
-2.669068 -13.905924 0.498 170 255 0
-2.66673 -13.892524 0.473 170 255 0
-2.674109 -13.862951 0.44 170 255 0
-2.604597 -13.955607 0.48 170 255 0
-2.641799 -13.907472 0.462 170 255 0
-2.670226 -13.881764 0.463 170 255 0
-2.630789 -13.929917 0.479 170 255 0
-2.689391 -13.873121 0.476 170 255 0
-2.587651 -13.961997 0.467 170 255 0
-2.704135 -13.871221 0.495 170 255 0
-2.604025 -13.939065 0.456 170 255 0
-2.627696 -13.93486 0.483 170 255 0
-2.62193 -13.941165 0.484 170 255 0
-2.566352 -13.984074 0.471 170 255 0
-2.591703 -13.965545 0.477 170 255 0
-2.520122 -14.021097 0.46 170 255 0
-2.890857 -14.43152 0.023 170 255 0
-2.921389 -14.447389 0.026 170 255 0
-2.934419 -14.455339 0.027 170 255 0
-2.984723 -14.48358 0.03 170 255 0
-2.914648 -14.442967 0.026 170 255 0
-2.942472 -14.455725 0.029 170 255 0
-2.931695 -14.449993 0.028 170 255 0
-2.885948 -14.432899 0.02 170 255 0
-2.964565 -14.47926 0.024 170 255 0
-2.999569 -14.495095 0.029 170 255 0
-2.994677 -14.49871 0.025 170 255 0
-2.943817 -14.456162 0.03 170 255 0
-2.885006 -14.426644 0.023 170 255 0
-2.988389 -14.49518 0.024 170 255 0
-2.969457 -14.475646 0.028 170 255 0
-2.963186 -14.474351 0.027 170 255 0
-2.989246 -14.490253 0.027 170 255 0
-2.889899 -14.42303 0.027 170 255 0
-2.972737 -14.495299 0.019 170 255 0
-2.994643 -14.494238 0.027 170 255 0
-2.940792 -14.470049 0.02 170 255 0
-2.892134 -14.423013 0.028 170 255 0
-2.978049 -14.488103 0.024 170 255 0
-3.037496 -14.483626 0.022 170 255 0
-3.044323 -14.499228 0.022 170 255 0
-2.884209 -14.321552 0.094 170 255 0
-2.842624 -14.204695 0.052 170 255 0
-2.866096 -14.233139 0.071 170 255 0
-2.846807 -14.166649 0.05 170 255 0
-2.879796 -14.211569 0.076 170 255 0
-2.846896 -14.237309 0.059 170 255 0
-2.900298 -14.320088 0.104 170 255 0
-2.845726 -14.318714 0.07 170 255 0
-2.854962 -14.18045 0.057 170 255 0
-2.846493 -14.243127 0.06 170 255 0
-2.833765 -14.215942 0.049 170 255 0
-2.862824 -14.332448 0.082 170 255 0
-2.857958 -14.221573 0.064 170 255 0
-2.900917 -14.283858 0.099 170 255 0
-2.88168 -14.224076 0.079 170 255 0
-2.830951 -14.139935 0.037 170 255 0
-2.858145 -14.246169 0.067 170 255 0
-2.878795 -14.315332 0.09 170 255 0
-2.866668 -14.249682 0.073 170 255 0
-2.847164 -14.213605 0.057 170 255 0
-2.870233 -14.247867 0.075 170 255 0
-2.859002 -14.241243 0.067 170 255 0
-2.846171 -14.200643 0.054 170 255 0
-2.915746 -14.293138 0.109 170 255 0
-2.903034 -14.268189 0.099 170 255 0
-2.857869 -14.150912 0.055 170 255 0
-2.880267 -14.214695 0.077 170 255 0
-2.892508 -14.236517 0.087 170 255 0
-2.861008 -14.328884 0.081 170 255 0
-2.842612 -14.26194 0.06 170 255 0
-2.873886 -14.316711 0.087 170 255 0
-2.84231 -14.281173 0.062 170 255 0
-2.851636 -14.213571 0.059 170 255 0
-2.870046 -14.22327 0.072 170 255 0
-2.879936 -14.288937 0.087 170 255 0
-2.894999 -14.27004 0.094 170 255 0
-2.841118 -14.300859 0.065 170 255 0
-2.841623 -14.308458 0.066 170 255 0
-2.864755 -14.292183 0.078 170 255 0
-2.903692 -14.295913 0.103 170 255 0
-2.856592 -14.159419 0.055 170 255 0
-2.874505 -14.280481 0.083 170 255 0
-2.869201 -14.170951 0.064 170 255 0
-2.848989 -14.336131 0.074 170 255 0
-2.865514 -14.333322 0.084 170 255 0
-2.851725 -14.284232 0.069 170 255 0
-2.876304 -14.28181 0.084 170 255 0
-2.844652 -14.118365 0.043 170 255 0
-2.858518 -14.295361 0.075 170 255 0
-2.849145 -14.180048 0.053 170 255 0
-2.883245 -14.253581 0.083 170 255 0
-2.838271 -14.220381 0.052 170 255 0
-2.879295 -14.263451 0.083 170 255 0
-2.849718 -14.19659 0.056 170 255 0
-2.867487 -14.180803 0.064 170 255 0
-2.8793 -14.322931 0.091 170 255 0
-2.869749 -14.301984 0.083 170 255 0
-2.83312 -14.130975 0.037 170 255 0
-2.880157 -14.318005 0.091 170 255 0
-2.855819 -14.175525 0.057 170 255 0
-2.904986 -14.289641 0.103 170 255 0
-2.847546 -14.146071 0.048 170 255 0
-2.864042 -14.198271 0.065 170 255 0
-2.872027 -14.189713 0.069 170 255 0
-2.83881 -14.232452 0.054 170 255 0
-2.891061 -14.222663 0.085 170 255 0
-2.851665 -14.158562 0.052 170 255 0
-2.841033 -14.28968 0.063 170 255 0
-2.893437 -14.300015 0.097 170 255 0
-2.840078 -14.104983 0.038 170 255 0
-2.864573 -14.327068 0.082 170 255 0
-2.836921 -14.160462 0.043 170 255 0
-2.873347 -14.304641 0.085 170 255 0
-2.873716 -14.294352 0.084 170 255 0
-2.848691 -14.179157 0.053 170 255 0
-2.87235 -14.232197 0.074 170 255 0
-2.889351 -14.291996 0.093 170 255 0
-2.848674 -14.176921 0.052 170 255 0
-2.889296 -14.225808 0.084 170 255 0
-2.851699 -14.163033 0.053 170 255 0
-2.864785 -14.237174 0.07 170 255 0
-2.840859 -14.207839 0.052 170 255 0
-2.865569 -14.163822 0.061 170 255 0
-2.891736 -14.252623 0.089 170 255 0
-2.852595 -14.222061 0.061 170 255 0
-2.858221 -14.138388 0.054 170 255 0
-2.855675 -14.274364 0.069 170 255 0
-2.894238 -14.2289 0.088 170 255 0
-2.85299 -14.33297 0.076 170 255 0
-2.8545 -14.296287 0.072 170 255 0
-2.87966 -14.193681 0.074 170 255 0
-2.859943 -14.247498 0.069 170 255 0
-2.859701 -14.156712 0.057 170 255 0
-2.871442 -14.230415 0.073 170 255 0
-2.847914 -14.135781 0.047 170 255 0
-2.880522 -14.248236 0.081 170 255 0
-2.842866 -14.29548 0.065 170 255 0
-2.871781 -14.275135 0.081 170 255 0
-2.885549 -14.262508 0.086 170 255 0
-2.845984 -14.176047 0.051 170 255 0
-2.878922 -14.214258 0.076 170 255 0
-2.874709 -14.307314 0.086 170 255 0
-2.900196 -14.306673 0.102 170 255 0
-2.831928 -14.150661 0.039 170 255 0
-2.858526 -14.178635 0.059 170 255 0
-2.864445 -14.192454 0.064 170 255 0
-2.861449 -14.151332 0.057 170 255 0
-2.870436 -14.274698 0.078 170 255 0
-2.852319 -14.126803 0.048 170 255 0
-2.844415 -14.322749 0.069 170 255 0
-2.908754 -14.314657 0.108 170 255 0
-2.841716 -14.202912 0.052 170 255 0
-2.833192 -14.199399 0.046 170 255 0
-2.878307 -14.30997 0.089 170 255 0
-2.844245 -14.300389 0.067 170 255 0
-2.834532 -14.140355 0.039 170 255 0
-2.850422 -14.17154 0.053 170 255 0
-2.882384 -14.199026 0.076 170 255 0
-2.840999 -14.285208 0.061 170 255 0
-2.859999 -14.313686 0.078 170 255 0
-2.854585 -14.307466 0.074 170 255 0
-2.894947 -14.263331 0.093 170 255 0
-2.855374 -14.293595 0.073 170 255 0
-2.837278 -14.207418 0.05 170 255 0
-2.897977 -14.308926 0.101 170 255 0
-2.845853 -14.21764 0.056 170 255 0
-2.849255 -14.312426 0.071 170 255 0
-2.840286 -14.191296 0.049 170 255 0
-2.856816 -14.247968 0.066 170 255 0
-2.839815 -14.188169 0.049 170 255 0
-2.891443 -14.390818 0.046 170 255 0
-2.893055 -14.367549 0.06 170 255 0
-2.886012 -14.382361 0.05 170 255 0
-2.888736 -14.387707 0.047 170 255 0
-2.976483 -14.458598 0.041 170 255 0
-2.910375 -14.410352 0.043 170 255 0
-2.941395 -14.431583 0.043 170 255 0
-2.899025 -14.388077 0.051 170 255 0
-2.92105 -14.402668 0.051 170 255 0
-2.985966 -14.4706 0.037 170 255 0
-2.921453 -14.396852 0.054 170 255 0
-2.893662 -14.388564 0.049 170 255 0
-2.89911 -14.399257 0.044 170 255 0
-2.89541 -14.383184 0.052 170 255 0
-2.949952 -14.439569 0.042 170 255 0
-2.954021 -14.445352 0.039 170 255 0
-2.98104 -14.469744 0.036 170 255 0
-2.956206 -14.438626 0.045 170 255 0
-2.908525 -14.402316 0.047 170 255 0
-2.896318 -14.384967 0.052 170 255 0
-2.910273 -14.396936 0.05 170 255 0
-2.893713 -14.395273 0.045 170 255 0
-2.895614 -14.410017 0.037 170 255 0
-2.893361 -14.407798 0.038 170 255 0
-2.919909 -14.429063 0.036 170 255 0
-2.918377 -14.40403 0.05 170 255 0
-2.971154 -14.463557 0.036 170 255 0
-2.928819 -14.424523 0.041 170 255 0
-2.884837 -14.404284 0.036 170 255 0
-2.939965 -14.419966 0.049 170 255 0
-2.911635 -14.39961 0.049 170 255 0
-2.914864 -14.412554 0.043 170 255 0
-2.899377 -14.375552 0.058 170 255 0
-2.965723 -14.455101 0.038 170 255 0
-2.895881 -14.386312 0.051 170 255 0
-2.896976 -14.412689 0.036 170 255 0
-2.974247 -14.458614 0.04 170 255 0
-2.83037 -14.240118 0.049 170 255 0
-2.825479 -14.243733 0.047 170 255 0
-2.796937 -14.313271 0.04 170 255 0
-2.834342 -14.291966 0.059 170 255 0
-2.821902 -14.302794 0.054 170 255 0
-2.831092 -14.217304 0.047 170 255 0
-2.813263 -14.343111 0.054 170 255 0
-2.802181 -14.297131 0.04 170 255 0
-2.836744 -14.254829 0.055 170 255 0
-2.819415 -14.328753 0.056 170 255 0
-2.830595 -14.328668 0.062 170 255 0
-2.835873 -14.316999 0.064 170 255 0
-2.82687 -14.191398 0.041 170 255 0
-2.833014 -14.293766 0.059 170 255 0
-2.820752 -14.210228 0.04 170 255 0
-2.823917 -14.273709 0.05 170 255 0
-2.788434 -14.371474 0.043 170 255 0
-2.806699 -14.244323 0.036 170 255 0
-2.798685 -14.307891 0.04 170 255 0
-2.812707 -14.328803 0.051 170 255 0
-2.83049 -14.255772 0.052 170 255 0
-2.81311 -14.322987 0.051 170 255 0
-2.830222 -14.279476 0.055 170 255 0
-2.820654 -14.256292 0.046 170 255 0
-2.824876 -14.2822 0.051 170 255 0
-2.805109 -14.329309 0.047 170 255 0
-2.838195 -14.328163 0.066 170 255 0
-2.795426 -14.349955 0.044 170 255 0
-2.837605 -14.309384 0.064 170 255 0
-2.811995 -14.234892 0.038 170 255 0
-2.837134 -14.306256 0.063 170 255 0
-2.83626 -14.308947 0.063 170 255 0
-2.816165 -14.25409 0.043 170 255 0
-2.824397 -14.16011 0.036 170 255 0
-2.803479 -14.350341 0.049 170 255 0
-2.833043 -14.238756 0.051 170 255 0
-2.835806 -14.308056 0.063 170 255 0
-2.78798 -14.370584 0.042 170 255 0
-2.81575 -14.317152 0.052 170 255 0
-2.785676 -14.361656 0.04 170 255 0
-2.818465 -14.203537 0.038 170 255 0
-2.816021 -14.352929 0.057 170 255 0
-2.812894 -14.3534 0.055 170 255 0
-2.83374 -14.330433 0.064 170 255 0
-2.815983 -14.288976 0.048 170 255 0
-2.791964 -14.365187 0.044 170 255 0
-2.802249 -14.306074 0.042 170 255 0
-2.837032 -14.292841 0.061 170 255 0
-2.816272 -14.326987 0.053 170 255 0
-2.805749 -14.354795 0.051 170 255 0
-2.511143 -14.016692 0.729 170 255 0
-2.728214 -13.92068 0.676 170 255 0
-2.762442 -13.89314 0.673 170 255 0
-2.736636 -13.910777 0.673 170 255 0
-2.723742 -13.920714 0.674 170 255 0
-2.756692 -13.90168 0.678 170 255 0
-2.759416 -13.907026 0.684 170 255 0
-2.789239 -13.888463 0.686 170 255 0
-2.764677 -13.893123 0.675 170 255 0
-2.757987 -13.89541 0.672 170 255 0
-2.609205 -13.973462 0.708 170 255 0
-2.605187 -13.974386 0.695 170 255 0
-2.747833 -13.912929 0.686 170 255 0
-2.696121 -13.934788 0.686 170 255 0
-2.691666 -13.937057 0.673 170 255 0
-2.606969 -13.973478 0.707 170 255 0
-2.500434 -14.019904 0.714 170 255 0
-2.508908 -14.01671 0.728 170 255 0
-2.734905 -13.918393 0.683 170 255 0
-2.509799 -14.016256 0.723 170 255 0
-2.588695 -13.981668 0.706 170 255 0
-2.740251 -13.915668 0.685 170 255 0
-2.503108 -14.018542 0.718 170 255 0
-2.767889 -13.903831 0.691 170 255 0
-2.603405 -13.975295 0.695 170 255 0
-2.603405 -13.975295 0.705 170 255 0
-2.703703 -13.932047 0.679 170 255 0
-2.696121 -13.934788 0.684 170 255 0
-2.77458 -13.901545 0.703 170 255 0
-2.603808 -13.969478 0.681 170 255 0
-2.595806 -13.9758 0.687 170 255 0
-2.607389 -13.969897 0.684 170 255 0
-2.494617 -14.019502 0.706 170 255 0
-2.588661 -13.977196 0.686 170 255 0
-2.519129 -14.008135 0.7 170 255 0
-2.643517 -13.957101 0.681 170 255 0
-2.938628 -14.302803 0.054 170 255 0
-2.893144 -14.202522 0.046 170 255 0
-2.998118 -14.421762 0.052 170 255 0
-2.885057 -14.197664 0.064 170 255 0
-2.888116 -14.18825 0.038 170 255 0
-2.8559 -14.127224 0.046 170 255 0
-2.874128 -14.171808 0.06 170 255 0
-2.875438 -14.167773 0.048 170 255 0
-3.021708 -14.465857 0.046 170 255 0
-2.970997 -14.383952 0.084 170 255 0
-2.874514 -14.163755 0.043 170 255 0
-2.917727 -14.259581 0.05 170 255 0
-2.899636 -14.232884 0.075 170 255 0
-2.924304 -14.301123 0.104 170 255 0
-2.93814 -14.29744 0.044 170 255 0
-2.987324 -14.413793 0.077 170 255 0
-2.959461 -14.337081 0.041 170 255 0
-2.99452 -14.419105 0.062 170 255 0
-2.916149 -14.287321 0.108 170 255 0
-2.927851 -14.297071 0.083 170 255 0
-3.003617 -14.439161 0.065 170 255 0
-2.986819 -14.406194 0.067 170 255 0
-2.910213 -14.271265 0.101 170 255 0
-2.924066 -14.269818 0.044 170 255 0
-2.966253 -14.34821 0.036 170 255 0
-2.965867 -14.356263 0.051 170 255 0
-2.933316 -14.309999 0.086 170 255 0
-2.979504 -14.38523 0.055 170 255 0
-2.931937 -14.30509 0.083 170 255 0
-2.95921 -14.363022 0.09 170 255 0
-2.920116 -14.279688 0.078 170 255 0
-2.913574 -14.242618 0.043 170 255 0
-2.868175 -14.153517 0.046 170 255 0
-2.953779 -14.354566 0.091 170 255 0
-2.927414 -14.298416 0.086 170 255 0
-2.944314 -14.344799 0.108 170 255 0
-2.947708 -14.320622 0.053 170 255 0
-2.969936 -14.362047 0.048 170 255 0
-3.004423 -14.427526 0.038 170 255 0
-2.8937 -14.216829 0.07 170 255 0
-2.874564 -14.170463 0.053 170 255 0
-2.924486 -14.266237 0.04 170 255 0
-2.921881 -14.276544 0.069 170 255 0
-2.958739 -14.359895 0.084 170 255 0
-2.975015 -14.383028 0.066 170 255 0
-2.919208 -14.277905 0.08 170 255 0
-2.953224 -14.34026 0.07 170 255 0
-2.989089 -14.410648 0.065 170 255 0
-3.016294 -14.459638 0.054 170 255 0
-2.904125 -14.235086 0.063 170 255 0
-2.934088 -14.293893 0.055 170 255 0
-2.889058 -14.194503 0.046 170 255 0
-3.018547 -14.461856 0.05 170 255 0
-2.949693 -14.346547 0.093 170 255 0
-2.946011 -14.332711 0.079 170 255 0
-3.015335 -14.451147 0.043 170 255 0
-2.927749 -14.283654 0.059 170 255 0
-2.88815 -14.192721 0.045 170 255 0
-2.934156 -14.302837 0.068 170 255 0
-2.921495 -14.284596 0.085 170 255 0
-2.929026 -14.275147 0.038 170 255 0
-2.849056 -14.109386 0.038 170 255 0
-2.86868 -14.161116 0.058 170 255 0
-2.885409 -14.18514 0.042 170 255 0
-2.882282 -14.18561 0.052 170 255 0
-2.985809 -14.390996 0.042 170 255 0
-2.909725 -14.265903 0.093 170 255 0
-2.927698 -14.276947 0.044 170 255 0
-2.846349 -14.106277 0.041 170 255 0
-2.966389 -14.366098 0.066 170 255 0
-2.886754 -14.185576 0.039 170 255 0
-2.90779 -14.246687 0.072 170 255 0
-2.890573 -14.217299 0.083 170 255 0
-2.872244 -14.1593 0.045 170 255 0
-2.966372 -14.363863 0.062 170 255 0
-2.995343 -14.409707 0.042 170 255 0
-2.87322 -14.170027 0.058 170 255 0
-2.897264 -14.215014 0.055 170 255 0
-2.886436 -14.202574 0.069 170 255 0
-2.912195 -14.237709 0.04 170 255 0
-2.953224 -14.34026 0.069 170 255 0
-2.868594 -14.149936 0.038 170 255 0
-2.912717 -14.247543 0.055 170 255 0
-3.01853 -14.45962 0.048 170 255 0
-2.928606 -14.278728 0.047 170 255 0
-2.883695 -14.194991 0.068 170 255 0
-3.035328 -14.492588 0.043 170 255 0
-2.910077 -14.253378 0.076 170 255 0
-2.907807 -14.248922 0.076 170 255 0
-2.883695 -14.194991 0.065 170 255 0
-2.902881 -14.248065 0.093 170 255 0
-2.945625 -14.340764 0.097 170 255 0
-2.962672 -14.34779 0.047 170 255 0
-2.915173 -14.276594 0.09 170 255 0
-2.952248 -14.329533 0.053 170 255 0
-2.881777 -14.178011 0.04 170 255 0
-2.882265 -14.183374 0.05 170 255 0
-2.993192 -14.420904 0.067 170 255 0
-2.98216 -14.381632 0.038 170 255 0
-2.862239 -14.137462 0.041 170 255 0
-2.96311 -14.346446 0.041 170 255 0
-2.992602 -14.402124 0.037 170 255 0
-2.891328 -14.198958 0.044 170 255 0
-2.905368 -14.222108 0.036 170 255 0
-2.881879 -14.191427 0.064 170 255 0
-2.894574 -14.21414 0.06 170 255 0
-2.945841 -14.310351 0.038 170 255 0
-2.970509 -14.37859 0.074 170 255 0
-3.039868 -14.501497 0.045 170 255 0
-2.940176 -14.330071 0.099 170 255 0
-2.92637 -14.278746 0.054 170 255 0
-2.953593 -14.32997 0.049 170 255 0
-2.922942 -14.29845 0.102 170 255 0
-2.973619 -14.375883 0.059 170 255 0
-2.903738 -14.243139 0.082 170 255 0
-2.924707 -14.295305 0.09 170 255 0
-2.941369 -14.310386 0.057 170 255 0
-2.891782 -14.199849 0.047 170 255 0
-2.975469 -14.383919 0.066 170 255 0
-2.967212 -14.3567 0.046 170 255 0
-2.899182 -14.231994 0.079 170 255 0
-2.927817 -14.292599 0.075 170 255 0
-2.949188 -14.338948 0.081 170 255 0
-2.944178 -14.326911 0.078 170 255 0
-2.970004 -14.370991 0.065 170 255 0
-2.971838 -14.376791 0.067 170 255 0
-2.928793 -14.303326 0.089 170 255 0
-2.875018 -14.171354 0.055 170 255 0
-2.94495 -14.310805 0.044 170 255 0
-2.903637 -14.229723 0.054 170 255 0
-3.028938 -14.475641 0.038 170 255 0
-2.979033 -14.382102 0.052 170 255 0
-2.950835 -14.320152 0.042 170 255 0
-2.91354 -14.238146 0.036 170 255 0
-2.873253 -14.174499 0.066 170 255 0
-3.039397 -14.498371 0.041 170 255 0
-2.88176 -14.175776 0.038 170 255 0
-2.943605 -14.310368 0.047 170 255 0
-3.004979 -14.441834 0.064 170 255 0
-2.919089 -14.262254 0.051 170 255 0
-2.95467 -14.354112 0.088 170 255 0
-2.854101 -14.125896 0.047 170 255 0
-2.934559 -14.29702 0.059 170 255 0
-2.955375 -14.329062 0.042 170 255 0
-3.014899 -14.452493 0.046 170 255 0
-2.871353 -14.159754 0.046 170 255 0
-2.936392 -14.30282 0.061 170 255 0
-2.911338 -14.242635 0.052 170 255 0
-2.910464 -14.245324 0.058 170 255 0
-2.960487 -14.354515 0.069 170 255 0
-2.994923 -14.413287 0.049 170 255 0
-2.877306 -14.178045 0.061 170 255 0
-2.931784 -14.284966 0.045 170 255 0
-2.920014 -14.266272 0.056 170 255 0
-2.991359 -14.415104 0.065 170 255 0
-2.970492 -14.376353 0.071 170 255 0
-2.87865 -14.178482 0.054 170 255 0
-2.939973 -14.303241 0.05 170 255 0
-2.928407 -14.311378 0.108 170 255 0
