ply
format ascii 1.0
element vertex 1378
property double x
property double y
property double z
property uchar red
property uchar green
property uchar blue
element face 0
property list uchar int vertex_indices
end_header
6.778545 -12.910562 1.153 84 255 0
6.757933 -12.915771 2.103 84 255 0
6.755191 -12.923354 1.822 84 255 0
6.759227 -12.922043 1.691 84 255 0
6.766422 -12.916731 1.549 84 255 0
6.74122 -12.937559 1.85 84 255 0
6.765044 -12.92164 1.306 84 255 0
6.775435 -12.907855 1.558 84 255 0
6.751157 -12.924665 2.01 84 255 0
6.743506 -12.930868 2.065 84 255 0
6.761026 -12.920715 1.657 84 255 0
6.74349 -12.933105 1.952 84 255 0
6.741656 -12.938905 1.717 84 255 0
6.755141 -12.930062 1.457 84 255 0
6.759715 -12.916679 1.984 84 255 0
6.7696 -12.910494 1.689 84 255 0
6.7466 -12.935811 1.58 84 255 0
6.735353 -12.944671 1.77 84 255 0
6.761059 -12.916243 1.878 84 255 0
6.756957 -12.926498 1.511 84 255 0
6.774022 -12.917235 1.053 84 255 0
6.739438 -12.936651 1.964 84 255 0
6.739421 -12.938888 1.887 84 255 0
6.776763 -12.909654 1.297 84 255 0
6.770475 -12.913184 1.515 84 255 0
6.768239 -12.913167 1.644 84 255 0
6.776325 -12.908309 1.418 84 255 0
6.740295 -12.941577 1.644 84 255 0
6.734478 -12.94198 2.025 84 255 0
6.772694 -12.915437 1.209 84 255 0
6.768171 -12.922112 1.14 84 255 0
6.759647 -12.925624 1.428 84 255 0
6.737168 -12.941107 1.859 84 255 0
6.773567 -12.918127 1.046 84 255 0
6.77224 -12.916327 1.187 84 255 0
6.767802 -12.911822 1.759 84 255 0
6.779033 -12.905198 1.446 84 255 0
6.774073 -12.910528 1.422 84 255 0
6.760589 -12.919371 1.722 84 255 0
6.733571 -12.943763 1.906 84 255 0
6.740748 -12.940686 1.657 84 255 0
6.738076 -12.939324 1.886 84 255 0
6.770072 -12.907367 1.859 84 255 0
6.770458 -12.91542 1.393 84 255 0
6.734041 -12.940635 2.058 84 255 0
6.780377 -12.904761 1.429 84 255 0
6.76464 -12.915823 1.702 84 255 0
6.776831 -12.90071 1.835 84 255 0
6.73626 -12.942888 1.862 84 255 0
6.779503 -12.902072 1.597 84 255 0
6.765583 -12.909569 2.063 84 255 0
6.745692 -12.937593 1.584 84 255 0
6.7696 -12.910494 1.711 84 255 0
6.750215 -12.93092 1.656 84 255 0
6.744398 -12.931322 1.98 84 255 0
6.751577 -12.928246 1.75 84 255 0
6.729518 -12.947309 1.995 84 255 0
6.739404 -12.941123 1.751 84 255 0
6.750703 -12.925556 1.955 84 255 0
6.746146 -12.936702 1.595 84 255 0
6.765952 -12.919858 1.405 84 255 0
6.761497 -12.917587 1.806 84 255 0
6.741674 -12.936668 1.908 84 255 0
6.776729 -12.914126 1.048 84 255 0
6.770912 -12.914529 1.371 84 255 0
6.74122 -12.937559 1.846 84 255 0
6.77762 -12.91458 0.988 84 255 0
6.747945 -12.935374 1.557 84 255 0
6.752433 -12.933172 1.432 84 255 0
6.723668 -12.952185 2.045 84 255 0
6.735806 -12.94378 1.839 84 255 0
6.725029 -12.949512 2.095 84 255 0
6.739421 -12.938888 1.883 84 255 0
6.744801 -12.93714 1.623 84 255 0
6.757831 -12.929188 1.278 84 255 0
6.743052 -12.93176 2.09 84 255 0
6.757865 -12.924716 1.584 84 255 0
6.742985 -12.940703 1.567 84 255 0
6.751559 -12.930483 1.59 84 255 0
6.755578 -12.931407 1.32 84 255 0
6.738076 -12.939324 1.904 84 255 0
6.759227 -12.922043 1.638 84 255 0
6.771383 -12.911403 1.514 84 255 0
6.770929 -12.912293 1.564 84 255 0
6.773635 -12.909183 1.527 84 255 0
6.737151 -12.943342 1.723 84 255 0
6.757025 -12.917555 2.035 84 255 0
6.765027 -12.923877 1.187 84 255 0
6.750249 -12.926448 1.967 84 255 0
6.725012 -12.951748 2.004 84 255 0
6.747525 -12.931793 1.779 84 255 0
6.738547 -12.936197 2.106 84 255 0
6.749743 -12.934046 1.566 84 255 0
6.760135 -12.920261 1.669 84 255 0
6.735806 -12.94378 1.76 84 255 0
6.727702 -12.950873 1.882 84 255 0
6.753813 -12.928264 1.623 84 255 0
6.743002 -12.938467 1.662 84 255 0
6.758789 -12.920698 1.778 84 255 0
6.768659 -12.916748 1.366 84 255 0
6.739438 -12.936651 1.984 84 255 0
6.771803 -12.914983 1.317 84 255 0
6.761463 -12.92206 1.553 84 255 0
6.758756 -12.92517 1.541 84 255 0
6.762858 -12.914915 1.838 84 255 0
6.738547 -12.936197 2.083 84 255 0
6.736697 -12.944234 1.672 84 255 0
6.756991 -12.922027 1.812 84 255 0
6.756519 -12.925154 1.682 84 255 0
6.755611 -12.926935 1.62 84 255 0
6.747525 -12.931793 1.772 84 255 0
6.733116 -12.944654 1.891 84 255 0
6.765078 -12.917168 1.582 84 255 0
6.762842 -12.917151 1.775 84 255 0
6.726811 -12.950419 1.97 84 255 0
6.775502 -12.898911 2.083 84 255 0
6.774073 -12.910528 1.452 84 255 0
6.757462 -12.918899 2.002 84 255 0
6.728173 -12.947747 2.054 84 255 0
6.756537 -12.922916 1.782 84 255 0
6.755209 -12.921119 1.956 84 255 0
6.720052 -12.957077 2.004 84 255 0
6.756537 -12.922916 1.833 84 255 0
6.747525 -12.931793 1.788 84 255 0
6.770021 -12.914075 1.49 84 255 0
6.753864 -12.921555 2.056 84 255 0
6.744398 -12.931322 2.057 84 255 0
6.762405 -12.915806 1.899 84 255 0
6.74845 -12.927775 2.027 84 255 0
6.76506 -12.919403 1.504 84 255 0
6.743439 -12.939813 1.556 84 255 0
6.758302 -12.926062 1.517 84 255 0
6.766457 -12.912258 1.79 84 255 0
6.724121 -12.951294 2.075 84 255 0
6.774476 -12.916345 1.028 84 255 0
6.717816 -12.95706 2.068 84 255 0
6.753813 -12.928264 1.613 84 255 0
6.764237 -12.910006 2.069 84 255 0
6.776394 -12.899364 2.003 84 255 0
6.77809 -12.911453 1.153 84 255 0
6.776797 -12.905182 1.626 84 255 0
6.751577 -12.928246 1.76 84 255 0
6.743506 -12.930868 2.097 84 255 0
6.757848 -12.926952 1.419 84 255 0
6.756032 -12.930517 1.353 84 255 0
6.765935 -12.922094 1.213 84 255 0
6.7619 -12.923405 1.433 84 255 0
6.738076 -12.939324 1.898 84 255 0
6.771383 -12.911403 1.578 84 255 0
6.75072 -12.92332 2.101 84 255 0
6.776712 -12.916362 0.923 84 255 0
6.733571 -12.943763 1.905 84 255 0
6.760623 -12.914898 2.042 84 255 0
6.746617 -12.933576 1.716 84 255 0
6.774998 -12.906509 1.68 84 255 0
6.75963 -12.92786 1.313 84 255 0
6.760118 -12.922497 1.551 84 255 0
6.768239 -12.913167 1.606 84 255 0
6.758319 -12.923824 1.619 84 255 0
6.747491 -12.936266 1.489 84 255 0
6.759243 -12.919806 1.834 84 255 0
6.76506 -12.919403 1.446 84 255 0
6.770054 -12.909603 1.766 84 255 0
6.773619 -12.911419 1.442 84 255 0
6.757462 -12.918899 1.976 84 255 0
6.756973 -12.924262 1.659 84 255 0
6.759697 -12.918917 1.835 84 255 0
6.76686 -12.918076 1.41 84 255 0
6.762439 -12.911334 2.103 84 255 0
6.770424 -12.919891 1.146 84 255 0
6.726811 -12.950419 1.925 84 255 0
6.758824 -12.916225 2.023 84 255 0
6.743002 -12.938467 1.627 84 255 0
6.76506 -12.919403 1.446 84 255 0
6.767348 -12.912713 1.762 84 255 0
6.747559 -12.927321 2.047 84 255 0
6.762405 -12.915806 1.804 84 255 0
6.766877 -12.91584 1.54 84 255 0
6.76464 -12.915823 1.712 84 255 0
6.734932 -12.94109 2.001 84 255 0
6.772745 -12.90873 1.667 84 255 0
6.772308 -12.907384 1.741 84 255 0
6.742565 -12.937121 1.767 84 255 0
6.756537 -12.922916 1.816 84 255 0
6.747054 -12.93492 1.666 84 255 0
6.760135 -12.920261 1.743 84 255 0
6.772745 -12.90873 1.595 84 255 0
6.72007 -12.954841 2.067 84 255 0
6.739892 -12.93576 2.035 84 255 0
6.757394 -12.927843 1.452 84 255 0
6.758369 -12.917117 2.068 84 255 0
6.747491 -12.936266 1.547 84 255 0
6.740295 -12.941577 1.624 84 255 0
6.780361 -12.906998 1.213 84 255 0
6.777705 -12.9034 1.677 84 255 0
6.728627 -12.946856 2.051 84 255 0
6.750703 -12.925556 1.938 84 255 0
6.766406 -12.918967 1.364 84 255 0
6.76602 -12.910914 1.945 84 255 0
6.765548 -12.914042 1.815 84 255 0
6.750215 -12.93092 1.665 84 255 0
6.726811 -12.950419 1.918 84 255 0
6.764204 -12.914478 1.856 84 255 0
6.749358 -12.925993 1.995 84 255 0
6.768188 -12.919875 1.274 84 255 0
6.767768 -12.916294 1.448 84 255 0
6.772274 -12.911857 1.436 84 255 0
6.780831 -12.903871 1.443 84 255 0
6.766406 -12.918967 1.392 84 255 0
6.752905 -12.930045 1.523 84 255 0
6.761463 -12.92206 1.56 84 255 0
6.769095 -12.918094 1.246 84 255 0
6.729535 -12.945074 2.102 84 255 0
6.745726 -12.933122 1.806 84 255 0
6.764237 -12.910006 2.093 84 255 0
6.748399 -12.934484 1.604 84 255 0
6.718724 -12.955277 2.108 84 255 0
6.771366 -12.913638 1.444 84 255 0
6.756117 -12.919336 2.044 84 255 0
6.764574 -12.924767 1.171 84 255 0
6.777233 -12.906528 1.49 84 255 0
6.778159 -12.902509 1.64 84 255 0
6.776291 -12.912781 1.209 84 255 0
6.760538 -12.926078 1.34 84 255 0
6.773602 -12.913654 1.25 84 255 0
6.730409 -12.947763 1.838 84 255 0
6.777217 -12.908763 1.379 84 255 0
6.738513 -12.940669 1.809 84 255 0
6.778579 -12.90609 1.457 84 255 0
6.765532 -12.916277 1.579 84 255 0
6.764187 -12.916714 1.683 84 255 0
6.758285 -12.928297 1.304 84 255 0
6.778999 -12.909671 1.151 84 255 0
6.762336 -12.92475 1.303 84 255 0
6.748853 -12.933593 1.607 84 255 0
6.763279 -12.918495 1.652 84 255 0
6.728156 -12.949983 1.867 84 255 0
6.777705 -12.9034 1.657 84 255 0
6.775015 -12.904274 1.796 84 255 0
6.759261 -12.917571 1.975 84 255 0
6.773602 -12.913654 1.27 84 255 0
6.761513 -12.915352 1.971 84 255 0
6.76913 -12.913621 1.547 84 255 0
6.758302 -12.926062 1.514 84 255 0
6.743944 -12.932214 2.029 84 255 0
6.760623 -12.914898 1.986 84 255 0
6.765112 -12.912696 1.924 84 255 0
6.761059 -12.916243 1.872 84 255 0
6.765548 -12.914042 1.753 84 255 0
6.774055 -12.912765 1.334 84 255 0
6.759681 -12.921152 1.684 84 255 0
6.757831 -12.929188 1.297 84 255 0
6.749324 -12.930465 1.728 84 255 0
6.771349 -12.915874 1.26 84 255 0
6.755663 -12.920227 1.99 84 255 0
6.745255 -12.936248 1.656 84 255 0
6.734915 -12.943326 1.883 84 255 0
6.774509 -12.911873 1.353 84 255 0
6.767734 -12.920766 1.24 84 255 0
6.769079 -12.920329 1.148 84 255 0
6.745709 -12.935358 1.696 84 255 0
6.771785 -12.917219 1.164 84 255 0
6.774947 -12.913218 1.265 84 255 0
6.751559 -12.930483 1.632 84 255 0
6.736243 -12.945125 1.723 84 255 0
6.743002 -12.938467 1.681 84 255 0
6.768625 -12.92122 1.158 84 255 0
6.752973 -12.921101 2.103 84 255 0
6.764675 -12.91135 2.026 84 255 0
6.757865 -12.924716 1.611 84 255 0
6.770424 -12.919891 1.096 84 255 0
6.778175 -12.900272 1.809 84 255 0
6.778528 -12.912799 1.05 84 255 0
6.748416 -12.932247 1.687 84 255 0
6.752905 -12.930045 1.528 84 255 0
6.723213 -12.953076 1.983 84 255 0
6.724558 -12.952639 1.969 84 255 0
6.770021 -12.914075 1.46 84 255 0
6.733099 -12.94689 1.768 84 255 0
6.76506 -12.919403 1.496 84 255 0
6.72096 -12.955295 2.027 84 255 0
6.771366 -12.913638 1.407 84 255 0
6.765514 -12.918513 1.496 84 255 0
6.739404 -12.941123 1.771 84 255 0
6.733116 -12.944654 1.907 84 255 0
6.770946 -12.910057 1.661 84 255 0
6.773653 -12.906947 1.733 84 255 0
6.751577 -12.928246 1.795 84 255 0
6.778982 -12.911907 1.076 84 255 0
6.72365 -12.95442 1.925 84 255 0
6.778579 -12.90609 1.407 84 255 0
6.760135 -12.920261 1.712 84 255 0
6.736731 -12.939761 1.948 84 255 0
6.726811 -12.950419 1.915 84 255 0
6.736697 -12.944234 1.727 84 255 0
6.755209 -12.921119 1.939 84 255 0
6.775939 -12.900256 1.965 84 255 0
6.753829 -12.926027 1.723 84 255 0
6.765481 -12.922985 1.231 84 255 0
6.749778 -12.929574 1.753 84 255 0
6.74929 -12.934937 1.516 84 255 0
6.721868 -12.953512 2.052 84 255 0
6.757411 -12.925608 1.606 84 255 0
6.763228 -12.925204 1.238 84 255 0
6.751559 -12.930483 1.621 84 255 0
6.770458 -12.91542 1.388 84 255 0
6.750249 -12.926448 1.916 84 255 0
6.770877 -12.919002 1.118 84 255 0
6.770475 -12.913184 1.485 84 255 0
6.764119 -12.925658 1.175 84 255 0
6.766457 -12.912258 1.84 84 255 0
6.759647 -12.925624 1.427 84 255 0
6.769164 -12.909149 1.825 84 255 0
6.752485 -12.926464 1.822 84 255 0
6.751594 -12.92601 1.913 84 255 0
6.772711 -12.913201 1.397 84 255 0
6.765952 -12.919858 1.385 84 255 0
6.775383 -12.914562 1.105 84 255 0
6.765935 -12.922094 1.204 84 255 0
6.738042 -12.943796 1.65 84 255 0
6.739892 -12.93576 1.998 84 255 0
6.778999 -12.909671 1.158 84 255 0
6.7696 -12.910494 1.697 84 255 0
6.763244 -12.922968 1.37 84 255 0
6.770458 -12.91542 1.395 84 255 0
6.732225 -12.9442 1.975 84 255 0
6.751997 -12.931828 1.491 84 255 0
6.753393 -12.924683 1.906 84 255 0
6.767717 -12.923002 1.091 84 255 0
6.770946 -12.910057 1.671 84 255 0
6.750198 -12.933155 1.508 84 255 0
6.779957 -12.90118 1.618 84 255 0
6.765935 -12.922094 1.218 84 255 0
6.77989 -12.910126 1.123 84 255 0
6.775032 -12.902038 1.887 84 255 0
6.757008 -12.91979 1.945 84 255 0
6.769584 -12.91273 1.569 84 255 0
6.762371 -12.920279 1.542 84 255 0
6.756537 -12.922916 1.807 84 255 0
6.756486 -12.929626 1.335 84 255 0
6.763296 -12.91626 1.784 84 255 0
6.763783 -12.910896 2.059 84 255 0
6.746651 -12.929103 2.07 84 255 0
6.76871 -12.910041 1.852 84 255 0
6.751577 -12.928246 1.765 84 255 0
6.755209 -12.921119 1.941 84 255 0
6.735806 -12.94378 1.799 84 255 0
6.750232 -12.928683 1.819 84 255 0
6.748904 -12.926885 1.996 84 255 0
6.730409 -12.947763 1.851 84 255 0
6.772274 -12.911857 1.493 84 255 0
6.758773 -12.922935 1.672 84 255 0
6.774527 -12.909637 1.489 84 255 0
6.765027 -12.923877 1.15 84 255 0
6.764221 -12.912242 1.96 84 255 0
6.714655 -12.961061 2.107 84 255 0
6.761984 -12.912226 2.095 84 255 0
6.762791 -12.923859 1.346 84 255 0
6.762388 -12.918042 1.753 84 255 0
6.762388 -12.918042 1.694 84 255 0
6.774527 -12.909637 1.454 84 255 0
6.746634 -12.931339 1.906 84 255 0
6.7466 -12.935811 1.635 84 255 0
6.743036 -12.933995 1.976 84 255 0
6.730426 -12.945527 2.052 84 255 0
6.774578 -12.902928 1.899 84 255 0
6.759732 -12.914444 2.079 84 255 0
6.76506 -12.919403 1.444 84 255 0
6.777199 -12.910998 1.222 84 255 0
6.739438 -12.936651 2.04 84 255 0
6.770038 -12.911839 1.624 84 255 0
6.742111 -12.938013 1.758 84 255 0
6.731771 -12.94509 1.988 84 255 0
6.779907 -12.907889 1.256 84 255 0
6.757479 -12.916663 2.098 84 255 0
6.771837 -12.910511 1.552 84 255 0
6.76148 -12.919825 1.705 84 255 0
6.763766 -12.913134 1.969 84 255 0
6.742582 -12.934886 1.953 84 255 0
6.77678 -12.907417 1.465 84 255 0
6.747088 -12.930449 1.892 84 255 0
6.776343 -12.906074 1.584 84 255 0
6.756957 -12.926498 1.573 84 255 0
6.778141 -12.904744 1.5 84 255 0
6.760572 -12.921606 1.601 84 255 0
6.768676 -12.914512 1.507 84 255 0
6.771904 -12.901567 2.1 84 255 0
6.759192 -12.926516 1.392 84 255 0
6.770475 -12.913184 1.547 84 255 0
6.727265 -12.949529 1.986 84 255 0
6.738984 -12.937543 1.975 84 255 0
6.768256 -12.910931 1.773 84 255 0
6.777183 -12.913235 1.063 84 255 0
6.749778 -12.929574 1.805 84 255 0
6.774947 -12.913218 1.244 84 255 0
6.777285 -12.899819 1.939 84 255 0
6.76195 -12.916698 1.798 84 255 0
6.735823 -12.941543 1.906 84 255 0
6.768221 -12.915403 1.519 84 255 0
6.769113 -12.915857 1.452 84 255 0
6.753359 -12.929154 1.546 84 255 0
6.764675 -12.91135 1.942 84 255 0
6.741254 -12.933087 2.077 84 255 0
6.74845 -12.927775 1.949 84 255 0
6.763716 -12.919841 1.514 84 255 0
6.724104 -12.953529 1.918 84 255 0
6.756991 -12.922027 1.856 84 255 0
6.761463 -12.92206 1.488 84 255 0
6.778579 -12.90609 1.453 84 255 0
6.774509 -12.911873 1.312 84 255 0
6.739404 -12.941123 1.743 84 255 0
6.756083 -12.923808 1.754 84 255 0
6.74618 -12.93223 1.875 84 255 0
6.736731 -12.939761 2.027 84 255 0
6.726828 -12.948183 2.071 84 255 0
6.747945 -12.935374 1.555 84 255 0
6.783068 -12.903889 1.33 84 255 0
6.76871 -12.910041 1.774 84 255 0
6.757462 -12.918899 1.98 84 255 0
6.726357 -12.951311 1.934 84 255 0
6.777654 -12.910108 1.266 84 255 0
6.749324 -12.930465 1.759 84 255 0
6.7619 -12.923405 1.421 84 255 0
6.766894 -12.913604 1.697 84 255 0
6.724104 -12.953529 1.952 84 255 0
6.779469 -12.906544 1.328 84 255 0
6.74845 -12.927775 1.995 84 255 0
6.753341 -12.931391 1.504 84 255 0
6.739421 -12.938888 1.831 84 255 0
6.738966 -12.939778 1.825 84 255 0
6.760169 -12.91579 1.988 84 255 0
6.732208 -12.946436 1.856 84 255 0
6.777166 -12.915471 0.98 84 255 0
6.739421 -12.938888 1.859 84 255 0
6.737151 -12.943342 1.729 84 255 0
6.734478 -12.94198 2.012 84 255 0
6.760169 -12.91579 1.992 84 255 0
6.728173 -12.947747 2.0 84 255 0
6.742128 -12.935778 1.912 84 255 0
6.772711 -12.913201 1.407 84 255 0
6.741691 -12.934432 2.027 84 255 0
6.767365 -12.910477 1.852 84 255 0
6.750215 -12.93092 1.656 84 255 0
6.765952 -12.919858 1.352 84 255 0
6.779033 -12.905198 1.485 84 255 0
6.747071 -12.932685 1.755 84 255 0
6.765583 -12.909569 2.038 84 255 0
6.751594 -12.92601 1.883 84 255 0
6.770962 -12.907821 1.841 84 255 0
6.753376 -12.926918 1.752 84 255 0
6.760151 -12.918025 1.864 84 255 0
6.765498 -12.920749 1.388 84 255 0
6.767802 -12.911822 1.783 84 255 0
6.74122 -12.937559 1.862 84 255 0
6.753779 -12.932735 1.347 84 255 0
6.770475 -12.913184 1.494 84 255 0
6.757865 -12.924716 1.601 84 255 0
6.757025 -12.917555 2.059 84 255 0
6.779923 -12.905652 1.379 84 255 0
6.73399 -12.947344 1.733 84 255 0
6.749307 -12.932701 1.594 84 255 0
6.762808 -12.921623 1.473 84 255 0
6.753341 -12.931391 1.455 84 255 0
6.759681 -12.921152 1.708 84 255 0
6.763262 -12.920732 1.499 84 255 0
6.73895 -12.942015 1.687 84 255 0
6.764606 -12.920295 1.419 84 255 0
6.757411 -12.925608 0.032 84 255 0
6.741538 -12.954556 0.05 84 255 0
6.742899 -12.951883 0.039 84 255 0
6.741992 -12.953665 0.039 84 255 0
6.746078 -12.945646 0.034 84 255 0
6.786194 -12.904359 1.078 84 255 0
6.779872 -12.912361 1.005 84 255 0
6.784412 -12.903451 1.239 84 255 0
6.778982 -12.911907 1.064 84 255 0
6.780798 -12.908343 1.134 84 255 0
6.780798 -12.908343 1.134 84 255 0
6.784379 -12.907923 1.002 84 255 0
6.78078 -12.910579 1.051 84 255 0
6.784412 -12.903451 1.21 84 255 0
6.780327 -12.911469 0.999 84 255 0
6.778982 -12.911907 1.006 84 255 0
6.783958 -12.904342 1.235 84 255 0
6.784379 -12.907923 1.017 84 255 0
6.782614 -12.904778 1.253 84 255 0
6.783034 -12.90836 0.997 84 255 0
6.77762 -12.91458 0.954 84 255 0
6.784832 -12.907032 1.028 84 255 0
6.787086 -12.904813 1.026 84 255 0
6.783051 -12.906124 1.172 84 255 0
6.778074 -12.913689 0.998 84 255 0
6.778982 -12.911907 1.061 84 255 0
6.783488 -12.907469 1.049 84 255 0
6.786194 -12.904359 1.09 84 255 0
6.783504 -12.905232 1.172 84 255 0
6.778511 -12.915034 0.93 84 255 0
6.778528 -12.912799 1.005 84 255 0
6.778074 -12.913689 0.977 84 255 0
6.603083 -13.283559 1.775 84 255 0
6.646064 -13.159556 2.035 84 255 0
6.576531 -13.364305 1.825 84 255 0
6.555041 -13.426307 1.843 84 255 0
6.625919 -13.221121 1.997 84 255 0
6.675341 -13.073463 2.055 84 255 0
6.535838 -13.481617 1.664 84 255 0
6.51117 -13.549854 1.475 84 255 0
6.577859 -13.366104 2.105 84 255 0
6.558253 -13.415597 1.722 84 255 0
6.525328 -13.511054 1.621 84 255 0
6.611273 -13.265285 2.13 84 255 0
6.524874 -13.511945 1.582 84 255 0
6.666193 -13.100227 2.061 84 255 0
6.471367 -13.667621 1.421 84 255 0
6.668933 -13.092645 2.033 84 255 0
6.571941 -13.379923 1.918 84 255 0
6.550031 -13.438343 1.69 84 255 0
6.58341 -13.341996 1.845 84 255 0
6.626356 -13.222465 2.158 84 255 0
6.657045 -13.126991 2.006 84 255 0
6.645123 -13.16581 2.111 84 255 0
6.533096 -13.489199 1.673 84 255 0
6.56878 -13.383924 1.766 84 255 0
6.569233 -13.383034 1.77 84 255 0
6.559127 -13.418287 1.934 84 255 0
6.514818 -13.540491 1.565 84 255 0
6.606715 -13.27643 1.985 84 255 0
6.659332 -13.1203 2.012 84 255 0
6.456738 -13.709549 1.275 84 255 0
6.652471 -13.140373 1.924 84 255 0
6.69409 -13.019044 2.05 84 255 0
6.570107 -13.385723 2.057 84 255 0
6.563281 -13.401324 1.724 84 255 0
6.651563 -13.142156 1.906 84 255 0
6.559127 -13.418287 1.933 84 255 0
6.667101 -13.098446 2.032 84 255 0
6.617259 -13.242521 1.908 84 255 0
6.560507 -13.413378 1.951 84 255 0
6.623212 -13.22423 1.877 84 255 0
6.57517 -13.366978 1.827 84 255 0
6.631872 -13.202829 1.999 84 255 0
6.492404 -13.60651 1.434 84 255 0
6.598947 -13.298285 1.86 84 255 0
6.663435 -13.110045 2.093 84 255 0
6.566039 -13.391506 1.755 84 255 0
6.56878 -13.383924 1.754 84 255 0
6.546819 -13.449052 1.677 84 255 0
6.50108 -13.582873 1.501 84 255 0
6.656574 -13.130118 2.001 84 255 0
6.508865 -13.558783 1.461 84 255 0
6.624086 -13.22692 2.132 84 255 0
6.542682 -13.463779 1.868 84 255 0
6.597988 -13.306776 2.156 84 255 0
6.596626 -13.309449 2.064 84 255 0
6.616335 -13.246539 1.891 84 255 0
6.523932 -13.518199 1.708 84 255 0
6.571975 -13.375451 1.779 84 255 0
6.614973 -13.249212 1.894 84 255 0
6.46681 -13.678766 1.272 84 255 0
6.524858 -13.514181 1.747 84 255 0
6.450802 -13.725604 1.238 84 255 0
6.662981 -13.110936 2.125 84 255 0
6.563718 -13.402669 1.848 84 255 0
6.62 -13.234939 1.904 84 255 0
6.583375 -13.346468 2.069 84 255 0
6.57564 -13.363851 1.731 84 255 0
6.504292 -13.572165 1.545 84 255 0
6.611761 -13.259921 1.915 84 255 0
6.565131 -13.393289 1.685 84 255 0
6.528036 -13.507943 1.765 84 255 0
6.563298 -13.399088 1.693 84 255 0
6.516652 -13.534691 1.527 84 255 0
6.603504 -13.287139 2.094 84 255 0
6.671691 -13.082828 1.995 84 255 0
6.591161 -13.322376 1.935 84 255 0
6.57702 -13.358942 1.712 84 255 0
6.561936 -13.401761 1.632 84 255 0
6.646972 -13.157774 2.036 84 255 0
6.51798 -13.53649 1.701 84 255 0
6.578364 -13.358505 1.776 84 255 0
6.596206 -13.305868 1.922 84 255 0
6.619563 -13.233595 1.79 84 255 0
6.602629 -13.284449 1.797 84 255 0
6.569252 -13.380796 1.631 84 255 0
6.535367 -13.484744 1.714 84 255 0
6.62824 -13.209957 1.84 84 255 0
6.597114 -13.304086 1.909 84 255 0
6.595718 -13.311231 2.144 84 255 0
6.542682 -13.463779 1.875 84 255 0
6.535367 -13.484744 1.797 84 255 0
6.548651 -13.443253 1.698 84 255 0
6.573354 -13.370542 1.666 84 255 0
6.6369 -13.188556 2.07 84 255 0
6.591582 -13.325957 2.141 84 255 0
6.642398 -13.171156 2.022 84 255 0
6.58018 -13.35494 1.978 84 255 0
6.576095 -13.362959 1.745 84 255 0
6.673525 -13.077027 1.996 84 255 0
6.595281 -13.309885 1.984 84 255 0
6.585696 -13.335305 1.797 84 255 0
6.5372 -13.478944 1.819 84 255 0
6.629601 -13.207284 1.931 84 255 0
6.452163 -13.722931 1.217 84 255 0
6.622253 -13.23272 2.153 84 255 0
6.515709 -13.540945 1.689 84 255 0
6.598022 -13.302304 1.984 84 255 0
6.566964 -13.387487 1.652 84 255 0
6.56508 -13.399996 1.925 84 255 0
6.542211 -13.466907 1.823 84 255 0
6.637824 -13.184538 1.927 84 255 0
6.602629 -13.284449 1.764 84 255 0
6.540412 -13.468235 1.643 84 255 0
6.591127 -13.326849 2.11 84 255 0
6.567367 -13.393305 1.92 84 255 0
6.440745 -13.75415 1.188 84 255 0
6.458116 -13.70464 1.321 84 255 0
6.577894 -13.361631 2.018 84 255 0
6.571924 -13.382158 2.076 84 255 0
6.524404 -13.515072 1.59 84 255 0
6.517542 -13.535145 1.615 84 255 0
6.58615 -13.334414 1.74 84 255 0
6.611289 -13.263048 2.048 84 255 0
6.656574 -13.130118 2.094 84 255 0
6.657045 -13.126991 1.988 84 255 0
6.58657 -13.337995 1.983 84 255 0
6.538562 -13.476271 1.862 84 255 0
6.542698 -13.461544 1.756 84 255 0
6.529448 -13.498563 1.616 84 255 0
6.599889 -13.292031 1.739 84 255 0
6.564677 -13.394179 1.669 84 255 0
6.615427 -13.248322 1.81 84 255 0
6.629131 -13.210411 1.944 84 255 0
6.646502 -13.160901 2.061 84 255 0
6.552721 -13.437469 1.975 84 255 0
6.50293 -13.574837 1.456 84 255 0
6.53081 -13.49589 1.663 84 255 0
6.596189 -13.308104 1.986 84 255 0
6.508412 -13.559672 1.562 84 255 0
6.554116 -13.430325 1.851 84 255 0
6.593448 -13.315686 2.002 84 255 0
6.571941 -13.379923 2.029 84 255 0
6.53308 -13.491435 1.774 84 255 0
6.567838 -13.390179 1.909 84 255 0
6.513894 -13.544509 1.632 84 255 0
6.548215 -13.441907 1.574 84 255 0
6.583358 -13.348703 2.117 84 255 0
6.509808 -13.552527 1.419 84 255 0
6.502459 -13.577964 1.494 84 255 0
6.684034 -13.047589 2.037 84 255 0
6.60532 -13.283575 2.141 84 255 0
6.570107 -13.385723 1.957 84 255 0
6.525311 -13.51329 1.617 84 255 0
6.655666 -13.131901 2.018 84 255 0
6.614467 -13.256811 2.157 84 255 0
6.615427 -13.248322 1.917 84 255 0
6.538142 -13.47269 1.6 84 255 0
6.563735 -13.400434 1.731 84 255 0
6.594356 -13.313904 1.929 84 255 0
6.590673 -13.32774 2.161 84 255 0
6.627735 -13.217556 2.103 84 255 0
6.613089 -13.261721 2.152 84 255 0
6.582484 -13.346014 1.903 84 255 0
6.582047 -13.344669 1.719 84 255 0
6.689062 -13.033318 2.024 84 255 0
6.555495 -13.425415 1.736 84 255 0
6.548635 -13.445488 1.775 84 255 0
6.578364 -13.358505 1.891 84 255 0
6.644686 -13.164465 1.996 84 255 0
6.476849 -13.652456 1.446 84 255 0
6.576112 -13.360723 1.653 84 255 0
6.526236 -13.509272 1.668 84 255 0
6.57971 -13.358068 1.999 84 255 0
6.582888 -13.35183 2.17 84 255 0
6.649714 -13.150192 1.992 84 255 0
6.512061 -13.550309 1.62 84 255 0
6.618117 -13.247447 2.153 84 255 0
6.460386 -13.700185 1.326 84 255 0
6.566005 -13.395978 1.818 84 255 0
6.508395 -13.561909 1.652 84 255 0
6.464052 -13.688584 1.311 84 255 0
6.529414 -13.503035 1.719 84 255 0
6.637808 -13.186774 2.094 84 255 0
6.53582 -13.483852 1.865 84 255 0
6.521208 -13.523544 1.676 84 255 0
6.541303 -13.468689 1.795 84 255 0
6.581576 -13.347795 1.833 84 255 0
6.590707 -13.323267 1.94 84 255 0
6.637353 -13.187665 2.046 84 255 0
6.613576 -13.256357 1.961 84 255 0
6.52257 -13.520872 1.74 84 255 0
6.527127 -13.509727 1.774 84 255 0
6.515709 -13.540945 1.621 84 255 0
6.619075 -13.238957 1.92 84 255 0
6.457208 -13.706422 1.287 84 255 0
6.582468 -13.348249 2.007 84 255 0
6.64376 -13.168483 2.037 84 255 0
6.592103 -13.316122 1.788 84 255 0
6.665739 -13.101119 2.011 84 255 0
6.591598 -13.323721 2.08 84 255 0
6.642836 -13.172501 2.119 84 255 0
6.485105 -13.625238 1.374 84 255 0
6.591598 -13.323721 2.02 84 255 0
6.551409 -13.433434 1.649 84 255 0
6.659769 -13.121646 2.061 84 255 0
6.548163 -13.448615 1.833 84 255 0
6.605337 -13.28134 2.08 84 255 0
6.593464 -13.31345 1.886 84 255 0
6.58018 -13.35494 1.979 84 255 0
6.54179 -13.463326 1.731 84 255 0
6.569671 -13.384378 1.823 84 255 0
6.597096 -13.306321 1.985 84 255 0
6.535872 -13.477145 1.5 84 255 0
6.59893 -13.300521 2.038 84 255 0
6.64376 -13.168483 2.077 84 255 0
6.507924 -13.565036 1.669 84 255 0
6.666646 -13.099337 1.964 84 255 0
6.667117 -13.09621 1.966 84 255 0
6.507941 -13.5628 1.653 84 255 0
6.620454 -13.234048 1.942 84 255 0
6.527598 -13.506598 1.768 84 255 0
6.673491 -13.0815 2.072 84 255 0
6.644248 -13.163119 1.91 84 255 0
6.575624 -13.366087 1.759 84 255 0
6.485105 -13.625238 1.38 84 255 0
6.443033 -13.747459 1.222 84 255 0
6.650621 -13.14841 2.096 84 255 0
6.703238 -12.99228 2.1 84 255 0
6.552754 -13.432998 1.815 84 255 0
6.51618 -13.537818 1.574 84 255 0
6.566913 -13.394197 1.997 84 255 0
6.603538 -13.282667 1.876 84 255 0
6.675323 -13.075699 2.095 84 255 0
6.599838 -13.298739 2.141 84 255 0
6.572899 -13.371433 1.718 84 255 0
6.480515 -13.640857 1.485 84 255 0
6.669859 -13.088628 2.015 84 255 0
6.598476 -13.301413 2.011 84 255 0
6.555024 -13.428543 1.969 84 255 0
6.601217 -13.29383 2.04 84 255 0
6.540899 -13.462872 1.518 84 255 0
6.631418 -13.20372 2.074 84 255 0
6.596642 -13.307213 1.971 84 255 0
6.530339 -13.499016 1.79 84 255 0
6.676703 -13.07079 2.074 84 255 0
6.611307 -13.260813 1.808 84 255 0
6.556857 -13.422742 1.896 84 255 0
6.464523 -13.685457 1.282 84 255 0
6.600292 -13.297849 2.062 84 255 0
6.597114 -13.304086 1.993 84 255 0
6.647444 -13.154647 1.884 84 255 0
6.666193 -13.100227 1.989 84 255 0
6.590707 -13.323267 1.986 84 255 0
6.531264 -13.494999 1.741 84 255 0
6.660711 -13.115392 2.008 84 255 0
6.622757 -13.225121 1.823 84 255 0
6.532626 -13.492326 1.669 84 255 0
6.674887 -13.074355 2.06 84 255 0
6.635084 -13.19212 1.989 84 255 0
6.568746 -13.388395 1.941 84 255 0
6.609473 -13.266612 1.912 84 255 0
6.577894 -13.361631 1.945 84 255 0
6.485071 -13.62971 1.501 84 255 0
6.515744 -13.536472 1.44 84 255 0
6.510699 -13.552982 1.492 84 255 0
6.564155 -13.404015 1.985 84 255 0
6.625902 -13.223356 2.156 84 255 0
6.510699 -13.552982 1.5 84 255 0
6.672583 -13.083282 2.109 84 255 0
6.515255 -13.541836 1.685 84 255 0
6.515727 -13.538709 1.624 84 255 0
6.582956 -13.342887 1.72 84 255 0
6.628677 -13.211302 2.043 84 255 0
6.668479 -13.093536 2.024 84 255 0
6.652908 -13.141719 2.092 84 255 0
6.484634 -13.628366 1.408 84 255 0
6.507504 -13.561455 1.425 84 255 0
6.649276 -13.148847 1.898 84 255 0
6.559144 -13.416051 1.945 84 255 0
6.448514 -13.732294 1.243 84 255 0
6.590253 -13.324159 1.842 84 255 0
6.663906 -13.106918 2.005 84 255 0
6.573303 -13.377251 2.035 84 255 0
6.566005 -13.395978 1.88 84 255 0
6.503384 -13.573946 1.542 84 255 0
6.53994 -13.471362 1.841 84 255 0
6.64788 -13.155993 2.023 84 255 0
6.667572 -13.095318 2.011 84 255 0
6.522553 -13.523108 1.76 84 255 0
6.589816 -13.322813 1.701 84 255 0
6.587478 -13.336213 2.157 84 255 0
6.633688 -13.199265 2.075 84 255 0
6.608111 -13.269285 1.777 84 255 0
6.521679 -13.520418 1.456 84 255 0
6.519375 -13.529346 1.546 84 255 0
6.646972 -13.157774 2.092 84 255 0
6.628206 -13.214429 2.12 84 255 0
6.657953 -13.12521 2.047 84 255 0
6.547273 -13.448162 1.703 84 255 0
6.637353 -13.187665 2.1 84 255 0
6.545877 -13.455307 1.825 84 255 0
6.505653 -13.569491 1.636 84 255 0
6.564609 -13.403123 1.984 84 255 0
6.537183 -13.481179 1.801 84 255 0
6.433885 -13.774223 1.15 84 255 0
6.580617 -13.356286 2.09 84 255 0
6.67946 -13.060971 2.031 84 255 0
6.580668 -13.349577 1.753 84 255 0
6.609473 -13.266612 1.957 84 255 0
6.581055 -13.357631 2.168 84 255 0
6.62866 -13.213538 2.069 84 255 0
6.565534 -13.399105 2.052 84 255 0
6.567349 -13.395541 2.064 84 255 0
6.542715 -13.459308 1.605 84 255 0
6.454904 -13.715348 1.266 84 255 0
6.614939 -13.253684 2.053 84 255 0
6.574228 -13.373232 1.943 84 255 0
6.573303 -13.377251 2.014 84 255 0
6.614484 -13.254576 1.978 84 255 0
6.534459 -13.486526 1.805 84 255 0
6.554571 -13.429433 1.942 84 255 0
6.539487 -13.472252 1.761 84 255 0
6.557748 -13.423196 1.989 84 255 0
6.521662 -13.522654 1.671 84 255 0
6.558691 -13.416943 1.869 84 255 0
6.674887 -13.074355 2.051 84 255 0
6.608531 -13.272866 2.028 84 255 0
6.57702 -13.358942 1.645 84 255 0
6.618133 -13.245211 2.06 84 255 0
6.581072 -13.355394 2.077 84 255 0
6.541807 -13.461089 1.52 84 255 0
6.471367 -13.667621 1.319 84 255 0
6.605353 -13.279103 1.846 84 255 0
6.47367 -13.658693 1.342 84 255 0
6.568746 -13.388395 1.997 84 255 0
6.612215 -13.25903 1.853 84 255 0
6.621328 -13.236738 2.104 84 255 0
6.546365 -13.449944 1.673 84 255 0
6.536728 -13.482071 1.848 84 255 0
6.529885 -13.499907 1.715 84 255 0
6.478245 -13.645311 1.308 84 255 0
6.452163 -13.722931 1.237 84 255 0
6.667101 -13.098446 2.01 84 255 0
6.688591 -13.036445 2.077 84 255 0
6.575589 -13.37056 1.972 84 255 0
6.580651 -13.351814 1.934 84 255 0
6.581996 -13.351377 2.074 84 255 0
6.518014 -13.532018 1.535 84 255 0
6.564171 -13.401778 1.979 84 255 0
6.595752 -13.306759 1.832 84 255 0
6.636462 -13.187211 1.861 84 255 0
6.557294 -13.424088 1.968 84 255 0
6.620891 -13.235393 1.976 84 255 0
6.566947 -13.389725 1.679 84 255 0
6.552737 -13.435233 1.94 84 255 0
6.582484 -13.346014 1.881 84 255 0
6.520318 -13.52309 1.486 84 255 0
6.602613 -13.286685 1.897 84 255 0
6.47732 -13.649329 1.438 84 255 0
6.574732 -13.365633 1.729 84 255 0
6.491041 -13.609183 1.346 84 255 0
6.653396 -13.136355 1.952 84 255 0
6.503838 -13.573054 1.475 84 255 0
6.484617 -13.630601 1.487 84 255 0
6.570107 -13.385723 1.975 84 255 0
6.588 -13.326378 1.746 84 255 0
6.468643 -13.672967 1.272 84 255 0
6.612669 -13.25814 1.903 84 255 0
6.637808 -13.186774 2.083 84 255 0
6.578818 -13.357614 1.83 84 255 0
6.601671 -13.292939 1.979 84 255 0
6.572395 -13.379032 1.959 84 255 0
6.499281 -13.584201 1.438 84 255 0
6.581996 -13.351377 2.109 84 255 0
6.512078 -13.548073 1.548 84 255 0
6.65797 -13.122973 1.974 84 255 0
6.490587 -13.610074 1.38 84 255 0
6.625448 -13.224247 2.154 84 255 0
6.558724 -13.41247 1.678 84 255 0
6.557311 -13.421851 1.894 84 255 0
6.57517 -13.366978 1.822 84 255 0
6.536309 -13.478489 1.575 84 255 0
6.591178 -13.320141 1.776 84 255 0
6.537654 -13.478053 1.759 84 255 0
6.499718 -13.585546 1.586 84 255 0
6.615443 -13.246085 1.808 84 255 0
6.498356 -13.588219 1.373 84 255 0
6.494691 -13.599819 1.488 84 255 0
6.655195 -13.135028 2.133 84 255 0
6.595752 -13.306759 1.829 84 255 0
6.595315 -13.305413 1.801 84 255 0
6.560523 -13.411142 1.756 84 255 0
6.627752 -13.21532 2.068 84 255 0
6.576548 -13.362069 1.754 84 255 0
6.530356 -13.49678 1.617 84 255 0
6.463615 -13.68724 1.273 84 255 0
6.506596 -13.563236 1.417 84 255 0
6.653851 -13.135465 1.947 84 255 0
6.475941 -13.654239 1.376 84 255 0
6.582484 -13.346014 1.783 84 255 0
6.506579 -13.565474 1.531 84 255 0
6.572395 -13.379032 2.005 84 255 0
6.518484 -13.528891 1.506 84 255 0
6.50705 -13.562346 1.456 84 255 0
6.566459 -13.395087 1.849 84 255 0
6.560052 -13.414269 1.864 84 255 0
6.661619 -13.113609 1.93 84 255 0
6.64514 -13.163574 2.092 84 255 0
6.65612 -13.13101 2.014 84 255 0
6.555024 -13.428543 1.859 84 255 0
6.524891 -13.509708 1.527 84 255 0
6.475033 -13.65602 1.385 84 255 0
6.679006 -13.061863 2.045 84 255 0
6.59027 -13.321923 1.762 84 255 0
6.554133 -13.428088 1.707 84 255 0
6.495615 -13.595801 1.446 84 255 0
6.636462 -13.187211 1.885 84 255 0
6.664797 -13.107372 2.114 84 255 0
6.551829 -13.437016 1.791 84 255 0
6.692711 -13.023953 2.079 84 255 0
6.689062 -13.033318 2.081 84 255 0
6.654758 -13.133682 1.932 84 255 0
6.614467 -13.256811 2.118 84 255 0
6.612669 -13.25814 2.013 84 255 0
6.688137 -13.037335 2.056 84 255 0
6.49654 -13.591784 1.377 84 255 0
6.563684 -13.407141 2.05 84 255 0
6.561868 -13.410706 1.952 84 255 0
6.480061 -13.641747 1.337 84 255 0
6.453996 -13.717131 1.249 84 255 0
6.648318 -13.157337 2.132 84 255 0
6.587983 -13.328613 1.843 84 255 0
6.614013 -13.257703 2.047 84 255 0
6.485071 -13.62971 1.495 84 255 0
6.630981 -13.202375 1.945 84 255 0
6.614013 -13.257703 2.047 84 255 0
6.681293 -13.055172 2.009 84 255 0
6.64741 -13.159119 2.145 84 255 0
6.699118 -13.00477 2.069 84 255 0
6.677156 -13.0699 2.075 84 255 0
6.562323 -13.409814 1.967 84 255 0
6.641928 -13.174283 2.021 84 255 0
6.476412 -13.651112 1.341 84 255 0
6.676249 -13.071682 2.074 84 255 0
6.582468 -13.348249 1.928 84 255 0
6.603504 -13.287139 1.984 84 255 0
6.535384 -13.482508 1.682 84 255 0
6.62639 -13.217993 1.99 84 255 0
6.641962 -13.169811 1.926 84 255 0
6.564643 -13.398651 1.746 84 255 0
6.486451 -13.624801 1.51 84 255 0
6.601688 -13.290704 1.925 84 255 0
6.647898 -13.153756 2.034 84 255 0
6.544061 -13.45887 1.695 84 255 0
6.574228 -13.373232 1.973 84 255 0
6.58884 -13.33354 2.17 84 255 0
6.504309 -13.569928 1.47 84 255 0
6.617679 -13.246102 2.057 84 255 0
6.529919 -13.495436 1.506 84 255 0
6.557799 -13.416489 1.677 84 255 0
6.652908 -13.141719 2.125 84 255 0
6.653379 -13.138592 1.995 84 255 0
6.669387 -13.091754 2.05 84 255 0
6.461782 -13.69304 1.29 84 255 0
6.630056 -13.206393 1.952 84 255 0
6.497885 -13.591346 1.498 84 255 0
6.498793 -13.589564 1.562 84 255 0
6.597602 -13.298723 1.724 84 255 0
6.589816 -13.322813 1.746 84 255 0
6.664831 -13.102901 1.962 84 255 0
6.515693 -13.543181 1.721 84 255 0
6.557783 -13.418724 1.81 84 255 0
6.602629 -13.284449 1.786 84 255 0
6.674433 -13.075246 2.049 84 255 0
6.601671 -13.292939 2.049 84 255 0
6.629165 -13.205939 1.827 84 255 0
6.678082 -13.065881 2.101 84 255 0
6.525328 -13.511054 1.536 84 255 0
6.53493 -13.483398 1.561 84 255 0
6.492386 -13.608747 1.541 84 255 0
6.535367 -13.484744 1.827 84 255 0
6.545406 -13.458434 1.919 84 255 0
6.593902 -13.314795 1.953 84 255 0
6.630981 -13.202375 1.855 84 255 0
6.595246 -13.314358 2.167 84 255 0
6.647426 -13.156882 2.051 84 255 0
6.63964 -13.180973 2.028 84 255 0
6.599855 -13.296503 1.98 84 255 0
6.624103 -13.224684 1.917 84 255 0
6.567401 -13.388833 1.765 84 255 0
6.614484 -13.254576 1.977 84 255 0
6.490117 -13.613201 1.409 84 255 0
6.492857 -13.605619 1.562 84 255 0
6.562776 -13.408924 1.992 84 255 0
6.59212 -13.313887 1.701 84 255 0
6.614955 -13.251448 1.865 84 255 0
6.46908 -13.674312 1.385 84 255 0
6.53081 -13.49589 1.673 84 255 0
6.642398 -13.171156 2.088 84 255 0
6.512078 -13.548073 1.419 84 255 0
6.600797 -13.29025 1.809 84 255 0
6.488283 -13.619001 1.504 84 255 0
6.599418 -13.295159 1.76 84 255 0
6.548215 -13.441907 1.56 84 255 0
6.502021 -13.576619 1.421 84 255 0
6.555512 -13.42318 1.759 84 255 0
6.505671 -13.567255 1.462 84 255 0
6.635521 -13.193465 2.05 84 255 0
6.622724 -13.229593 1.985 84 255 0
6.508395 -13.561909 1.666 84 255 0
6.4883 -13.616766 1.424 84 255 0
6.485089 -13.627475 1.399 84 255 0
6.642836 -13.172501 2.076 84 255 0
6.680368 -13.05919 2.127 84 255 0
6.514348 -13.543617 1.516 84 255 0
6.457191 -13.708658 1.265 84 255 0
6.570579 -13.382596 1.872 84 255 0
6.667572 -13.095318 2.015 84 255 0
6.574211 -13.375467 2.095 84 255 0
6.489208 -13.614984 1.457 84 255 0
6.525311 -13.51329 1.72 84 255 0
6.555512 -13.42318 1.643 84 255 0
6.684488 -13.0467 2.02 84 255 0
6.546381 -13.447707 1.552 84 255 0
6.553174 -13.436578 1.983 84 255 0
6.635554 -13.188993 1.925 84 255 0
6.53493 -13.483398 1.613 84 255 0
6.621362 -13.232266 1.933 84 255 0
6.630947 -13.206847 2.073 84 255 0
6.526674 -13.510616 1.772 84 255 0
6.558691 -13.416943 1.81 84 255 0
6.54633 -13.454415 1.88 84 255 0
6.571958 -13.377687 1.84 84 255 0
6.590253 -13.324159 1.937 84 255 0
6.530793 -13.498126 1.708 84 255 0
6.657516 -13.123864 1.923 84 255 0
6.599401 -13.297395 1.994 84 255 0
6.663451 -13.10781 2.003 84 255 0
6.643324 -13.167138 1.973 84 255 0
6.581594 -13.34556 1.712 84 255 0
6.522588 -13.518636 1.526 84 255 0
6.57971 -13.358068 2.102 84 255 0
6.616755 -13.25012 2.158 84 255 0
6.628643 -13.215774 2.149 84 255 0
6.463144 -13.690367 1.34 84 255 0
6.59481 -13.313013 2.069 84 255 0
6.538596 -13.471799 1.621 84 255 0
6.690424 -13.030644 2.108 84 255 0
6.518922 -13.530235 1.645 84 255 0
6.655666 -13.131901 2.053 84 255 0
6.583358 -13.348703 2.133 84 255 0
6.52442 -13.512836 1.6 84 255 0
6.487829 -13.619892 1.48 84 255 0
6.53081 -13.49589 1.576 84 255 0
6.630022 -13.210865 2.154 84 255 0
6.626407 -13.215757 1.885 84 255 0
6.561936 -13.401761 1.601 84 255 0
6.63051 -13.205502 2.006 84 255 0
6.614939 -13.253684 2.017 84 255 0
6.544514 -13.45798 1.866 84 255 0
6.677627 -13.066772 2.077 84 255 0
6.480968 -13.639966 1.454 84 255 0
6.678552 -13.062755 1.998 84 255 0
6.569671 -13.384378 1.877 84 255 0
6.576548 -13.362069 1.815 84 255 0
6.50932 -13.557891 1.495 84 255 0
6.540899 -13.462872 1.541 84 255 0
6.606699 -13.278666 2.136 84 255 0
6.552317 -13.431652 1.631 84 255 0
6.59851 -13.296941 1.765 84 255 0
6.612181 -13.263502 2.122 84 255 0
6.625919 -13.221121 2.034 84 255 0
6.590236 -13.326395 1.975 84 255 0
6.459496 -13.699731 1.238 84 255 0
6.530339 -13.499016 1.736 84 255 0
6.453542 -13.718022 1.251 84 255 0
6.44532 -13.740768 1.199 84 255 0
6.646955 -13.16001 2.11 84 255 0
6.553243 -13.427635 1.613 84 255 0
6.588386 -13.334431 2.158 84 255 0
6.585226 -13.338432 1.87 84 255 0
6.576969 -13.36565 2.003 84 255 0
6.650168 -13.149301 2.079 84 255 0
6.487829 -13.619892 1.397 84 255 0
6.532626 -13.492326 1.659 84 255 0
6.448514 -13.732294 1.231 84 255 0
6.551847 -13.43478 1.737 84 255 0
6.657063 -13.124756 1.936 84 255 0
6.588386 -13.334431 2.074 84 255 0
6.662073 -13.112719 2.045 84 255 0
6.581525 -13.354504 2.086 84 255 0
6.622741 -13.227358 1.906 84 255 0
6.64376 -13.168483 2.001 84 255 0
6.602125 -13.292048 2.023 84 255 0
6.587075 -13.330396 1.803 84 255 0
6.581106 -13.350923 1.857 84 255 0
6.510228 -13.556109 1.667 84 255 0
6.585662 -13.339777 2.041 84 255 0
6.644668 -13.166701 2.125 84 255 0
6.59439 -13.309431 1.712 84 255 0
6.614939 -13.253684 1.997 84 255 0
6.604917 -13.277759 1.776 84 255 0
6.514818 -13.540491 1.51 84 255 0
6.470005 -13.670294 1.276 84 255 0
6.566005 -13.395978 1.86 84 255 0
6.537217 -13.476707 1.619 84 255 0
6.66525 -13.106482 2.095 84 255 0
6.568275 -13.391523 2.031 84 255 0
6.520738 -13.526671 1.673 84 255 0
6.515709 -13.540945 1.608 84 255 0
6.679914 -13.060081 2.008 84 255 0
6.494253 -13.598475 1.363 84 255 0
6.562323 -13.409814 1.997 84 255 0
6.599838 -13.298739 1.992 84 255 0
6.560507 -13.413378 1.894 84 255 0
6.484634 -13.628366 1.434 84 255 0
6.672129 -13.084172 2.129 84 255 0
6.662089 -13.110482 1.964 84 255 0
6.588858 -13.331304 1.997 84 255 0
6.552267 -13.43836 1.954 84 255 0
6.560977 -13.410252 1.879 84 255 0
6.512515 -13.549418 1.664 84 255 0
6.457191 -13.708658 1.274 84 255 0
6.593011 -13.314341 1.759 84 255 0
6.568292 -13.389287 1.905 84 255 0
6.57929 -13.354486 1.808 84 255 0
6.628694 -13.209066 1.914 84 255 0
6.53582 -13.483852 1.789 84 255 0
6.662543 -13.109591 1.99 84 255 0
6.511607 -13.5512 1.565 84 255 0
6.610818 -13.266175 2.025 84 255 0
6.531281 -13.492763 1.5 84 255 0
6.496994 -13.590892 1.402 84 255 0
6.56054 -13.408906 1.703 84 255 0
6.585712 -13.333069 1.7 84 255 0
6.551863 -13.432544 1.671 84 255 0
6.648788 -13.154209 2.123 84 255 0
6.532643 -13.490089 1.64 84 255 0
6.637371 -13.185429 1.998 84 255 0
6.585174 -13.34514 2.165 84 255 0
6.59481 -13.313013 2.019 84 255 0
6.642416 -13.168921 1.88 84 255 0
6.699572 -13.003881 2.111 84 255 0
6.650638 -13.146174 2.01 84 255 0
6.571015 -13.383942 1.966 84 255 0
6.589328 -13.328176 1.947 84 255 0
6.596189 -13.308104 1.996 84 255 0
6.558219 -13.420069 1.994 84 255 0
6.457662 -13.70553 1.307 84 255 0
6.557329 -13.419615 1.847 84 255 0
6.64149 -13.172938 2.029 84 255 0
6.553191 -13.434342 1.926 84 255 0
6.594322 -13.318376 2.176 84 255 0
6.637388 -13.183193 1.937 84 255 0
6.586554 -13.340231 2.179 84 255 0
6.599838 -13.298739 1.987 84 255 0
6.619059 -13.241194 2.074 84 255 0
6.526674 -13.510616 1.692 84 255 0
6.488737 -13.61811 1.491 84 255 0
6.58245 -13.350485 1.999 84 255 0
6.609457 -13.268848 2.042 84 255 0
6.542211 -13.466907 1.88 84 255 0
6.624574 -13.221557 1.952 84 255 0
6.608531 -13.272866 2.032 84 255 0
6.546802 -13.451288 1.856 84 255 0
6.630493 -13.207739 2.063 84 255 0
6.563298 -13.399088 1.661 84 255 0
6.60532 -13.283575 2.172 84 255 0
6.608985 -13.271975 2.138 84 255 0
6.534459 -13.486526 1.749 84 255 0
6.597534 -13.307667 2.094 84 255 0
6.483273 -13.631038 1.384 84 255 0
6.613089 -13.261721 2.138 84 255 0
6.578852 -13.353142 1.682 84 255 0
6.550905 -13.441033 1.911 84 255 0
6.435718 -13.768423 1.167 84 255 0
6.559144 -13.416051 1.898 84 255 0
6.498356 -13.588219 1.416 84 255 0
6.619983 -13.237175 1.979 84 255 0
6.578398 -13.354033 1.701 84 255 0
6.677173 -13.067664 2.08 84 255 0
6.623666 -13.223339 1.883 84 255 0
6.445303 -13.743005 1.236 84 255 0
6.531298 -13.490527 1.506 84 255 0
6.529414 -13.503035 1.772 84 255 0
6.641037 -13.173828 1.924 84 255 0
6.587915 -13.337558 2.181 84 255 0
6.592506 -13.321939 2.079 84 255 0
6.567872 -13.385706 1.718 84 255 0
6.616317 -13.248775 2.056 84 255 0
6.529414 -13.503035 1.73 84 255 0
6.57332 -13.375013 1.948 84 255 0
6.507033 -13.564582 1.507 84 255 0
6.644702 -13.16223 1.927 84 255 0
6.525766 -13.512399 1.687 84 255 0
6.568763 -13.38616 1.758 84 255 0
6.481893 -13.635947 1.401 84 255 0
6.534913 -13.485634 1.675 84 255 0
6.637824 -13.184538 1.992 84 255 0
6.65612 -13.13101 1.989 84 255 0
6.548635 -13.445488 1.758 84 255 0
6.598493 -13.299176 1.938 84 255 0
6.500189 -13.582419 1.39 84 255 0
6.532172 -13.493217 1.77 84 255 0
6.603101 -13.281322 1.731 84 255 0
6.566895 -13.396432 2.031 84 255 0
6.642852 -13.170264 2.089 84 255 0
6.518938 -13.528 1.463 84 255 0
6.556875 -13.420506 1.714 84 255 0
6.613157 -13.252776 1.811 84 255 0
6.502913 -13.577073 1.639 84 255 0
6.672129 -13.084172 2.094 84 255 0
6.49881 -13.587328 1.465 84 255 0
6.491024 -13.611419 1.513 84 255 0
6.613105 -13.259484 2.129 84 255 0
6.569671 -13.384378 1.89 84 255 0
6.4732 -13.66182 1.337 84 255 0
6.59027 -13.321923 1.718 84 255 0
6.521192 -13.525781 1.753 84 255 0
6.57105 -13.379469 1.797 84 255 0
6.625919 -13.221121 2.103 84 255 0
6.63875 -13.18052 2.006 84 255 0
6.58245 -13.350485 2.018 84 255 0
6.488266 -13.621238 1.522 84 255 0
6.564171 -13.401778 1.961 84 255 0
6.673961 -13.078372 2.056 84 255 0
6.630073 -13.204157 1.865 84 255 0
6.623631 -13.227811 2.06 84 255 0
6.591598 -13.323721 2.143 84 255 0
6.653396 -13.136355 1.909 84 255 0
6.444866 -13.741659 1.21 84 255 0
6.470005 -13.670294 1.333 84 255 0
6.574681 -13.372341 2.042 84 255 0
6.471384 -13.665384 1.35 84 255 0
6.592052 -13.322831 2.044 84 255 0
6.609003 -13.269739 1.964 84 255 0
6.575658 -13.361615 1.686 84 255 0
6.515272 -13.539599 1.546 84 255 0
6.592523 -13.319703 1.948 84 255 0
6.552754 -13.432998 1.738 84 255 0
6.636446 -13.189447 2.041 84 255 0
6.48418 -13.629256 1.405 84 255 0
6.567872 -13.385706 1.696 84 255 0
6.686304 -13.043136 2.124 84 255 0
6.571924 -13.382158 2.082 84 255 0
6.460403 -13.697949 1.323 84 255 0
6.586621 -13.331286 1.7 84 255 0
6.591598 -13.323721 2.113 84 255 0
6.499247 -13.588673 1.583 84 255 0
6.502913 -13.577073 1.578 84 255 0
6.476866 -13.650221 1.39 84 255 0
6.453996 -13.717131 1.248 84 255 0
6.608549 -13.270631 1.878 84 255 0
6.613122 -13.257249 2.023 84 255 0
6.497885 -13.591346 1.558 84 255 0
6.632343 -13.199702 1.916 84 255 0
6.62 -13.234939 1.813 84 255 0
6.557345 -13.417379 1.616 84 255 0
6.650655 -13.143938 1.952 84 255 0
6.483727 -13.630148 1.333 84 255 0
6.534442 -13.488762 1.812 84 255 0
6.491495 -13.608293 1.356 84 255 0
6.606699 -13.278666 2.13 84 255 0
6.459496 -13.699731 1.244 84 255 0
6.604395 -13.287593 2.151 84 255 0
6.636462 -13.187211 1.906 84 255 0
6.579726 -13.355832 1.987 84 255 0
6.56054 -13.408906 1.78 84 255 0
6.588454 -13.325487 1.724 84 255 0
6.630527 -13.203266 1.835 84 255 0
6.638278 -13.183646 2.021 84 255 0
6.589362 -13.323705 1.776 84 255 0
6.504309 -13.569928 1.448 84 255 0
6.61314 -13.255012 1.876 84 255 0
6.569654 -13.386614 1.977 84 255 0
6.553663 -13.431215 1.823 84 255 0
6.496052 -13.597147 1.484 84 255 0
6.549576 -13.439235 1.588 84 255 0
6.613122 -13.257249 1.902 84 255 0
6.590741 -13.318795 1.746 84 255 0
6.620875 -13.237629 2.116 84 255 0
6.612669 -13.25814 1.889 84 255 0
6.52484 -13.516417 1.716 84 255 0
6.590724 -13.321032 1.855 84 255 0
6.565567 -13.394633 1.825 84 255 0
6.53947 -13.474488 1.824 84 255 0
6.459042 -13.700622 1.268 84 255 0
6.681276 -13.057408 2.046 84 255 0
6.59254 -13.317468 1.981 84 255 0
6.633739 -13.192556 1.849 84 255 0
6.560557 -13.406671 1.587 84 255 0
6.631435 -13.201484 1.866 84 255 0
6.695922 -13.013244 2.07 84 255 0
6.621783 -13.235847 2.101 84 255 0
6.576112 -13.360723 1.65 84 255 0
6.603974 -13.284013 1.883 84 255 0
6.603504 -13.287139 2.062 84 255 0
6.523932 -13.518199 1.785 84 255 0
6.604866 -13.284467 2.043 84 255 0
6.603538 -13.282667 1.838 84 255 0
6.512969 -13.548527 1.642 84 255 0
6.461782 -13.69304 1.283 84 255 0
6.496977 -13.593128 1.417 84 255 0
6.49284 -13.607856 1.567 84 255 0
6.51756 -13.532908 1.533 84 255 0
6.648334 -13.155101 2.136 84 255 0
6.465431 -13.683676 1.282 84 255 0
6.688137 -13.037335 2.083 84 255 0
6.540883 -13.465107 1.568 84 255 0
6.531735 -13.491871 1.557 84 255 0
6.589816 -13.322813 1.74 84 255 0
6.578802 -13.35985 2.034 84 255 0
6.50335 -13.578418 1.611 84 255 0
6.488737 -13.61811 1.511 84 255 0
6.510245 -13.553873 1.484 84 255 0
6.571504 -13.378578 1.873 84 255 0
6.546819 -13.449052 1.686 84 255 0
6.491495 -13.608293 1.433 84 255 0
6.583358 -13.348703 2.106 84 255 0
6.486905 -13.623911 1.486 84 255 0
6.57744 -13.362523 1.906 84 255 0
6.611273 -13.265285 2.06 84 255 0
6.588454 -13.325487 1.694 84 255 0
6.687229 -13.039117 2.075 84 255 0
6.561448 -13.407124 1.849 84 255 0
6.457191 -13.708658 1.29 84 255 0
6.568292 -13.389287 1.903 84 255 0
6.630527 -13.203266 1.898 84 255 0
6.599418 -13.295159 1.74 84 255 0
6.622741 -13.227358 1.868 84 255 0
6.652017 -13.141265 1.897 84 255 0
6.642836 -13.172501 2.087 84 255 0
6.646518 -13.158665 2.038 84 255 0
6.477774 -13.648438 1.324 84 255 0
6.564171 -13.401778 1.869 84 255 0
6.644686 -13.164465 2.05 84 255 0
6.479607 -13.642638 1.412 84 255 0
6.586116 -13.338886 2.01 84 255 0
6.652942 -13.137247 1.919 84 255 0
6.607152 -13.277776 2.045 84 255 0
6.521662 -13.522654 1.566 84 255 0
6.508395 -13.561909 1.652 84 255 0
6.510245 -13.553873 1.422 84 255 0
6.597096 -13.306321 2.025 84 255 0
6.591666 -13.314778 1.692 84 255 0
6.455812 -13.713567 1.291 84 255 0
6.610415 -13.260359 1.769 84 255 0
6.528506 -13.504817 1.786 84 255 0
6.623195 -13.226466 1.949 84 255 0
6.540429 -13.465999 1.544 84 255 0
6.599872 -13.294268 1.846 84 255 0
6.671675 -13.085064 1.996 84 255 0
6.521192 -13.525781 1.645 84 255 0
6.577894 -13.361631 1.929 84 255 0
6.692711 -13.023953 2.106 84 255 0
6.568309 -13.387052 1.731 84 255 0
6.693182 -13.020825 2.055 84 255 0
6.648334 -13.155101 2.137 84 255 0
6.660223 -13.120754 2.096 84 255 0
6.602613 -13.286685 1.823 84 255 0
6.654724 -13.138155 2.141 84 255 0
6.540429 -13.465999 1.536 84 255 0
6.45583 -13.711331 1.293 84 255 0
6.464976 -13.684566 1.299 84 255 0
6.461765 -13.695276 1.267 84 255 0
6.590724 -13.321032 1.794 84 255 0
6.636934 -13.184084 1.863 84 255 0
6.666175 -13.102463 2.074 84 255 0
6.604412 -13.285357 2.091 84 255 0
6.541337 -13.464217 1.571 84 255 0
6.569183 -13.389741 2.046 84 255 0
6.571521 -13.376343 1.698 84 255 0
6.562356 -13.405342 1.814 84 255 0
6.548197 -13.444143 1.572 84 255 0
6.491024 -13.611419 1.464 84 255 0
6.64973 -13.147956 1.943 84 255 0
6.703709 -12.989153 2.08 84 255 0
6.566021 -13.393742 1.825 84 255 0
6.595701 -13.313466 2.168 84 255 0
