ply
format ascii 1.0
element vertex 1418
property double x
property double y
property double z
property uchar red
property uchar green
property uchar blue
element face 0
property list uchar int vertex_indices
end_header
2.144357 -12.796223 1.707 0 0 255
1.842017 -13.387397 1.563 0 0 255
2.144392 -12.791751 1.812 0 0 255
1.945073 -13.185139 1.658 0 0 255
2.086365 -12.894619 2.082 0 0 255
2.085339 -12.912053 1.673 0 0 255
2.093914 -12.901833 1.536 0 0 255
2.051357 -12.969935 1.916 0 0 255
2.149839 -12.781058 1.826 0 0 255
1.962375 -13.144572 1.827 0 0 255
1.861101 -13.347739 1.625 0 0 255
2.111267 -12.854558 1.848 0 0 255
1.988201 -13.100493 1.697 0 0 255
2.039015 -13.005172 1.591 0 0 255
2.036847 -12.996211 1.924 0 0 255
1.85382 -13.364231 1.597 0 0 255
2.186562 -12.715595 1.689 0 0 255
2.097732 -12.870109 2.132 0 0 255
1.982334 -13.107604 1.792 0 0 255
2.106778 -12.85676 2.058 0 0 255
2.038646 -12.994884 1.868 0 0 255
1.934665 -13.201159 1.768 0 0 255
2.07362 -12.92404 1.941 0 0 255
1.92735 -13.222124 1.59 0 0 255
2.099952 -12.872361 1.984 0 0 255
2.163896 -12.755673 1.785 0 0 255
2.112209 -12.848305 1.976 0 0 255
2.00236 -13.061692 1.944 0 0 255
1.935959 -13.207431 1.539 0 0 255
2.163442 -12.756564 1.776 0 0 255
2.025917 -13.022067 1.79 0 0 255
1.926459 -13.22167 1.641 0 0 255
1.837494 -13.394072 1.604 0 0 255
2.110376 -12.854104 1.939 0 0 255
2.11352 -12.852339 1.791 0 0 255
2.133411 -12.824315 1.548 0 0 255
2.064489 -12.948568 1.777 0 0 255
2.177011 -12.736542 1.633 0 0 255
2.008194 -13.059052 1.741 0 0 255
2.079017 -12.920055 1.772 0 0 255
2.183821 -12.723177 1.617 0 0 255
2.132066 -12.824752 1.575 0 0 255
2.125307 -12.831409 1.773 0 0 255
1.869239 -13.336173 1.552 0 0 255
1.92281 -13.231034 1.543 0 0 255
1.913276 -13.249745 1.562 0 0 255
2.061311 -12.954805 1.786 0 0 255
2.143063 -12.789952 1.934 0 0 255
1.818863 -13.432838 1.564 0 0 255
2.137531 -12.811824 1.649 0 0 255
2.147552 -12.787749 1.77 0 0 255
2.065448 -12.940078 1.963 0 0 255
1.954203 -13.16061 1.808 0 0 255
2.060386 -12.958823 1.741 0 0 255
2.219652 -12.65726 1.525 0 0 255
2.159356 -12.764583 1.771 0 0 255
2.171546 -12.74947 1.544 0 0 255
2.005521 -13.057691 1.934 0 0 255
2.059092 -12.952552 1.94 0 0 255
2.157103 -12.766803 1.874 0 0 255
2.191084 -12.708921 1.618 0 0 255
2.15527 -12.772603 1.765 0 0 255
1.931033 -13.208288 1.763 0 0 255
2.172034 -12.744108 1.663 0 0 255
1.903794 -13.261748 1.732 0 0 255
2.001907 -13.062582 1.973 0 0 255
1.928292 -13.215869 1.672 0 0 255
2.107164 -12.864813 1.799 0 0 255
2.075419 -12.922711 1.895 0 0 255
2.070459 -12.928041 2.044 0 0 255
1.996827 -13.083564 1.688 0 0 255
2.112141 -12.857248 1.736 0 0 255
2.003251 -13.062146 1.885 0 0 255
2.056267 -12.971313 1.578 0 0 255
1.86971 -13.333046 1.575 0 0 255
2.095814 -12.887089 1.822 0 0 255
1.9065 -13.258638 1.689 0 0 255
2.119808 -12.848809 1.582 0 0 255
2.003217 -13.066618 1.822 0 0 255
2.117118 -12.849683 1.728 0 0 255
2.041841 -12.98641 1.969 0 0 255
1.998258 -13.071947 1.881 0 0 255
2.122986 -12.842572 1.594 0 0 255
2.177499 -12.731178 1.735 0 0 255
2.143433 -12.800241 1.668 0 0 255
2.039099 -12.993993 1.872 0 0 255
2.121153 -12.848372 1.529 0 0 255
2.110308 -12.863049 1.689 0 0 255
2.054904 -12.973987 1.593 0 0 255
2.139784 -12.809606 1.612 0 0 255
2.197441 -12.696446 1.644 0 0 255
2.103969 -12.873286 1.736 0 0 255
2.109888 -12.859468 1.795 0 0 255
2.014618 -13.037634 1.964 0 0 255
2.021831 -13.030087 1.831 0 0 255
2.011843 -13.049688 1.795 0 0 255
2.184275 -12.722286 1.642 0 0 255
1.992322 -13.088002 1.775 0 0 255
1.92693 -13.218543 1.691 0 0 255
1.939239 -13.187778 1.846 0 0 255
2.192446 -12.706248 1.635 0 0 255
2.171126 -12.74589 1.664 0 0 255
2.022234 -13.035903 1.654 0 0 255
2.050819 -12.982006 1.597 0 0 255
2.104979 -12.858088 2.127 0 0 255
1.945509 -13.186483 1.604 0 0 255
2.020923 -13.031869 1.8 0 0 255
1.855653 -13.358431 1.62 0 0 255
1.974599 -13.124988 1.696 0 0 255
2.14888 -12.789549 1.66 0 0 255
2.091224 -12.902706 1.63 0 0 255
1.881077 -13.308535 1.647 0 0 255
2.096268 -12.886197 1.814 0 0 255
1.990523 -13.08933 1.855 0 0 255
2.120364 -12.834501 1.92 0 0 255
2.101212 -12.883104 1.623 0 0 255
1.969185 -13.131207 1.817 0 0 255
1.889232 -13.294732 1.619 0 0 255
1.912385 -13.249291 1.591 0 0 255
2.099917 -12.876834 1.861 0 0 255
2.118514 -12.842538 1.845 0 0 255
2.088181 -12.891055 2.092 0 0 255
2.060891 -12.951224 1.896 0 0 255
1.917816 -13.240835 1.554 0 0 255
2.079539 -12.910221 2.051 0 0 255
1.917379 -13.23949 1.596 0 0 255
2.172437 -12.749924 1.525 0 0 255
2.064001 -12.95393 1.65 0 0 255
2.024152 -13.018924 1.978 0 0 255
1.991431 -13.087548 1.855 0 0 255
2.091712 -12.897344 1.769 0 0 255
1.98146 -13.104915 1.892 0 0 255
2.127997 -12.830535 1.663 0 0 255
2.195624 -12.700011 1.614 0 0 255
2.181551 -12.727633 1.607 0 0 255
2.118463 -12.849247 1.653 0 0 255
2.049019 -12.983334 1.659 0 0 255
2.116664 -12.850574 1.675 0 0 255
2.149318 -12.790894 1.636 0 0 255
2.0732 -12.920459 2.075 0 0 255
2.035904 -13.002465 1.797 0 0 255
1.939187 -13.194486 1.709 0 0 255
2.135715 -12.815389 1.643 0 0 255
2.143012 -12.796659 1.783 0 0 255
2.022353 -13.020251 2.023 0 0 255
2.054989 -12.962807 1.892 0 0 255
2.034072 -13.008265 1.733 0 0 255
1.929234 -13.209616 1.814 0 0 255
1.960105 -13.149028 1.804 0 0 255
2.154311 -12.781093 1.613 0 0 255
2.177919 -12.73476 1.637 0 0 255
2.048651 -12.973044 1.923 0 0 255
1.945543 -13.182012 1.708 0 0 255
2.030406 -13.019865 1.618 0 0 255
2.064052 -12.947223 1.836 0 0 255
2.135766 -12.80868 1.82 0 0 255
2.061345 -12.950333 1.919 0 0 255
1.927401 -13.215415 1.754 0 0 255
2.111721 -12.853667 1.901 0 0 255
2.04453 -12.985537 1.803 0 0 255
2.142491 -12.806495 1.555 0 0 255
2.094957 -12.882163 1.956 0 0 255
1.988622 -13.104074 1.559 0 0 255
2.124331 -12.842134 1.531 0 0 255
2.091359 -12.884818 2.118 0 0 255
2.220106 -12.656368 1.567 0 0 255
2.098521 -12.883979 1.761 0 0 255
2.126686 -12.8265 1.848 0 0 255
2.135799 -12.804208 1.937 0 0 255
2.083557 -12.911145 1.788 0 0 255
2.06681 -12.937405 1.968 0 0 255
2.126737 -12.819792 2.021 0 0 255
2.067247 -12.93875 1.888 0 0 255
2.069869 -12.946819 1.559 0 0 255
2.119388 -12.845228 1.681 0 0 255
2.007303 -13.058599 1.79 0 0 255
2.118565 -12.835831 2.001 0 0 255
2.015543 -13.033616 2.016 0 0 255
2.138489 -12.803334 1.807 0 0 255
2.074023 -12.929857 1.774 0 0 255
2.188344 -12.716503 1.587 0 0 255
2.090401 -12.893308 1.905 0 0 255
2.126737 -12.819792 1.998 0 0 255
2.087223 -12.899545 1.886 0 0 255
2.191522 -12.710266 1.555 0 0 255
1.904667 -13.264439 1.633 0 0 255
2.041285 -13.000717 1.57 0 0 255
2.098942 -12.887559 1.656 0 0 255
1.933774 -13.200706 1.815 0 0 255
2.077655 -12.922729 1.818 0 0 255
2.198349 -12.694665 1.649 0 0 255
2.035451 -13.003356 1.816 0 0 255
2.067315 -12.929806 2.141 0 0 255
1.899253 -13.270658 1.715 0 0 255
1.971387 -13.135696 1.594 0 0 255
2.119354 -12.849701 1.568 0 0 255
2.106189 -12.875539 1.602 0 0 255
2.057175 -12.969532 1.606 0 0 255
2.145248 -12.796678 1.643 0 0 255
1.97919 -13.109368 1.912 0 0 255
2.086365 -12.894619 2.095 0 0 255
1.930562 -13.211415 1.678 0 0 255
2.128048 -12.823827 1.823 0 0 255
2.118934 -12.846119 1.697 0 0 255
1.920994 -13.234598 1.538 0 0 255
2.150696 -12.785985 1.68 0 0 255
2.083993 -12.912491 1.749 0 0 255
2.053576 -12.972188 1.732 0 0 255
2.009624 -13.047436 1.961 0 0 255
1.909644 -13.256873 1.555 0 0 255
2.049927 -12.981552 1.657 0 0 255
1.977794 -13.116513 1.765 0 0 255
2.058099 -12.965514 1.663 0 0 255
1.836569 -13.398089 1.563 0 0 255
2.032307 -13.005121 1.948 0 0 255
2.013693 -13.041653 1.929 0 0 255
2.160196 -12.771746 1.568 0 0 255
2.120716 -12.847027 1.567 0 0 255
2.090451 -12.8866 2.1 0 0 255
1.888324 -13.296515 1.599 0 0 255
1.968226 -13.139697 1.666 0 0 255
1.935539 -13.20385 1.661 0 0 255
1.970564 -13.126298 1.897 0 0 255
2.11848 -12.84701 1.689 0 0 255
1.928746 -13.214979 1.706 0 0 255
1.965536 -13.140572 1.747 0 0 255
2.053644 -12.963244 1.922 0 0 255
1.909695 -13.250165 1.742 0 0 255
2.175632 -12.741451 1.545 0 0 255
2.022773 -13.023832 1.945 0 0 255
2.06866 -12.929369 2.065 0 0 255
1.892444 -13.284023 1.711 0 0 255
2.05958 -12.947188 2.057 0 0 255
1.934177 -13.206523 1.66 0 0 255
1.99054 -13.087094 1.901 0 0 255
1.950537 -13.172211 1.719 0 0 255
2.019561 -13.034541 1.785 0 0 255
2.060454 -12.949879 1.937 0 0 255
2.036864 -12.993976 2.011 0 0 255
2.100337 -12.880414 1.732 0 0 255
1.886979 -13.296951 1.671 0 0 255
2.134437 -12.806881 1.961 0 0 255
1.976398 -13.123658 1.635 0 0 255
2.166115 -12.757926 1.603 0 0 255
1.955094 -13.161064 1.74 0 0 255
2.065851 -12.945895 1.788 0 0 255
1.957818 -13.155719 1.78 0 0 255
2.089106 -12.887038 2.145 0 0 255
2.079942 -12.916038 1.875 0 0 255
2.021797 -13.034558 1.694 0 0 255
2.006344 -13.067089 1.644 0 0 255
2.228732 -12.63944 1.521 0 0 255
1.938751 -13.193141 1.756 0 0 255
2.159339 -12.76682 1.708 0 0 255
2.027313 -13.014922 1.915 0 0 255
1.867457 -13.335265 1.651 0 0 255
2.097698 -12.87458 2.059 0 0 255
2.148914 -12.785077 1.799 0 0 255
2.183821 -12.723177 1.614 0 0 255
2.100758 -12.883995 1.628 0 0 255
2.022336 -13.022488 1.981 0 0 255
2.087273 -12.892838 2.11 0 0 255
1.93416 -13.208758 1.6 0 0 255
2.152966 -12.781529 1.659 0 0 255
2.005016 -13.065289 1.762 0 0 255
1.919212 -13.23369 1.674 0 0 255
2.089089 -12.889274 2.112 0 0 255
2.082195 -12.913818 1.779 0 0 255
1.930562 -13.211415 1.699 0 0 255
1.988741 -13.088422 1.939 0 0 255
2.061765 -12.953914 1.805 0 0 255
2.119456 -12.836285 1.932 0 0 255
2.04549 -12.977046 1.998 0 0 255
2.099952 -12.872361 1.972 0 0 255
2.125812 -12.823811 1.927 0 0 255
1.878353 -13.313881 1.65 0 0 255
2.020872 -13.038576 1.625 0 0 255
2.132168 -12.811336 1.944 0 0 255
1.998172 -13.083127 1.613 0 0 255
1.940969 -13.195394 1.601 0 0 255
1.935539 -13.20385 1.61 0 0 255
2.025917 -13.022067 1.831 0 0 255
1.992741 -13.091583 1.691 0 0 255
2.015878 -13.048378 1.627 0 0 255
2.117657 -12.837612 2.011 0 0 255
2.156649 -12.767694 1.867 0 0 255
1.929217 -13.211852 1.76 0 0 255
2.142995 -12.798896 1.698 0 0 255
1.972834 -13.121842 1.874 0 0 255
2.048634 -12.975281 1.876 0 0 255
1.94371 -13.187812 1.619 0 0 255
2.037772 -12.992193 2.004 0 0 255
2.001889 -13.064819 1.908 0 0 255
2.018148 -13.043922 1.618 0 0 255
2.183855 -12.718704 1.738 0 0 255
2.092115 -12.90316 1.552 0 0 255
1.980938 -13.114749 1.651 0 0 255
1.98958 -13.095584 1.712 0 0 255
2.105399 -12.861669 1.996 0 0 255
1.88787 -13.297405 1.574 0 0 255
1.932832 -13.20696 1.694 0 0 255
2.057259 -12.958352 1.9 0 0 255
2.093561 -12.889308 1.879 0 0 255
2.133462 -12.817607 1.704 0 0 255
2.071837 -12.923132 2.081 0 0 255
2.074931 -12.928074 1.774 0 0 255
2.013154 -13.053723 1.629 0 0 255
2.040916 -12.990428 1.9 0 0 255
2.066339 -12.940532 1.877 0 0 255
2.023108 -13.038594 1.538 0 0 255
2.127594 -12.824718 1.798 0 0 255
2.005504 -13.059927 1.873 0 0 255
2.01001 -13.055489 1.77 0 0 255
2.002292 -13.070636 1.765 0 0 255
2.099531 -12.86878 2.124 0 0 255
1.921936 -13.228343 1.707 0 0 255
1.906046 -13.259529 1.684 0 0 255
2.068206 -12.93026 2.049 0 0 255
1.942365 -13.188249 1.689 0 0 255
1.936883 -13.203413 1.57 0 0 255
2.134909 -12.803754 1.979 0 0 255
1.944199 -13.182448 1.766 0 0 255
2.025429 -13.027431 1.696 0 0 255
2.120852 -12.82914 2.032 0 0 255
2.122197 -12.828702 2.021 0 0 255
2.037738 -12.996665 1.883 0 0 255
1.90877 -13.254183 1.656 0 0 255
1.88745 -13.293824 1.705 0 0 255
2.109838 -12.866175 1.614 0 0 255
2.087138 -12.910726 1.628 0 0 255
2.026825 -13.020286 1.822 0 0 255
1.880623 -13.309425 1.643 0 0 255
1.972363 -13.12497 1.81 0 0 255
2.212842 -12.670625 1.525 0 0 255
2.179718 -12.733432 1.567 0 0 255
2.029095 -13.01583 1.839 0 0 255
2.029935 -13.022992 1.559 0 0 255
2.097647 -12.881288 1.867 0 0 255
1.949141 -13.179356 1.58 0 0 255
2.11663 -12.855046 1.594 0 0 255
1.906483 -13.260874 1.641 0 0 255
2.040512 -12.984611 2.044 0 0 255
1.989615 -13.091111 1.838 0 0 255
2.103935 -12.877758 1.627 0 0 255
1.879244 -13.314335 1.615 0 0 255
2.113991 -12.849213 1.858 0 0 255
2.051391 -12.965464 2.005 0 0 255
2.123071 -12.831392 1.91 0 0 255
2.066339 -12.940532 1.924 0 0 255
2.14661 -12.794003 1.691 0 0 255
2.02279 -13.021597 1.996 0 0 255
1.868365 -13.333482 1.662 0 0 255
2.053173 -12.966372 1.913 0 0 255
2.107669 -12.857214 1.971 0 0 255
2.009153 -13.050562 1.936 0 0 255
2.085322 -12.91429 1.642 0 0 255
2.151167 -12.782858 1.707 0 0 255
2.035887 -13.004702 1.733 0 0 255
1.957398 -13.152138 1.877 0 0 255
2.023261 -13.018469 2.024 0 0 255
2.014147 -13.040762 1.902 0 0 255
2.167511 -12.750781 1.76 0 0 255
1.99634 -13.088926 1.581 0 0 255
2.005453 -13.066635 1.703 0 0 255
2.201509 -12.690663 1.603 0 0 255
2.15342 -12.780639 1.644 0 0 255
2.141231 -12.795752 1.887 0 0 255
1.998172 -13.083127 1.627 0 0 255
2.064489 -12.948568 1.754 0 0 255
2.03809 -13.009191 1.538 0 0 255
2.010515 -13.04789 1.918 0 0 255
1.993196 -13.090692 1.687 0 0 255
2.038226 -12.991302 2.018 0 0 255
1.905138 -13.261312 1.698 0 0 255
2.123894 -12.84079 1.592 0 0 255
2.01724 -13.045705 1.646 0 0 255
2.006361 -13.064852 1.664 0 0 255
2.113957 -12.853684 1.76 0 0 255
1.890174 -13.288479 1.691 0 0 255
1.886071 -13.298734 1.657 0 0 255
1.837477 -13.396307 1.557 0 0 255
1.874704 -13.323245 1.604 0 0 255
2.06807 -12.948148 1.604 0 0 255
2.127559 -12.82919 1.715 0 0 255
2.057611 -12.970877 1.546 0 0 255
2.130806 -12.814009 1.917 0 0 255
2.015861 -13.050614 1.577 0 0 255
2.083153 -12.905329 1.953 0 0 255
2.024101 -13.025632 1.817 0 0 255
2.205595 -12.682645 1.588 0 0 255
2.029129 -13.011358 1.904 0 0 255
2.18293 -12.722723 1.712 0 0 255
1.954169 -13.165083 1.726 0 0 255
2.123474 -12.837209 1.711 0 0 255
2.084414 -12.916072 1.607 0 0 255
2.020974 -13.02516 2.011 0 0 255
1.936027 -13.198486 1.734 0 0 255
2.027194 -13.030574 1.533 0 0 255
2.066793 -12.93964 1.919 0 0 255
1.989144 -13.094239 1.783 0 0 255
1.954152 -13.167318 1.645 0 0 255
2.074528 -12.922257 1.937 0 0 255
2.099061 -12.871907 2.059 0 0 255
2.095814 -12.887089 1.801 0 0 255
2.023681 -13.022051 1.924 0 0 255
2.08766 -12.90089 1.875 0 0 255
2.080328 -12.92409 1.616 0 0 255
2.192413 -12.71072 1.535 0 0 255
2.022722 -13.03054 1.74 0 0 255
2.196095 -12.696884 1.674 0 0 255
1.97919 -13.109368 1.898 0 0 255
1.901052 -13.26933 1.693 0 0 255
2.143954 -12.790406 1.886 0 0 255
1.992708 -13.096055 1.537 0 0 255
1.879244 -13.314335 1.575 0 0 255
1.962795 -13.148153 1.714 0 0 255
1.953698 -13.168209 1.645 0 0 255
1.83931 -13.390507 1.607 0 0 255
1.819317 -13.431948 1.555 0 0 255
2.009539 -13.058615 1.685 0 0 255
2.168856 -12.750345 1.657 0 0 255
2.020486 -13.030523 1.883 0 0 255
1.870635 -13.329028 1.666 0 0 255
2.125727 -12.83499 1.651 0 0 255
2.05857 -12.962387 1.745 0 0 255
1.881531 -13.307644 1.642 0 0 255
2.007791 -13.053236 1.91 0 0 255
2.064069 -12.944987 1.877 0 0 255
1.931873 -13.215449 1.534 0 0 255
1.912385 -13.249291 1.617 0 0 255
2.124398 -12.833191 1.782 0 0 255
2.010027 -13.053253 1.825 0 0 255
1.980098 -13.107587 1.874 0 0 255
1.975524 -13.120969 1.787 0 0 255
2.070425 -12.932513 1.894 0 0 255
2.043117 -12.994917 1.675 0 0 255
2.147989 -12.789095 1.731 0 0 255
2.192884 -12.707593 1.582 0 0 255
2.138893 -12.809152 1.66 0 0 255
2.039537 -12.995337 1.82 0 0 255
2.19697 -12.699574 1.559 0 0 255
2.199693 -12.694228 1.613 0 0 255
2.099412 -12.884433 1.672 0 0 255
2.136219 -12.807789 1.829 0 0 255
1.950554 -13.169974 1.766 0 0 255
2.0658 -12.952602 1.594 0 0 255
2.003217 -13.066618 1.806 0 0 255
1.877445 -13.315662 1.669 0 0 255
2.090299 -12.906724 1.578 0 0 255
1.990942 -13.092911 1.732 0 0 255
2.068626 -12.933841 1.968 0 0 255
2.088987 -12.90269 1.762 0 0 255
2.024101 -13.025632 1.832 0 0 255
2.047187 -12.989134 1.615 0 0 255
2.102607 -12.875958 1.722 0 0 255
2.072729 -12.923586 2.035 0 0 255
1.968277 -13.132989 1.818 0 0 255
1.840654 -13.39007 1.564 0 0 255
1.918287 -13.237708 1.597 0 0 255
2.064893 -12.954385 1.629 0 0 255
2.171597 -12.742763 1.764 0 0 255
1.975053 -13.124096 1.699 0 0 255
1.986471 -13.092877 1.951 0 0 255
2.091762 -12.890635 1.89 0 0 255
2.113469 -12.859047 1.64 0 0 255
1.96641 -13.143261 1.674 0 0 255
1.969185 -13.131207 1.832 0 0 255
1.953261 -13.166864 1.679 0 0 255
2.191539 -12.70803 1.629 0 0 255
2.102993 -12.884012 1.541 0 0 255
2.165712 -12.75211 1.771 0 0 255
2.118429 -12.853718 1.552 0 0 255
1.920994 -13.234598 1.579 0 0 255
1.890628 -13.287587 1.73 0 0 255
1.978685 -13.116967 1.712 0 0 255
1.9918 -13.097836 1.536 0 0 255
2.081338 -12.908893 1.956 0 0 255
2.111284 -12.852323 1.927 0 0 255
1.900616 -13.267984 1.722 0 0 255
1.892393 -13.290731 1.546 0 0 255
1.996896 -13.07462 1.887 0 0 255
2.010918 -13.053707 1.732 0 0 255
2.093544 -12.891543 1.803 0 0 255
1.970916 -13.138824 1.548 0 0 255
1.985444 -13.110311 1.563 0 0 255
2.196532 -12.69823 1.62 0 0 255
1.844287 -13.382942 1.594 0 0 255
2.029617 -13.005995 2.038 0 0 255
2.050938 -12.966353 1.986 0 0 255
2.06084 -12.957932 1.702 0 0 255
1.848844 -13.371796 1.638 0 0 255
2.017745 -13.038106 1.805 0 0 255
1.954203 -13.16061 1.793 0 0 255
2.164736 -12.762836 1.551 0 0 255
1.962846 -13.141445 1.865 0 0 255
2.084516 -12.902656 1.953 0 0 255
1.922827 -13.228797 1.605 0 0 255
2.042295 -12.985518 1.948 0 0 255
2.004545 -13.068417 1.662 0 0 255
1.88106 -13.31077 1.58 0 0 255
2.137162 -12.801535 1.96 0 0 255
2.109417 -12.862595 1.773 0 0 255
2.098488 -12.888451 1.656 0 0 255
2.123088 -12.829156 1.963 0 0 255
2.062724 -12.945423 1.964 0 0 255
1.93559 -13.197142 1.804 0 0 255
1.878807 -13.312989 1.631 0 0 255
2.031416 -13.004667 1.999 0 0 255
1.958205 -13.163772 1.535 0 0 255
2.128451 -12.829644 1.63 0 0 255
2.198349 -12.694665 1.644 0 0 255
2.111182 -12.865738 1.56 0 0 255
2.073183 -12.922695 2.038 0 0 255
1.920086 -13.23638 1.592 0 0 255
2.172454 -12.747688 1.588 0 0 255
1.919666 -13.232799 1.695 0 0 255
2.045926 -12.978392 1.952 0 0 255
1.887853 -13.299642 1.566 0 0 255
1.979105 -13.120549 1.616 0 0 255
2.001419 -13.067945 1.873 0 0 255
1.897891 -13.273332 1.695 0 0 255
2.16931 -12.749454 1.661 0 0 255
2.055375 -12.97086 1.672 0 0 255
2.140725 -12.80335 1.744 0 0 255
2.143416 -12.802477 1.601 0 0 255
1.999637 -13.067038 1.98 0 0 255
2.169781 -12.746326 1.741 0 0 255
2.056754 -12.965951 1.747 0 0 255
2.049138 -12.967682 2.068 0 0 255
2.088046 -12.908943 1.626 0 0 255
2.004108 -13.067072 1.76 0 0 255
2.185637 -12.719613 1.648 0 0 255
2.089913 -12.898671 1.789 0 0 255
2.17659 -12.732962 1.744 0 0 255
2.088619 -12.8924 2.023 0 0 255
1.871526 -13.329482 1.564 0 0 255
2.049473 -12.982443 1.673 0 0 255
2.075771 -12.935237 1.578 0 0 255
2.034157 -12.997085 2.03 0 0 255
1.930579 -13.209178 1.731 0 0 255
2.017694 -13.044813 1.634 0 0 255
1.889668 -13.296078 1.566 0 0 255
2.023142 -13.034122 1.621 0 0 255
2.054484 -12.970406 1.742 0 0 255
1.966847 -13.144607 1.604 0 0 255
1.939659 -13.191359 1.765 0 0 255
2.060823 -12.960168 1.679 0 0 255
2.046312 -12.986444 1.737 0 0 255
2.18747 -12.713813 1.706 0 0 255
2.088619 -12.8924 2.047 0 0 255
2.060505 -12.943171 2.104 0 0 255
1.971858 -13.132569 1.667 0 0 255
2.034157 -12.997085 2.038 0 0 255
1.885634 -13.297388 1.694 0 0 255
1.947343 -13.180683 1.657 0 0 255
2.041857 -12.984175 1.976 0 0 255
2.04776 -12.97259 1.997 0 0 255
2.189252 -12.714721 1.561 0 0 255
2.011372 -13.052815 1.771 0 0 255
2.206486 -12.683099 1.525 0 0 255
1.888777 -13.295624 1.61 0 0 255
2.079522 -12.912457 1.956 0 0 255
2.064086 -12.942751 1.956 0 0 255
1.832483 -13.406108 1.58 0 0 255
2.076696 -12.931219 1.626 0 0 255
1.816593 -13.437293 1.548 0 0 255
2.109434 -12.860358 1.822 0 0 255
1.888794 -13.293387 1.658 0 0 255
2.070777 -12.945038 1.578 0 0 255
2.089913 -12.898671 1.776 0 0 255
2.066271 -12.949476 1.645 0 0 255
2.158834 -12.774419 1.563 0 0 255
1.975961 -13.122314 1.698 0 0 255
2.060857 -12.955696 1.753 0 0 255
2.065851 -12.945895 1.795 0 0 255
1.886979 -13.296951 1.672 0 0 255
2.07673 -12.926746 1.721 0 0 255
2.099009 -12.878615 1.889 0 0 255
2.122651 -12.82781 1.976 0 0 255
2.029515 -13.019411 1.713 0 0 255
1.97507 -13.121861 1.787 0 0 255
2.182425 -12.730322 1.543 0 0 255
2.089981 -12.889728 2.007 0 0 255
1.986 -13.096004 1.918 0 0 255
2.130806 -12.814009 1.938 0 0 255
2.119019 -12.834939 1.977 0 0 255
2.078983 -12.924527 1.704 0 0 255
1.940516 -13.196284 1.602 0 0 255
2.055392 -12.968624 1.728 0 0 255
2.01724 -13.045705 1.619 0 0 255
2.064001 -12.95393 1.679 0 0 255
2.147586 -12.783278 1.912 0 0 255
2.171109 -12.748125 1.629 0 0 255
1.895604 -13.280023 1.677 0 0 255
2.183367 -12.724068 1.615 0 0 255
1.917396 -13.237254 1.653 0 0 255
1.931033 -13.208288 1.751 0 0 255
2.053997 -12.975769 1.624 0 0 255
2.122566 -12.838991 1.712 0 0 255
1.931504 -13.205161 1.792 0 0 255
1.999132 -13.074636 1.794 0 0 255
2.039571 -12.990866 1.916 0 0 255
1.955043 -13.167772 1.6 0 0 255
1.923752 -13.22478 1.693 0 0 255
2.099077 -12.869671 2.08 0 0 255
2.067684 -12.940094 1.839 0 0 255
2.150259 -12.784639 1.752 0 0 255
2.153 -12.777057 1.775 0 0 255
1.971472 -13.124516 1.873 0 0 255
1.904213 -13.265329 1.585 0 0 255
2.183367 -12.724068 1.615 0 0 255
1.947376 -13.176211 1.786 0 0 255
2.067162 -12.94993 1.603 0 0 255
2.201946 -12.692009 1.533 0 0 255
2.005487 -13.062162 1.774 0 0 255
2.176137 -12.733852 1.739 0 0 255
2.042328 -12.981047 2.057 0 0 255
1.868836 -13.330356 1.681 0 0 255
2.015509 -13.038088 1.9 0 0 255
2.065851 -12.945895 1.792 0 0 255
2.108895 -12.872429 1.54 0 0 255
1.968714 -13.134335 1.746 0 0 255
2.05361 -12.967716 1.837 0 0 255
2.112209 -12.848305 2.003 0 0 255
2.051828 -12.966808 1.954 0 0 255
1.930125 -13.21007 1.742 0 0 255
1.974094 -13.132586 1.555 0 0 255
1.946452 -13.180229 1.708 0 0 255
2.112646 -12.849649 1.916 0 0 255
2.154799 -12.775729 1.751 0 0 255
1.911494 -13.248837 1.678 0 0 255
1.961904 -13.147699 1.794 0 0 255
2.060336 -12.96553 1.536 0 0 255
2.00362 -13.072434 1.612 0 0 255
2.113923 -12.858156 1.645 0 0 255
2.064472 -12.950804 1.747 0 0 255
2.108509 -12.864376 1.768 0 0 255
2.088483 -12.910289 1.539 0 0 255
2.18747 -12.713813 1.688 0 0 255
2.106172 -12.877775 1.534 0 0 255
2.071685 -12.943255 1.54 0 0 255
1.949175 -13.174884 1.721 0 0 255
2.195607 -12.702247 1.569 0 0 255
2.165661 -12.758818 1.596 0 0 255
1.902834 -13.270238 1.56 0 0 255
2.105802 -12.867486 1.819 0 0 255
2.052753 -12.96279 1.986 0 0 255
2.0069 -13.052782 1.963 0 0 255
2.171092 -12.750361 1.594 0 0 255
2.101279 -12.874161 1.878 0 0 255
2.133462 -12.817607 1.694 0 0 255
2.158431 -12.768601 1.751 0 0 255
1.96187 -13.152171 1.625 0 0 255
2.034106 -13.003794 1.891 0 0 255
2.104406 -12.874631 1.695 0 0 255
2.126249 -12.825155 1.911 0 0 255
2.058656 -12.951206 2.016 0 0 255
2.105887 -12.856306 2.084 0 0 255
2.139784 -12.809606 1.574 0 0 255
1.984536 -13.112093 1.561 0 0 255
1.918287 -13.237708 1.597 0 0 255
2.078949 -12.929 1.547 0 0 255
2.036307 -13.008283 1.656 0 0 255
1.957767 -13.162426 1.563 0 0 255
1.897438 -13.274221 1.741 0 0 255
2.073216 -12.918222 2.115 0 0 255
2.051306 -12.976643 1.695 0 0 255
2.0468 -12.981081 1.825 0 0 255
1.995028 -13.084892 1.734 0 0 255
1.969656 -13.12808 1.864 0 0 255
2.081825 -12.903529 2.059 0 0 255
2.114394 -12.855029 1.711 0 0 255
2.019561 -13.034541 1.823 0 0 255
2.162971 -12.759691 1.748 0 0 255
2.149385 -12.78195 1.866 0 0 255
2.142071 -12.802915 1.67 0 0 255
2.073149 -12.927166 1.889 0 0 255
1.976466 -13.114716 1.878 0 0 255
2.202854 -12.690227 1.556 0 0 255
2.144341 -12.798459 1.69 0 0 255
1.821133 -13.428383 1.54 0 0 255
2.054081 -12.964589 1.912 0 0 255
2.130368 -12.812664 1.974 0 0 255
1.926947 -13.216307 1.716 0 0 255
2.065028 -12.936497 2.067 0 0 255
2.053224 -12.959662 2.058 0 0 255
2.01455 -13.046578 1.719 0 0 255
2.179735 -12.731196 1.631 0 0 255
1.881968 -13.308989 1.599 0 0 255
2.149402 -12.779714 1.883 0 0 255
2.145703 -12.795786 1.652 0 0 255
1.953227 -13.171336 1.608 0 0 255
2.05899 -12.965968 1.588 0 0 255
2.068087 -12.945911 1.657 0 0 255
2.133529 -12.808663 1.957 0 0 255
1.932412 -13.203379 1.783 0 0 255
2.170655 -12.749016 1.629 0 0 255
2.206032 -12.68399 1.55 0 0 255
2.01951 -13.041249 1.609 0 0 255
2.117589 -12.846556 1.736 0 0 255
1.952387 -13.164175 1.8 0 0 255
1.939222 -13.190014 1.801 0 0 255
2.127543 -12.831426 1.68 0 0 255
2.111789 -12.844723 2.09 0 0 255
2.164736 -12.762836 1.582 0 0 255
2.112124 -12.859484 1.693 0 0 255
2.164787 -12.756127 1.743 0 0 255
2.17612 -12.736088 1.683 0 0 255
2.045421 -12.985991 1.766 0 0 255
2.008614 -13.062634 1.617 0 0 255
2.103498 -12.876413 1.67 0 0 255
2.049961 -12.97708 1.755 0 0 255
2.168436 -12.746763 1.773 0 0 255
1.876974 -13.318789 1.607 0 0 255
1.937826 -13.197159 1.668 0 0 255
1.976835 -13.125004 1.606 0 0 255
2.099429 -12.882195 1.746 0 0 255
2.099866 -12.883541 1.71 0 0 255
2.066742 -12.946349 1.704 0 0 255
1.994575 -13.085783 1.748 0 0 255
2.161139 -12.765491 1.665 0 0 255
2.135294 -12.811807 1.775 0 0 255
2.186124 -12.714251 1.728 0 0 255
2.098975 -12.883087 1.762 0 0 255
1.978248 -13.115623 1.807 0 0 255
1.98188 -13.108495 1.801 0 0 255
2.049087 -12.97439 1.874 0 0 255
1.986857 -13.10093 1.741 0 0 255
2.100405 -12.87147 1.956 0 0 255
2.151655 -12.777494 1.844 0 0 255
2.008262 -13.050108 1.99 0 0 255
2.026774 -13.026994 1.648 0 0 255
1.955934 -13.168227 1.545 0 0 255
1.975104 -13.117389 1.883 0 0 255
2.103902 -12.88223 1.528 0 0 255
2.083608 -12.904438 1.944 0 0 255
1.959634 -13.152155 1.762 0 0 255
2.015038 -13.041216 1.84 0 0 255
1.880606 -13.311662 1.601 0 0 255
2.029078 -13.018066 1.767 0 0 255
2.005874 -13.070215 1.563 0 0 255
2.035518 -12.994412 2.063 0 0 255
2.070459 -12.928041 1.998 0 0 255
2.071299 -12.935203 1.785 0 0 255
1.916522 -13.234564 1.777 0 0 255
1.994103 -13.08891 1.661 0 0 255
1.907391 -13.259092 1.636 0 0 255
1.984115 -13.108512 1.653 0 0 255
2.00315 -13.075562 1.591 0 0 255
2.009068 -13.061743 1.622 0 0 255
2.108509 -12.864376 1.734 0 0 255
2.112578 -12.858593 1.689 0 0 255
2.177902 -12.736996 1.551 0 0 255
1.866095 -13.337937 1.669 0 0 255
2.119371 -12.847464 1.65 0 0 255
2.010464 -13.054598 1.741 0 0 255
2.054047 -12.969061 1.765 0 0 255
1.892881 -13.285368 1.675 0 0 255
2.047322 -12.971246 2.039 0 0 255
1.944635 -13.183794 1.712 0 0 255
2.127628 -12.820246 1.966 0 0 255
1.979996 -13.121003 1.557 0 0 255
2.118565 -12.835831 1.991 0 0 255
2.017257 -13.043468 1.69 0 0 255
1.94509 -13.182902 1.697 0 0 255
1.979576 -13.117421 1.659 0 0 255
2.001787 -13.078236 1.558 0 0 255
2.089106 -12.887038 2.174 0 0 255
2.10629 -12.862123 1.95 0 0 255
2.003234 -13.064382 1.831 0 0 255
1.964123 -13.149952 1.611 0 0 255
2.069063 -12.935186 1.897 0 0 255
2.166149 -12.753454 1.726 0 0 255
2.142036 -12.807385 1.559 0 0 255
2.093646 -12.878127 2.136 0 0 255
2.064926 -12.949913 1.728 0 0 255
2.030406 -13.019865 1.658 0 0 255
2.065414 -12.94455 1.828 0 0 255
2.06353 -12.957058 1.609 0 0 255
2.125761 -12.830518 1.78 0 0 255
2.161121 -12.767728 1.64 0 0 255
2.048129 -12.98288 1.712 0 0 255
1.935573 -13.199378 1.752 0 0 255
1.9519 -13.169537 1.701 0 0 255
1.858814 -13.35443 1.579 0 0 255
2.107181 -12.862577 1.881 0 0 255
2.136237 -12.805552 1.912 0 0 255
1.993179 -13.092928 1.629 0 0 255
2.11663 -12.855046 1.589 0 0 255
1.968294 -13.130754 1.893 0 0 255
1.945543 -13.182012 1.69 0 0 255
1.88787 -13.297405 1.6 0 0 255
2.136254 -12.803316 1.947 0 0 255
2.154833 -12.771257 1.866 0 0 255
2.076798 -12.917803 1.938 0 0 255
2.130284 -12.823843 1.73 0 0 255
1.949192 -13.172647 1.731 0 0 255
2.072173 -12.937893 1.682 0 0 255
2.15342 -12.780639 1.671 0 0 255
1.841109 -13.389179 1.55 0 0 255
2.207394 -12.681316 1.56 0 0 255
1.958692 -13.158408 1.664 0 0 255
2.068121 -12.94144 1.758 0 0 255
1.842017 -13.387397 1.587 0 0 255
1.945073 -13.185139 1.623 0 0 255
1.971909 -13.125861 1.84 0 0 255
2.103146 -12.863889 2.056 0 0 255
1.876066 -13.320572 1.588 0 0 255
1.919632 -13.237271 1.578 0 0 255
2.21602 -12.664388 1.54 0 0 255
2.167443 -12.759726 1.532 0 0 255
1.981392 -13.113858 1.665 0 0 255
1.980064 -13.11206 1.791 0 0 255
2.082666 -12.910691 1.881 0 0 255
1.832937 -13.405217 1.555 0 0 255
2.100303 -12.884887 1.647 0 0 255
2.052668 -12.97397 1.692 0 0 255
2.060369 -12.961059 1.658 0 0 255
2.180626 -12.73165 1.593 0 0 255
2.041369 -12.989537 1.874 0 0 255
2.063161 -12.946769 1.881 0 0 255
2.027784 -13.011796 1.987 0 0 255
2.05134 -12.972171 1.845 0 0 255
2.101314 -12.869688 1.966 0 0 255
2.015912 -13.043905 1.744 0 0 255
2.027347 -13.01045 2.037 0 0 255
2.110342 -12.858576 1.843 0 0 255
2.003234 -13.064382 1.844 0 0 255
2.027733 -13.018503 1.836 0 0 255
1.881043 -13.313006 1.558 0 0 255
2.023596 -13.033231 1.639 0 0 255
1.932798 -13.211432 1.55 0 0 255
2.088131 -12.897763 1.929 0 0 255
2.015004 -13.045687 1.736 0 0 255
2.025009 -13.023849 1.837 0 0 255
2.123559 -12.826029 1.978 0 0 255
2.093544 -12.891543 1.784 0 0 255
1.93601 -13.200723 1.719 0 0 255
2.15611 -12.779764 1.582 0 0 255
2.141617 -12.803804 1.635 0 0 255
2.118883 -12.852827 1.544 0 0 255
1.916976 -13.233672 1.796 0 0 255
2.226916 -12.643003 1.541 0 0 255
1.978702 -13.114732 1.794 0 0 255
2.077604 -12.929437 1.596 0 0 255
2.182946 -12.720488 1.722 0 0 255
2.11209 -12.863956 1.556 0 0 255
2.046381 -12.9775 1.963 0 0 255
1.972732 -13.135259 1.567 0 0 255
2.005067 -13.058582 1.93 0 0 255
2.189706 -12.71383 1.591 0 0 255
2.040916 -12.990428 1.854 0 0 255
2.034157 -12.997085 2.05 0 0 255
2.116312 -12.838049 2.044 0 0 255
1.953749 -13.161502 1.848 0 0 255
1.876066 -13.320572 1.573 0 0 255
1.981409 -13.111622 1.718 0 0 255
2.100303 -12.884887 1.604 0 0 255
2.054047 -12.969061 1.768 0 0 255
1.986857 -13.10093 1.744 0 0 255
1.922827 -13.228797 1.601 0 0 255
1.921936 -13.228343 1.688 0 0 255
2.058638 -12.953444 1.943 0 0 255
2.025866 -13.028775 1.642 0 0 255
2.086837 -12.891492 2.164 0 0 255
2.12033 -12.838974 1.815 0 0 255
2.151587 -12.786439 1.634 0 0 255
2.092115 -12.90316 1.58 0 0 255
1.930982 -13.214995 1.546 0 0 255
2.101699 -12.877742 1.761 0 0 255
2.083641 -12.899965 2.067 0 0 255
2.108492 -12.866612 1.703 0 0 255
1.986823 -13.105402 1.612 0 0 255
2.085911 -12.895511 2.067 0 0 255
2.102573 -12.880432 1.643 0 0 255
1.898329 -13.274675 1.658 0 0 255
2.029952 -13.020757 1.651 0 0 255
2.021865 -13.025614 1.947 0 0 255
2.208773 -12.676408 1.578 0 0 255
2.093124 -12.887962 1.938 0 0 255
1.996441 -13.075511 1.894 0 0 255
2.150276 -12.782404 1.8 0 0 255
2.078597 -12.916474 1.922 0 0 255
1.962341 -13.149044 1.684 0 0 255
1.842017 -13.387397 1.55 0 0 255
2.098623 -12.870563 2.105 0 0 255
2.051255 -12.983351 1.542 0 0 255
2.196079 -12.69912 1.626 0 0 255
2.011338 -13.057287 1.636 0 0 255
2.131243 -12.815354 1.878 0 0 255
2.019595 -13.030069 1.946 0 0 255
1.999602 -13.07151 1.86 0 0 255
2.145703 -12.795786 1.678 0 0 255
2.128031 -12.826063 1.754 0 0 255
2.117992 -12.852373 1.579 0 0 255
2.194228 -12.707156 1.528 0 0 255
2.152563 -12.775713 1.838 0 0 255
2.07135 -12.928495 1.939 0 0 255
2.118548 -12.838066 1.955 0 0 255
1.945509 -13.186483 1.561 0 0 255
2.051255 -12.983351 1.553 0 0 255
1.952387 -13.164175 1.844 0 0 255
1.925114 -13.222106 1.7 0 0 255
2.091728 -12.895107 1.81 0 0 255
2.027716 -13.02074 1.779 0 0 255
1.909224 -13.253292 1.653 0 0 255
1.888324 -13.296515 1.573 0 0 255
2.095747 -12.896032 1.564 0 0 255
1.937355 -13.200286 1.613 0 0 255
2.011441 -13.043871 1.957 0 0 255
1.930125 -13.21007 1.756 0 0 255
1.945997 -13.181121 1.685 0 0 255
1.995886 -13.089818 1.571 0 0 255
2.073972 -12.936564 1.608 0 0 255
2.036325 -13.006045 1.726 0 0 255
1.976466 -13.114716 1.872 0 0 255
2.103919 -12.879994 1.576 0 0 255
1.986891 -13.096458 1.872 0 0 255
2.132974 -12.822969 1.611 0 0 255
1.998694 -13.073292 1.865 0 0 255
1.877882 -13.317007 1.613 0 0 255
2.118917 -12.848355 1.654 0 0 255
2.142138 -12.79397 1.904 0 0 255
1.911494 -13.248837 1.654 0 0 255
1.898765 -13.276021 1.58 0 0 255
2.179735 -12.731196 1.609 0 0 255
2.053071 -12.979788 1.537 0 0 255
2.073569 -12.930748 1.812 0 0 255
2.050398 -12.978425 1.692 0 0 255
2.056703 -12.972659 1.566 0 0 255
2.000073 -13.068383 1.931 0 0 255
2.153387 -12.78511 1.558 0 0 255
2.08396 -12.916963 1.621 0 0 255
2.095764 -12.893796 1.65 0 0 255
1.940096 -13.192703 1.687 0 0 255
2.137985 -12.810933 1.648 0 0 255
2.132605 -12.812681 1.909 0 0 255
2.061345 -12.950333 1.911 0 0 255
2.079908 -12.920509 1.76 0 0 255
1.894663 -13.286276 1.541 0 0 255
1.905121 -13.263547 1.622 0 0 255
1.91827 -13.239944 1.56 0 0 255
2.020032 -13.031415 1.889 0 0 255
1.893335 -13.284477 1.655 0 0 255
2.110796 -12.857685 1.837 0 0 255
1.920574 -13.231017 1.709 0 0 255
2.096774 -12.878598 1.96 0 0 255
1.980047 -13.114295 1.745 0 0 255
1.987765 -13.099148 1.723 0 0 255
2.128553 -12.816228 2.012 0 0 255
1.974582 -13.127223 1.686 0 0 255
1.99908 -13.081345 1.616 0 0 255
1.987765 -13.099148 1.744 0 0 255
1.95918 -13.153046 1.79 0 0 255
2.077133 -12.932564 1.568 0 0 255
2.143501 -12.791297 1.872 0 0 255
2.053559 -12.974424 1.658 0 0 255
2.196515 -12.700465 1.578 0 0 255
2.070374 -12.93922 1.713 0 0 255
1.991431 -13.087548 1.864 0 0 255
2.032659 -13.017646 1.567 0 0 255
1.962829 -13.143682 1.813 0 0 255
2.082733 -12.901748 2.098 0 0 255
2.00774 -13.059944 1.733 0 0 255
2.01371 -13.039417 2.007 0 0 255
2.171109 -12.748125 1.601 0 0 255
1.887416 -13.298296 1.575 0 0 255
2.136623 -12.813605 1.648 0 0 255
1.966478 -13.134317 1.899 0 0 255
2.066759 -12.944113 1.766 0 0 255
2.068524 -12.947257 1.61 0 0 255
1.962829 -13.143682 1.853 0 0 255
2.135698 -12.817624 1.59 0 0 255
2.143903 -12.797113 1.747 0 0 255
1.905104 -13.265783 1.545 0 0 255
2.046834 -12.976609 1.966 0 0 255
2.007774 -13.055471 1.87 0 0 255
2.076713 -12.928983 1.68 0 0 255
2.187016 -12.714705 1.678 0 0 255
2.07589 -12.919585 1.965 0 0 255
2.150679 -12.78822 1.592 0 0 255
1.975019 -13.128568 1.597 0 0 255
2.136185 -12.812261 1.703 0 0 255
2.136708 -12.802426 1.921 0 0 255
2.128989 -12.817574 1.962 0 0 255
2.05092 -12.96859 1.947 0 0 255
1.958205 -13.163772 1.535 0 0 255
2.059041 -12.95926 1.771 0 0 255
2.197877 -12.697792 1.561 0 0 255
2.079959 -12.913802 1.889 0 0 255
2.014567 -13.044343 1.786 0 0 255
2.103163 -12.861652 2.102 0 0 255
2.04142 -12.982829 2.079 0 0 255
2.141129 -12.809168 1.551 0 0 255
2.100741 -12.886231 1.569 0 0 255
2.023176 -13.02965 1.745 0 0 255
2.084584 -12.893711 2.175 0 0 255
2.078126 -12.919601 1.825 0 0 255
2.152563 -12.775713 1.829 0 0 255
1.987379 -13.091095 1.948 0 0 255
2.048549 -12.986461 1.596 0 0 255
1.873359 -13.323682 1.648 0 0 255
2.079942 -12.916038 1.833 0 0 255
2.123071 -12.831392 1.854 0 0 255
1.92054 -13.235488 1.565 0 0 255
1.875612 -13.321463 1.608 0 0 255
2.045841 -12.989572 1.636 0 0 255
2.156195 -12.768584 1.846 0 0 255
2.224192 -12.64835 1.53 0 0 255
1.946417 -13.184702 1.583 0 0 255
1.955077 -13.1633 1.731 0 0 255
2.021899 -13.021142 2.033 0 0 255
1.986403 -13.101821 1.733 0 0 255
2.00774 -13.059944 1.758 0 0 255
2.067196 -12.945457 1.749 0 0 255
2.048549 -12.986461 1.576 0 0 255
1.983696 -13.104931 1.796 0 0 255
2.095361 -12.887979 1.822 0 0 255
2.03456 -13.002902 1.852 0 0 255
1.98415 -13.104039 1.787 0 0 255
2.107096 -12.873757 1.574 0 0 255
2.090804 -12.899125 1.736 0 0 255
2.089527 -12.890618 2.041 0 0 255
1.926022 -13.220325 1.673 0 0 255
2.126266 -12.822919 1.926 0 0 255
2.183855 -12.718704 1.744 0 0 255
1.954589 -13.168663 1.58 0 0 255
2.072627 -12.937002 1.671 0 0 255
1.968663 -13.141042 1.612 0 0 255
2.206975 -12.677735 1.625 0 0 255
1.830667 -13.409672 1.543 0 0 255
2.095848 -12.882617 1.941 0 0 255
2.035922 -13.00023 1.854 0 0 255
1.895621 -13.277786 1.709 0 0 255
2.202435 -12.686646 1.624 0 0 255
2.124433 -12.828718 1.87 0 0 255
2.022217 -13.03814 1.597 0 0 255
2.017291 -13.038996 1.815 0 0 255
2.111284 -12.852323 1.92 0 0 255
2.090401 -12.893308 1.945 0 0 255
2.050886 -12.973063 1.854 0 0 255
1.992339 -13.085766 1.854 0 0 255
2.003201 -13.068853 1.764 0 0 255
2.019056 -13.042141 1.639 0 0 255
2.080765 -12.925435 1.546 0 0 255
1.952757 -13.174463 1.554 0 0 255
2.143517 -12.789061 1.934 0 0 255
2.121658 -12.840773 1.732 0 0 255
1.909258 -13.24882 1.77 0 0 255
2.017796 -13.031397 2.002 0 0 255
2.032256 -13.011828 1.772 0 0 255
2.092115 -12.90316 1.572 0 0 255
2.052634 -12.978442 1.623 0 0 255
1.990892 -13.099619 1.574 0 0 255
2.103129 -12.866124 2.012 0 0 255
2.102675 -12.867016 1.956 0 0 255
1.936867 -13.205648 1.534 0 0 255
1.905104 -13.265783 1.56 0 0 255
1.960508 -13.154844 1.651 0 0 255
1.936498 -13.19536 1.81 0 0 255
1.891065 -13.288933 1.688 0 0 255
2.083188 -12.900856 2.077 0 0 255
1.985495 -13.103603 1.698 0 0 255
1.951479 -13.165956 1.807 0 0 255
2.014618 -13.037634 1.96 0 0 255
2.079034 -12.91782 1.853 0 0 255
2.012263 -13.053269 1.672 0 0 255
1.964208 -13.138772 1.889 0 0 255
2.01682 -13.042124 1.736 0 0 255
1.972766 -13.130787 1.664 0 0 255
1.982351 -13.105369 1.854 0 0 255
2.034594 -12.99843 2.013 0 0 255
1.967301 -13.143715 1.614 0 0 255
2.050852 -12.977534 1.731 0 0 255
2.082683 -12.908456 1.899 0 0 255
2.063649 -12.941406 2.015 0 0 255
1.995516 -13.079529 1.864 0 0 255
2.145669 -12.800258 1.569 0 0 255
2.066254 -12.951712 1.62 0 0 255
1.966847 -13.144607 1.584 0 0 255
2.032307 -13.005121 1.948 0 0 255
2.051289 -12.978879 1.662 0 0 255
1.955077 -13.1633 1.683 0 0 255
1.821133 -13.428383 1.562 0 0 255
2.088534 -12.903581 1.747 0 0 255
1.970025 -13.13837 1.617 0 0 255
1.965553 -13.138335 1.832 0 0 255
2.18066 -12.727179 1.703 0 0 255
1.932832 -13.20696 1.704 0 0 255
1.907374 -13.261328 1.564 0 0 255
1.969622 -13.132552 1.785 0 0 255
2.124433 -12.828718 1.899 0 0 255
2.051846 -12.964572 2.033 0 0 255
2.03007 -13.005105 2.024 0 0 255
1.930142 -13.207834 1.818 0 0 255
1.985528 -13.099132 1.856 0 0 255
2.044479 -12.992244 1.671 0 0 255
2.054888 -12.976223 1.53 0 0 255
2.147501 -12.794457 1.612 0 0 255
2.135226 -12.820751 1.541 0 0 255
1.919246 -13.229218 1.799 0 0 255
2.039554 -12.993101 1.867 0 0 255
2.137581 -12.805116 1.844 0 0 255
2.171597 -12.742763 1.746 0 0 255
1.97053 -13.130771 1.755 0 0 255
2.138978 -12.797971 1.965 0 0 255
2.068961 -12.948602 1.555 0 0 255
2.166098 -12.760162 1.576 0 0 255
2.113066 -12.85323 1.826 0 0 255
2.008228 -13.054581 1.868 0 0 255
2.048532 -12.988697 1.547 0 0 255
2.081371 -12.904421 2.088 0 0 255
2.19243 -12.708484 1.601 0 0 255
2.157035 -12.775747 1.602 0 0 255
2.063144 -12.949005 1.849 0 0 255
2.103464 -12.880886 1.583 0 0 255
2.111704 -12.855904 1.81 0 0 255
2.035956 -12.995757 1.987 0 0 255
1.95733 -13.161081 1.646 0 0 255
2.123054 -12.833628 1.815 0 0 255
2.072593 -12.941474 1.577 0 0 255
1.929183 -13.216324 1.653 0 0 255
2.070374 -12.93922 1.726 0 0 255
1.953715 -13.165974 1.722 0 0 255
2.039587 -12.988629 1.974 0 0 255
2.021882 -13.023378 2.002 0 0 255
2.009085 -13.059506 1.658 0 0 255
2.095293 -12.896923 1.591 0 0 255
2.03456 -13.002902 1.898 0 0 255
2.090401 -12.893308 1.923 0 0 255
2.13933 -12.810495 1.588 0 0 255
1.966377 -13.147733 1.549 0 0 255
2.025446 -13.025194 1.77 0 0 255
2.023579 -13.035466 1.586 0 0 255
1.859722 -13.352648 1.597 0 0 255
2.210135 -12.673735 1.589 0 0 255
2.000005 -13.077327 1.649 0 0 255
2.052299 -12.963681 1.991 0 0 255
1.984638 -13.098678 1.912 0 0 255
2.041285 -13.000717 1.617 0 0 255
1.895133 -13.28315 1.581 0 0 255
2.103061 -12.875069 1.745 0 0 255
2.131277 -12.810882 1.982 0 0 255
2.154833 -12.771257 1.839 0 0 255
1.881094 -13.306298 1.696 0 0 255
1.963737 -13.141899 1.813 0 0 255
1.862917 -13.344174 1.639 0 0 255
1.956456 -13.158392 1.741 0 0 255
2.184746 -12.719159 1.701 0 0 255
2.0449 -12.995825 1.547 0 0 255
2.046329 -12.984208 1.789 0 0 255
1.965519 -13.142807 1.716 0 0 255
1.934211 -13.202051 1.748 0 0 255
2.109888 -12.859468 1.81 0 0 255
1.853366 -13.365122 1.574 0 0 255
2.041874 -12.981938 2.076 0 0 255
2.04226 -12.989991 1.814 0 0 255
1.812961 -13.444422 1.552 0 0 255
1.931924 -13.208742 1.705 0 0 255
1.960122 -13.146791 1.89 0 0 255
2.079488 -12.916928 1.869 0 0 255
1.983225 -13.108058 1.747 0 0 255
2.184258 -12.724522 1.55 0 0 255
2.202417 -12.688882 1.611 0 0 255
2.033248 -12.998868 2.039 0 0 255
2.048634 -12.975281 1.876 0 0 255
1.914689 -13.240364 1.75 0 0 255
2.082229 -12.909347 1.919 0 0 255
1.990018 -13.096929 1.655 0 0 255
2.126232 -12.827391 1.85 0 0 255
1.984099 -13.110748 1.623 0 0 255
2.040512 -12.984611 2.041 0 0 255
2.06353 -12.957058 1.586 0 0 255
2.096824 -12.87189 2.142 0 0 255
2.105853 -12.860779 1.988 0 0 255
2.027262 -13.02163 1.779 0 0 255
2.081389 -12.902184 2.126 0 0 255
2.160196 -12.771746 1.55 0 0 255
1.962846 -13.141445 1.865 0 0 255
2.113537 -12.850103 1.898 0 0 255
2.038157 -13.000246 1.772 0 0 255
1.980013 -13.118767 1.591 0 0 255
2.031365 -13.011374 1.844 0 0 255
2.056754 -12.965951 1.723 0 0 255
1.909678 -13.252401 1.669 0 0 255
2.088165 -12.893291 2.02 0 0 255
2.121204 -12.841664 1.713 0 0 255
1.945123 -13.178431 1.825 0 0 255
2.061697 -12.962858 1.531 0 0 255
2.091745 -12.892872 1.853 0 0 255
1.959163 -13.155281 1.72 0 0 255
2.151201 -12.778386 1.842 0 0 255
2.025951 -13.017595 1.938 0 0 255
1.859739 -13.350411 1.645 0 0 255
2.021848 -13.02785 1.847 0 0 255
2.182492 -12.721378 1.735 0 0 255
1.882893 -13.304971 1.677 0 0 255
1.954135 -13.169555 1.616 0 0 255
2.18789 -12.717395 1.564 0 0 255
2.014567 -13.044343 1.789 0 0 255
1.944216 -13.180213 1.792 0 0 255
2.020838 -13.043049 1.531 0 0 255
2.022671 -13.037249 1.56 0 0 255
2.200619 -12.690209 1.635 0 0 255
2.101682 -12.879977 1.715 0 0 255
2.101347 -12.865216 2.086 0 0 255
1.994626 -13.079075 1.908 0 0 255
2.028573 -13.025666 1.583 0 0 255
2.045002 -12.982409 1.883 0 0 255
1.947325 -13.18292 1.608 0 0 255
2.039956 -12.998919 1.699 0 0 255
2.083943 -12.919198 1.569 0 0 255
2.140238 -12.808714 1.6 0 0 255
2.079505 -12.914693 1.889 0 0 255
2.063144 -12.949005 1.834 0 0 255
2.094537 -12.878581 2.086 0 0 255
2.003654 -13.067963 1.767 0 0 255
2.019998 -13.035887 1.733 0 0 255
2.176086 -12.740561 1.583 0 0 255
2.077587 -12.931673 1.55 0 0 255
2.084516 -12.902656 1.951 0 0 255
1.995988 -13.076402 1.937 0 0 255
2.095377 -12.885743 1.849 0 0 255
1.906517 -13.256402 1.733 0 0 255
1.887416 -13.298296 1.6 0 0 255
2.130771 -12.818481 1.805 0 0 255
1.865641 -13.338829 1.625 0 0 255
1.981375 -13.116094 1.595 0 0 255
1.859268 -13.353539 1.595 0 0 255
1.845195 -13.38116 1.588 0 0 255
1.936061 -13.194015 1.838 0 0 255
1.961484 -13.144118 1.885 0 0 255
1.937389 -13.195814 1.741 0 0 255
1.919632 -13.237271 1.535 0 0 255
1.940078 -13.19494 1.644 0 0 255
1.935102 -13.202505 1.676 0 0 255
2.13891 -12.806914 1.737 0 0 255
1.943694 -13.190047 1.608 0 0 255
2.044463 -12.99448 1.607 0 0 255
2.03414 -12.999322 1.976 0 0 255
2.00362 -13.072434 1.599 0 0 255
2.015543 -13.033616 2.019 0 0 255
2.048599 -12.979753 1.748 0 0 255
2.04179 -12.993117 1.79 0 0 255
2.154816 -12.773494 1.801 0 0 255
2.0999 -12.879069 1.831 0 0 255
2.02632 -13.027884 1.626 0 0 255
2.05134 -12.972171 1.822 0 0 255
2.10982 -12.868412 1.562 0 0 255
2.085458 -12.896401 2.064 0 0 255
1.967301 -13.143715 1.607 0 0 255
2.069869 -12.946819 1.532 0 0 255
1.827943 -13.415018 1.547 0 0 255
2.065885 -12.941423 1.903 0 0 255
1.97238 -13.122734 1.892 0 0 255
1.977374 -13.112933 1.89 0 0 255
2.117992 -12.852373 1.563 0 0 255
1.997298 -13.080437 1.759 0 0 255
2.080765 -12.925435 1.568 0 0 255
2.008682 -13.05369 1.879 0 0 255
2.121255 -12.834955 1.852 0 0 255
2.052668 -12.97397 1.74 0 0 255
2.202854 -12.690227 1.554 0 0 255
1.959651 -13.149918 1.849 0 0 255
2.062151 -12.961967 1.54 0 0 255
2.038242 -12.989066 2.031 0 0 255
1.965031 -13.14817 1.622 0 0 255
2.031887 -13.00154 2.036 0 0 255
1.9823 -13.112076 1.665 0 0 255
1.844287 -13.382942 1.555 0 0 255
2.020401 -13.041703 1.594 0 0 255
2.110376 -12.854104 1.958 0 0 255
2.11537 -12.844303 1.907 0 0 255
2.129359 -12.827863 1.639 0 0 255
1.981443 -13.10715 1.862 0 0 255
2.041301 -12.998481 1.633 0 0 255
1.997786 -13.075074 1.853 0 0 255
2.082279 -12.902638 2.062 0 0 255
2.105802 -12.867486 1.799 0 0 255
2.024992 -13.026086 1.743 0 0 255
1.917362 -13.241726 1.59 0 0 255
1.996373 -13.084455 1.69 0 0 255
1.938331 -13.18956 1.847 0 0 255
2.048582 -12.981989 1.694 0 0 255
1.926459 -13.22167 1.652 0 0 255
1.917413 -13.235018 1.71 0 0 255
1.971841 -13.134805 1.624 0 0 255
2.12714 -12.825609 1.827 0 0 255
1.954623 -13.164191 1.678 0 0 255
2.097227 -12.877707 1.988 0 0 255
2.077201 -12.923619 1.797 0 0 255
2.113435 -12.863519 1.527 0 0 255
2.133024 -12.816262 1.746 0 0 255
2.092602 -12.897798 1.671 0 0 255
2.145771 -12.786841 1.923 0 0 255
2.04549 -12.977046 2.008 0 0 255
2.048549 -12.986461 1.571 0 0 255
2.171983 -12.750815 1.526 0 0 255
2.116613 -12.857282 1.545 0 0 255
2.107113 -12.871521 1.617 0 0 255
2.032188 -13.020773 1.546 0 0 255
2.110711 -12.868866 1.547 0 0 255
1.927367 -13.219888 1.625 0 0 255
2.010061 -13.04878 1.932 0 0 255
2.084011 -12.910254 1.784 0 0 255
2.05003 -12.968136 1.999 0 0 255
2.136589 -12.818078 1.527 0 0 255
2.120364 -12.834501 1.926 0 0 255
2.137547 -12.809587 1.733 0 0 255
1.963737 -13.141899 1.836 0 0 255
2.00004 -13.072855 1.783 0 0 255
2.048599 -12.979753 1.762 0 0 255
2.033686 -13.000213 2.014 0 0 255
2.066407 -12.931587 2.114 0 0 255
2.144341 -12.798459 1.675 0 0 255
2.210589 -12.672844 1.618 0 0 255
2.154362 -12.774384 1.758 0 0 255
2.040042 -12.987739 1.994 0 0 255
2.058167 -12.95657 1.882 0 0 255
2.007269 -13.06307 1.7 0 0 255
2.034912 -13.015428 1.554 0 0 255
1.946905 -13.179338 1.691 0 0 255
2.0922 -12.89198 1.854 0 0 255
1.940567 -13.189577 1.757 0 0 255
2.158465 -12.764129 1.833 0 0 255
2.092284 -12.880801 2.169 0 0 255
2.151167 -12.782858 1.713 0 0 255
1.968243 -13.137462 1.738 0 0 255
1.981845 -13.112967 1.668 0 0 255
1.846557 -13.378487 1.562 0 0 255
1.98499 -13.111202 1.546 0 0 255
2.031887 -13.00154 2.047 0 0 255
2.04142 -12.982829 2.044 0 0 255
1.865187 -13.339719 1.635 0 0 255
2.119893 -12.837629 1.901 0 0 255
2.097546 -12.894704 1.532 0 0 255
2.040411 -12.998027 1.699 0 0 255
1.969202 -13.128971 1.88 0 0 255
2.126164 -12.836335 1.589 0 0 255
2.085861 -12.902219 1.902 0 0 255
2.103061 -12.875069 1.774 0 0 255
1.965048 -13.145934 1.662 0 0 255
2.099026 -12.87638 1.896 0 0 255
1.832483 -13.406108 1.589 0 0 255
1.898799 -13.271549 1.707 0 0 255
2.024118 -13.023396 1.872 0 0 255
1.990018 -13.096929 1.644 0 0 255
2.114462 -12.846086 1.923 0 0 255
1.988253 -13.093785 1.852 0 0 255
2.063514 -12.959293 1.528 0 0 255
2.093056 -12.896907 1.686 0 0 255
2.03725 -13.002028 1.775 0 0 255
2.098135 -12.875926 1.981 0 0 255
1.967386 -13.132535 1.878 0 0 255
2.120733 -12.844791 1.671 0 0 255
1.84427 -13.385178 1.539 0 0 255
2.077739 -12.911549 2.054 0 0 255
2.005907 -13.065743 1.707 0 0 255
1.899271 -13.268422 1.757 0 0 255
2.037755 -12.99443 1.965 0 0 255
2.031802 -13.01272 1.736 0 0 255
2.025497 -13.018487 1.939 0 0 255
2.092619 -12.895561 1.718 0 0 255
2.109434 -12.860358 1.79 0 0 255
2.061379 -12.945861 1.994 0 0 255
1.944147 -13.189157 1.568 0 0 255
2.194683 -12.706264 1.551 0 0 255
2.116176 -12.855938 1.558 0 0 255
2.125341 -12.826937 1.909 0 0 255
2.113974 -12.851448 1.811 0 0 255
1.980989 -13.108041 1.844 0 0 255
1.895588 -13.282258 1.583 0 0 255
1.94509 -13.182902 1.676 0 0 255
2.069114 -12.928477 2.073 0 0 255
2.156161 -12.773057 1.74 0 0 255
1.935136 -13.198032 1.817 0 0 255
1.991431 -13.087548 1.825 0 0 255
2.053678 -12.958772 2.092 0 0 255
2.036778 -13.005156 1.705 0 0 255
1.937775 -13.203867 1.546 0 0 255
1.889703 -13.291605 1.658 0 0 255
2.087592 -12.909835 1.616 0 0 255
2.056368 -12.957898 1.941 0 0 255
1.898329 -13.274675 1.659 0 0 255
2.087608 -12.907598 1.673 0 0 255
2.168368 -12.755707 1.552 0 0 255
1.991833 -13.093365 1.673 0 0 255
2.118883 -12.852827 1.533 0 0 255
2.093579 -12.887071 1.899 0 0 255
2.123105 -12.826921 2.004 0 0 255
2.074965 -12.923603 1.903 0 0 255
2.039048 -13.0007 1.691 0 0 255
2.142541 -12.799787 1.713 0 0 255
1.864245 -13.345974 1.55 0 0 255
2.045909 -12.980627 1.857 0 0 255
1.85382 -13.364231 1.554 0 0 255
1.953296 -13.162392 1.825 0 0 255
2.007723 -13.06218 1.709 0 0 255
2.045371 -12.992698 1.609 0 0 255
1.976432 -13.119187 1.754 0 0 255
2.097596 -12.887997 1.697 0 0 255
1.861992 -13.348193 1.576 0 0 255
2.027279 -13.019395 1.816 0 0 255
2.099866 -12.883541 1.669 0 0 255
2.045841 -12.989572 1.638 0 0 255
2.213313 -12.667498 1.602 0 0 255
2.111199 -12.863503 1.639 0 0 255
2.049927 -12.981552 1.661 0 0 255
2.12988 -12.818027 1.911 0 0 255
1.945526 -13.184248 1.653 0 0 255
2.047203 -12.986898 1.649 0 0 255
2.008177 -13.061289 1.671 0 0 255
2.015441 -13.047032 1.664 0 0 255
2.110711 -12.868866 1.53 0 0 255
2.073637 -12.921803 2.003 0 0 255
2.045909 -12.980627 1.862 0 0 255
1.997332 -13.075965 1.856 0 0 255
1.96456 -13.151298 1.558 0 0 255
