ply
format ascii 1.0
element vertex 1339
property double x
property double y
property double z
property uchar red
property uchar green
property uchar blue
element face 0
property list uchar int vertex_indices
end_header
3.225719 -11.504345 1.532 170 170 0
3.211628 -11.534202 1.406 170 170 0
3.227535 -11.50078 1.553 170 170 0
3.201641 -11.553803 1.36 170 170 0
3.20618 -11.544894 1.363 170 170 0
3.215732 -11.523946 1.53 170 170 0
3.229788 -11.498562 1.379 170 170 0
3.23342 -11.491433 1.478 170 170 0
3.227972 -11.502125 1.516 170 170 0
3.183952 -11.586317 1.451 170 170 0
3.204364 -11.548457 1.434 170 170 0
3.210266 -11.536874 1.415 170 170 0
3.197572 -11.559587 1.445 170 170 0
3.204818 -11.547566 1.408 170 170 0
3.220254 -11.517272 1.368 170 170 0
3.223449 -11.5088 1.578 170 170 0
3.195739 -11.565387 1.394 170 170 0
3.199388 -11.556023 1.464 170 170 0
3.206634 -11.544003 1.419 170 170 0
3.237069 -11.482069 1.616 170 170 0
3.195302 -11.564041 1.502 170 170 0
3.238868 -11.480741 1.437 170 170 0
3.183498 -11.587208 1.542 170 170 0
3.20529 -11.54444 1.584 170 170 0
3.196664 -11.561369 1.553 170 170 0
3.210284 -11.534638 1.619 170 170 0
3.225719 -11.504345 1.559 170 170 0
3.21299 -11.531528 1.372 170 170 0
3.183061 -11.585863 1.73 170 170 0
3.196664 -11.561369 1.456 170 170 0
3.209358 -11.538657 1.438 170 170 0
3.179883 -11.5921 1.738 170 170 0
3.223449 -11.5088 1.551 170 170 0
3.222524 -11.512817 1.43 170 170 0
3.195756 -11.563151 1.581 170 170 0
3.210738 -11.533748 1.576 170 170 0
3.234799 -11.486525 1.563 170 170 0
3.185331 -11.581408 1.735 170 170 0
3.187147 -11.577845 1.702 170 170 0
3.180337 -11.591208 1.695 170 170 0
3.208014 -11.539094 1.561 170 170 0
3.191233 -11.569824 1.642 170 170 0
3.229351 -11.497216 1.583 170 170 0
3.213462 -11.528401 1.543 170 170 0
3.198009 -11.560931 1.345 170 170 0
3.189383 -11.577861 1.327 170 170 0
3.213462 -11.528401 1.52 170 170 0
3.209376 -11.53642 1.572 170 170 0
3.1894 -11.575625 1.561 170 170 0
3.222996 -11.50969 1.666 170 170 0
3.198497 -11.555569 1.652 170 170 0
3.192595 -11.567152 1.623 170 170 0
3.183515 -11.584971 1.619 170 170 0
3.211646 -11.531966 1.504 170 170 0
3.201204 -11.552459 1.502 170 170 0
3.209358 -11.538657 1.349 170 170 0
3.22434 -11.509254 1.456 170 170 0
3.220254 -11.517272 1.429 170 170 0
3.194865 -11.562696 1.677 170 170 0
3.232512 -11.493215 1.357 170 170 0
3.192595 -11.567152 1.627 170 170 0
3.18259 -11.588989 1.531 170 170 0
3.183969 -11.584082 1.685 170 170 0
3.235253 -11.485634 1.559 170 170 0
3.208014 -11.539094 1.568 170 170 0
3.181699 -11.588535 1.619 170 170 0
3.194376 -11.56806 1.329 170 170 0
3.197572 -11.559587 1.517 170 170 0
3.230696 -11.496779 1.428 170 170 0
3.190762 -11.572952 1.529 170 170 0
3.220708 -11.516381 1.431 170 170 0
3.193032 -11.568497 1.476 170 170 0
3.218018 -11.517255 1.671 170 170 0
3.218438 -11.520836 1.458 170 170 0
3.202566 -11.549786 1.493 170 170 0
3.179883 -11.5921 1.668 170 170 0
3.230242 -11.49767 1.461 170 170 0
3.194831 -11.567168 1.416 170 170 0
3.204853 -11.543095 1.659 170 170 0
3.178521 -11.594772 1.723 170 170 0
3.171274 -11.606793 1.748 170 170 0
3.224794 -11.508362 1.509 170 170 0
3.184877 -11.582298 1.707 170 170 0
3.19895 -11.554678 1.697 170 170 0
3.194376 -11.56806 1.365 170 170 0
3.197589 -11.55735 1.702 170 170 0
3.237052 -11.484304 1.495 170 170 0
3.208485 -11.535966 1.674 170 170 0
3.222541 -11.510582 1.648 170 170 0
3.196664 -11.561369 1.509 170 170 0
3.235707 -11.484742 1.55 170 170 0
3.223903 -11.507909 1.633 170 170 0
3.188963 -11.57428 1.645 170 170 0
3.195739 -11.565387 1.375 170 170 0
3.196193 -11.564495 1.402 170 170 0
3.232058 -11.494106 1.47 170 170 0
3.209358 -11.538657 1.447 170 170 0
3.226627 -11.502563 1.613 170 170 0
3.190779 -11.570716 1.66 170 170 0
3.202549 -11.552021 1.36 170 170 0
3.214823 -11.525729 1.604 170 170 0
3.215714 -11.526183 1.431 170 170 0
3.193032 -11.568497 1.57 170 170 0
3.20845 -11.540439 1.353 170 170 0
3.212082 -11.53331 1.361 170 170 0
3.198026 -11.558696 1.489 170 170 0
3.235253 -11.485634 1.57 170 170 0
3.195756 -11.563151 1.464 170 170 0
3.211192 -11.532857 1.512 170 170 0
3.212082 -11.53331 1.449 170 170 0
3.193032 -11.568497 1.542 170 170 0
3.225702 -11.50658 1.362 170 170 0
3.205272 -11.546676 1.404 170 170 0
3.188963 -11.57428 1.645 170 170 0
3.209358 -11.538657 1.422 170 170 0
3.201186 -11.554694 1.386 170 170 0
3.212082 -11.53331 1.365 170 170 0
3.230696 -11.496779 1.471 170 170 0
3.208014 -11.539094 1.604 170 170 0
3.235707 -11.484742 1.581 170 170 0
3.239305 -11.482086 1.363 170 170 0
3.208014 -11.539094 1.543 170 170 0
3.188963 -11.57428 1.62 170 170 0
3.194848 -11.564933 1.586 170 170 0
3.234328 -11.489651 1.439 170 170 0
3.192141 -11.568043 1.632 170 170 0
3.232495 -11.495451 1.351 170 170 0
3.214823 -11.525729 1.574 170 170 0
3.198934 -11.556914 1.51 170 170 0
3.214386 -11.524384 1.682 170 170 0
3.207996 -11.541329 1.397 170 170 0
3.184423 -11.58319 1.737 170 170 0
3.20391 -11.549349 1.375 170 170 0
3.208904 -11.539547 1.392 170 170 0
3.185314 -11.583644 1.473 170 170 0
3.192124 -11.570278 1.456 170 170 0
3.239759 -11.481195 1.354 170 170 0
3.231604 -11.494997 1.362 170 170 0
3.180774 -11.592554 1.543 170 170 0
3.201641 -11.553803 1.408 170 170 0
3.228897 -11.498108 1.527 170 170 0
3.21072 -11.535983 1.411 170 170 0
3.180337 -11.591208 1.606 170 170 0
3.221162 -11.515491 1.423 170 170 0
3.217548 -11.520383 1.615 170 170 0
3.226156 -11.505689 1.455 170 170 0
3.193469 -11.569841 1.409 170 170 0
3.217076 -11.523509 1.485 170 170 0
3.224358 -11.507017 1.658 170 170 0
3.226156 -11.505689 1.461 170 170 0
3.207106 -11.540875 1.512 170 170 0
3.211646 -11.531966 1.534 170 170 0
3.234782 -11.48876 1.384 170 170 0
3.211646 -11.531966 1.494 170 170 0
3.180791 -11.590319 1.675 170 170 0
3.194394 -11.565824 1.555 170 170 0
3.205726 -11.545784 1.335 170 170 0
3.231167 -11.493652 1.635 170 170 0
3.21891 -11.517709 1.499 170 170 0
3.194865 -11.562696 1.694 170 170 0
3.180791 -11.590319 1.618 170 170 0
3.193503 -11.56537 1.62 170 170 0
3.185785 -11.580517 1.708 170 170 0
3.202566 -11.549786 1.609 170 170 0
3.228426 -11.501234 1.442 170 170 0
3.234328 -11.489651 1.525 170 170 0
3.190308 -11.573843 1.427 170 170 0
3.214352 -11.528855 1.45 170 170 0
3.212082 -11.53331 1.354 170 170 0
3.188946 -11.576515 1.436 170 170 0
3.207088 -11.543112 1.417 170 170 0
3.190779 -11.570716 1.707 170 170 0
3.202128 -11.548441 1.742 170 170 0
3.187147 -11.577845 1.741 170 170 0
3.231638 -11.490525 1.705 170 170 0
3.224828 -11.50389 1.706 170 170 0
3.223466 -11.506563 1.696 170 170 0
3.229368 -11.49498 1.71 170 170 0
3.229368 -11.49498 1.706 170 170 0
3.18217 -11.585409 1.758 170 170 0
3.188526 -11.572935 1.783 170 170 0
3.19352 -11.563133 1.801 170 170 0
3.237069 -11.482069 1.673 170 170 0
3.231184 -11.491417 1.704 170 170 0
3.189417 -11.573389 1.734 170 170 0
3.186256 -11.577391 1.762 170 170 0
3.194865 -11.562696 1.724 170 170 0
3.199859 -11.552896 1.746 170 170 0
3.194411 -11.563587 1.739 170 170 0
3.218926 -11.515473 1.693 170 170 0
3.188526 -11.572935 1.791 170 170 0
3.225736 -11.502109 1.736 170 170 0
3.220288 -11.5128 1.681 170 170 0
3.192612 -11.564916 1.787 170 170 0
3.232546 -11.488743 1.696 170 170 0
3.188526 -11.572935 1.779 170 170 0
3.218472 -11.516364 1.683 170 170 0
3.201674 -11.549332 1.746 170 170 0
3.183532 -11.582736 1.769 170 170 0
3.236161 -11.48385 1.66 170 170 0
3.21257 -11.527947 1.725 170 170 0
3.193957 -11.564479 1.726 170 170 0
3.183969 -11.584082 1.743 170 170 0
3.190325 -11.571608 1.747 170 170 0
3.233454 -11.486961 1.717 170 170 0
3.185802 -11.578281 1.761 170 170 0
3.229822 -11.494089 1.724 170 170 0
3.225736 -11.502109 1.703 170 170 0
3.190325 -11.571608 1.743 170 170 0
3.192595 -11.567152 1.731 170 170 0
3.20803 -11.536858 1.701 170 170 0
3.188072 -11.573826 1.791 170 170 0
3.23527 -11.483397 1.728 170 170 0
3.221196 -11.511018 1.711 170 170 0
3.218018 -11.517255 1.739 170 170 0
3.181716 -11.5863 1.781 170 170 0
3.21938 -11.514583 1.749 170 170 0
3.193957 -11.564479 1.742 170 170 0
3.178992 -11.591646 1.755 170 170 0
3.234833 -11.482053 1.794 170 170 0
3.176269 -11.596992 1.752 170 170 0
3.229822 -11.494089 1.685 170 170 0
3.194865 -11.562696 1.721 170 170 0
3.225736 -11.502109 1.722 170 170 0
3.192595 -11.567152 1.749 170 170 0
3.187618 -11.574718 1.792 170 170 0
3.189871 -11.572497 1.733 170 170 0
3.20714 -11.536404 1.767 170 170 0
3.218018 -11.517255 1.707 170 170 0
3.236632 -11.480724 1.735 170 170 0
2.792401 -11.793094 2.326 170 170 0
2.726467 -11.759499 2.424 170 170 0
2.72023 -11.75632 2.435 170 170 0
2.718884 -11.756758 2.422 170 170 0
2.792401 -11.793094 2.319 170 170 0
2.7826 -11.788099 2.352 170 170 0
2.729576 -11.762205 2.369 170 170 0
2.735377 -11.764038 2.349 170 170 0
2.777254 -11.785376 2.341 170 170 0
2.751415 -11.77221 2.366 170 170 0
2.718884 -11.756758 2.403 170 170 0
2.740723 -11.766762 2.391 170 170 0
2.716211 -11.755396 2.329 170 170 0
2.747851 -11.770394 2.359 170 170 0
2.762998 -11.778111 2.326 170 170 0
2.762107 -11.777658 2.34 170 170 0
2.780818 -11.787191 2.35 170 170 0
2.772799 -11.783106 2.329 170 170 0
2.727358 -11.759953 2.42 170 170 0
2.753197 -11.773118 2.365 170 170 0
2.730922 -11.761768 2.371 170 170 0
2.768344 -11.780836 2.367 170 170 0
2.784382 -11.789008 2.355 170 170 0
2.798638 -11.796271 2.345 170 170 0
2.756761 -11.774934 2.386 170 170 0
2.79151 -11.79264 2.315 170 170 0
2.72423 -11.759481 2.347 170 170 0
2.756761 -11.774934 2.338 170 170 0
2.760325 -11.77675 2.389 170 170 0
2.723794 -11.758136 2.417 170 170 0
2.762107 -11.777658 2.384 170 170 0
2.761216 -11.777204 2.318 170 170 0
2.744287 -11.768579 2.328 170 170 0
2.749633 -11.771302 2.326 170 170 0
2.716211 -11.755396 2.365 170 170 0
2.808876 -11.80261 2.318 170 170 0
2.720666 -11.757666 2.403 170 170 0
2.774581 -11.784014 2.354 170 170 0
2.732704 -11.762676 2.383 170 170 0
2.800857 -11.798525 2.318 170 170 0
2.725121 -11.759935 2.392 170 170 0
2.742505 -11.76767 2.335 170 170 0
2.770126 -11.781744 2.322 170 170 0
2.731813 -11.762222 2.366 170 170 0
2.762107 -11.777658 2.378 170 170 0
2.732704 -11.762676 2.381 170 170 0
2.73314 -11.764022 2.344 170 170 0
2.728685 -11.761751 2.377 170 170 0
2.786164 -11.789916 2.356 170 170 0
2.742505 -11.76767 2.366 170 170 0
2.76478 -11.779019 2.351 170 170 0
2.763889 -11.778565 2.37 170 170 0
2.759434 -11.776296 2.359 170 170 0
2.757652 -11.775388 2.364 170 170 0
2.736268 -11.764492 2.343 170 170 0
2.758543 -11.775842 2.368 170 170 0
2.758543 -11.775842 2.385 170 170 0
2.806203 -11.801249 2.315 170 170 0
2.740723 -11.766762 2.407 170 170 0
2.720666 -11.757666 2.335 170 170 0
2.727794 -11.761297 2.375 170 170 0
2.741614 -11.767216 2.412 170 170 0
2.73805 -11.7654 2.348 170 170 0
2.739832 -11.766308 2.33 170 170 0
2.76478 -11.779019 2.345 170 170 0
2.750524 -11.771756 2.363 170 170 0
2.726903 -11.760843 2.349 170 170 0
2.718884 -11.756758 2.395 170 170 0
2.736268 -11.764492 2.382 170 170 0
2.735377 -11.764038 2.363 170 170 0
2.766562 -11.779928 2.318 170 170 0
2.751415 -11.77221 2.383 170 170 0
2.763889 -11.778565 2.37 170 170 0
2.748742 -11.770848 2.371 170 170 0
2.804421 -11.800341 2.326 170 170 0
2.734031 -11.764476 2.342 170 170 0
2.777254 -11.785376 2.314 170 170 0
2.753197 -11.773118 2.358 170 170 0
2.73805 -11.7654 2.353 170 170 0
2.779927 -11.786737 2.346 170 170 0
2.765671 -11.779473 2.381 170 170 0
2.732704 -11.762676 2.375 170 170 0
2.800857 -11.798525 2.341 170 170 0
2.734922 -11.76493 2.339 170 170 0
2.745178 -11.769032 2.35 170 170 0
2.79151 -11.79264 2.335 170 170 0
2.770126 -11.781744 2.354 170 170 0
2.780818 -11.787191 2.335 170 170 0
2.768344 -11.780836 2.321 170 170 0
2.716211 -11.755396 2.326 170 170 0
2.736268 -11.764492 2.408 170 170 0
2.779036 -11.786283 2.36 170 170 0
2.739832 -11.766308 2.405 170 170 0
2.721557 -11.75812 2.399 170 170 0
2.750524 -11.771756 2.336 170 170 0
2.799966 -11.798071 3.255 170 170 0
2.754979 -11.774026 3.033 170 170 0
2.745178 -11.769032 2.863 170 170 0
2.823132 -11.809875 3.346 170 170 0
2.861009 -11.828051 3.071 170 170 0
2.844079 -11.819425 3.361 170 170 0
2.796856 -11.795363 3.129 170 170 0
2.967055 -11.87984 3.159 170 170 0
2.824477 -11.809437 3.116 170 170 0
2.769235 -11.78129 2.927 170 170 0
2.809767 -11.803064 3.315 170 170 0
2.774127 -11.784905 3.361 170 170 0
2.938089 -11.866203 3.256 170 170 0
2.832496 -11.813523 2.853 170 170 0
2.838733 -11.816701 3.009 170 170 0
2.882393 -11.838946 3.232 170 170 0
2.87081 -11.833045 3.144 170 170 0
2.942998 -11.867582 3.223 170 170 0
2.894429 -11.843958 3.031 170 170 0
2.795965 -11.794909 2.925 170 170 0
2.744724 -11.769923 3.407 170 170 0
2.725559 -11.76128 3.495 170 170 0
2.790619 -11.792186 2.934 170 170 0
2.737142 -11.767182 3.48 170 170 0
2.743379 -11.77036 3.503 170 170 0
2.838733 -11.816701 3.085 170 170 0
2.889975 -11.841688 3.011 170 170 0
2.781709 -11.787645 3.132 170 170 0
2.925615 -11.859848 3.109 170 170 0
2.893538 -11.843504 3.085 170 170 0
2.777254 -11.785376 3.009 170 170 0
2.722448 -11.758574 3.128 170 170 0
2.993348 -11.892115 3.218 170 170 0
2.726903 -11.760843 3.023 170 170 0
2.881955 -11.837602 2.983 170 170 0
2.778145 -11.78583 3.213 170 170 0
2.816895 -11.806697 3.294 170 170 0
2.963491 -11.878024 3.231 170 170 0
2.774581 -11.784014 2.774 170 170 0
2.930961 -11.862572 3.19 170 170 0
2.753197 -11.773118 2.876 170 170 0
2.825368 -11.809892 3.022 170 170 0
2.746943 -11.772176 3.507 170 170 0
2.981312 -11.887104 3.197 170 170 0
2.959927 -11.876208 3.192 170 170 0
2.955472 -11.873938 3.191 170 170 0
2.836951 -11.815793 3.037 170 170 0
2.737159 -11.764946 2.691 170 170 0
2.841406 -11.818063 2.961 170 170 0
2.950126 -11.871214 3.09 170 170 0
2.904231 -11.848952 3.066 170 170 0
2.86859 -11.830792 2.911 170 170 0
2.809767 -11.803064 3.305 170 170 0
2.967946 -11.880294 3.156 170 170 0
2.828932 -11.811707 2.926 170 170 0
2.907795 -11.850768 3.096 170 170 0
2.829369 -11.813052 3.273 170 170 0
2.815113 -11.805789 3.194 170 170 0
2.80042 -11.797179 2.815 170 170 0
2.75898 -11.777187 3.502 170 170 0
2.724668 -11.760826 3.512 170 170 0
2.91225 -11.853038 2.993 170 170 0
2.769235 -11.78129 2.692 170 170 0
2.720666 -11.757666 3.015 170 170 0
2.748742 -11.770848 2.674 170 170 0
2.8775 -11.835332 2.93 170 170 0
2.916705 -11.855308 3.176 170 170 0
2.867699 -11.830338 2.926 170 170 0
2.8775 -11.835332 3.042 170 170 0
2.77369 -11.78356 3.2 170 170 0
2.753197 -11.773118 2.957 170 170 0
2.884175 -11.839854 3.297 170 170 0
2.881955 -11.837602 3.099 170 170 0
2.739377 -11.7672 2.976 170 170 0
2.747851 -11.770394 2.814 170 170 0
2.838733 -11.816701 3.117 170 170 0
2.726012 -11.760389 2.839 170 170 0
2.851207 -11.823057 3.006 170 170 0
2.765671 -11.779473 2.812 170 170 0
2.767453 -11.780382 3.026 170 170 0
2.726012 -11.760389 2.902 170 170 0
2.811549 -11.803972 3.226 170 170 0
2.828041 -11.811254 3.216 170 170 0
2.747851 -11.770394 2.743 170 170 0
2.72423 -11.759481 2.849 170 170 0
2.852989 -11.823965 3.137 170 170 0
2.762998 -11.778111 3.072 170 170 0
2.876609 -11.834878 2.964 170 170 0
2.85388 -11.824419 2.969 170 170 0
2.845861 -11.820333 3.13 170 170 0
2.771017 -11.782198 2.823 170 170 0
2.87972 -11.837584 3.306 170 170 0
2.905122 -11.849406 3.031 170 170 0
2.856554 -11.825781 3.209 170 170 0
2.848535 -11.821695 3.199 170 170 0
2.759871 -11.777641 3.328 170 170 0
2.762998 -11.778111 2.693 170 170 0
2.910468 -11.85213 3.32 170 170 0
2.751415 -11.77221 2.76 170 170 0
2.738941 -11.765854 2.879 170 170 0
2.732249 -11.763568 3.212 170 170 0
2.758089 -11.776733 3.548 170 170 0
2.768781 -11.782181 3.526 170 170 0
2.83606 -11.815339 2.988 170 170 0
2.829369 -11.813052 3.379 170 170 0
2.953691 -11.87303 3.24 170 170 0
2.730031 -11.761314 2.794 170 170 0
2.722448 -11.758574 2.795 170 170 0
2.761216 -11.777204 3.064 170 170 0
2.718431 -11.757648 3.375 170 170 0
2.896212 -11.844866 3.228 170 170 0
2.836951 -11.815793 3.257 170 170 0
2.978638 -11.885742 3.157 170 170 0
2.89532 -11.844412 3.264 170 170 0
2.851207 -11.823057 3.161 170 170 0
2.816895 -11.806697 3.147 170 170 0
2.746943 -11.772176 3.54 170 170 0
2.74205 -11.768561 3.227 170 170 0
2.887301 -11.840326 3.038 170 170 0
2.839624 -11.817155 2.956 170 170 0
2.916705 -11.855308 3.324 170 170 0
2.864573 -11.829866 3.114 170 170 0
2.766108 -11.780819 3.299 170 170 0
2.741159 -11.768107 3.156 170 170 0
2.799966 -11.798071 3.159 170 170 0
2.972401 -11.882564 3.139 170 170 0
2.771454 -11.783543 3.332 170 170 0
2.820913 -11.807621 2.859 170 170 0
2.80933 -11.80172 2.922 170 170 0
2.843189 -11.818971 2.933 170 170 0
2.754088 -11.773572 2.815 170 170 0
2.92116 -11.857577 3.07 170 170 0
2.771908 -11.782652 3.003 170 170 0
2.840952 -11.818954 3.375 170 170 0
2.788383 -11.792169 3.471 170 170 0
2.720666 -11.757666 3.171 170 170 0
2.753633 -11.774464 3.338 170 170 0
2.90334 -11.848498 3.071 170 170 0
2.808876 -11.80261 3.356 170 170 0
2.779927 -11.786737 2.765 170 170 0
2.843189 -11.818971 2.956 170 170 0
2.719775 -11.757212 3.08 170 170 0
2.881955 -11.837602 3.042 170 170 0
2.878392 -11.835786 2.984 170 170 0
2.89532 -11.844412 3.023 170 170 0
2.916705 -11.855308 3.303 170 170 0
2.866355 -11.830775 3.129 170 170 0
2.747851 -11.770394 2.686 170 170 0
2.861009 -11.828051 3.198 170 170 0
2.906013 -11.84986 3.17 170 170 0
2.719775 -11.757212 2.822 170 170 0
2.783491 -11.788553 2.86 170 170 0
2.848535 -11.821695 3.376 170 170 0
2.834278 -11.814431 2.84 170 170 0
2.748742 -11.770848 2.759 170 170 0
2.925615 -11.859848 3.132 170 170 0
2.816458 -11.805351 2.844 170 170 0
2.732687 -11.764912 3.519 170 170 0
2.732704 -11.762676 2.645 170 170 0
2.954581 -11.873484 3.145 170 170 0
2.954581 -11.873484 3.253 170 170 0
2.937652 -11.864858 3.164 170 170 0
2.717102 -11.75585 2.943 170 170 0
2.717102 -11.75585 2.932 170 170 0
2.844079 -11.819425 3.238 170 170 0
2.819131 -11.806713 3.045 170 170 0
2.850317 -11.822603 3.197 170 170 0
2.739832 -11.766308 2.705 170 170 0
2.848535 -11.821695 3.013 170 170 0
2.892648 -11.84305 3.101 170 170 0
2.803984 -11.798995 3.247 170 170 0
2.87081 -11.833045 3.376 170 170 0
2.748742 -11.770848 2.685 170 170 0
2.805766 -11.799903 2.919 170 170 0
2.777254 -11.785376 2.93 170 170 0
2.741159 -11.768107 3.238 170 170 0
2.754979 -11.774026 2.704 170 170 0
2.804421 -11.800341 3.193 170 170 0
2.73805 -11.7654 2.76 170 170 0
2.729576 -11.762205 3.016 170 170 0
2.739377 -11.7672 2.975 170 170 0
2.806203 -11.801249 3.429 170 170 0
2.753197 -11.773118 2.82 170 170 0
2.717102 -11.75585 2.694 170 170 0
2.869919 -11.832591 3.246 170 170 0
2.787055 -11.79037 3.037 170 170 0
2.915814 -11.854854 3.298 170 170 0
2.735813 -11.765384 3.323 170 170 0
2.75587 -11.77448 2.818 170 170 0
2.718447 -11.755412 2.632 170 170 0
2.85388 -11.824419 3.206 170 170 0
2.779036 -11.786283 2.962 170 170 0
2.936761 -11.864405 3.165 170 170 0
2.787946 -11.790824 3.164 170 170 0
2.765671 -11.779473 2.862 170 170 0
2.976857 -11.884834 3.168 170 170 0
2.734469 -11.76582 3.555 170 170 0
2.736268 -11.764492 2.636 170 170 0
2.726012 -11.760389 3.261 170 170 0
2.928288 -11.86121 3.218 170 170 0
2.803984 -11.798995 2.766 170 170 0
2.967055 -11.87984 3.217 170 170 0
2.795511 -11.795801 3.449 170 170 0
2.738487 -11.766746 2.9 170 170 0
2.804421 -11.800341 3.475 170 170 0
2.778145 -11.78583 2.949 170 170 0
2.775909 -11.785813 3.484 170 170 0
2.872592 -11.833953 3.172 170 170 0
2.928288 -11.86121 3.15 170 170 0
2.82135 -11.808967 3.392 170 170 0
2.740723 -11.766762 2.797 170 170 0
2.785273 -11.789462 3.258 170 170 0
2.892648 -11.84305 3.125 170 170 0
2.805766 -11.799903 2.792 170 170 0
2.793292 -11.793548 2.914 170 170 0
2.813331 -11.804881 3.257 170 170 0
2.84497 -11.819879 3.158 170 170 0
2.769235 -11.78129 2.776 170 170 0
2.8775 -11.835332 3.047 170 170 0
2.760325 -11.77675 2.843 170 170 0
2.758543 -11.775842 2.95 170 170 0
2.809767 -11.803064 3.284 170 170 0
2.894429 -11.843958 3.181 170 170 0
2.906013 -11.84986 3.114 170 170 0
2.734486 -11.763584 2.668 170 170 0
2.77369 -11.78356 3.113 170 170 0
2.840515 -11.817609 3.096 170 170 0
2.821804 -11.808075 2.895 170 170 0
2.827587 -11.812144 3.341 170 170 0
2.768344 -11.780836 2.791 170 170 0
2.845861 -11.820333 2.96 170 170 0
2.781255 -11.788537 3.395 170 170 0
2.7826 -11.788099 2.891 170 170 0
2.732704 -11.762676 2.782 170 170 0
2.726903 -11.760843 3.063 170 170 0
2.742505 -11.76767 2.644 170 170 0
2.781709 -11.787645 3.069 170 170 0
2.763889 -11.778565 3.124 170 170 0
2.757652 -11.775388 2.933 170 170 0
2.981312 -11.887104 3.167 170 170 0
2.798638 -11.796271 3.416 170 170 0
2.814676 -11.804443 2.802 170 170 0
2.908686 -11.851222 3.073 170 170 0
2.816004 -11.806243 3.237 170 170 0
2.924287 -11.858048 3.029 170 170 0
2.884629 -11.838964 2.966 170 170 0
2.778582 -11.787175 3.279 170 170 0
2.72423 -11.759481 3.004 170 170 0
2.738924 -11.76809 3.497 170 170 0
2.723339 -11.759027 3.042 170 170 0
2.852098 -11.823511 3.14 170 170 0
2.959036 -11.875753 3.178 170 170 0
2.766562 -11.779928 2.996 170 170 0
2.730467 -11.762659 3.283 170 170 0
2.723339 -11.759027 3.028 170 170 0
2.732249 -11.763568 2.902 170 170 0
2.775018 -11.785359 3.438 170 170 0
2.810221 -11.802174 2.943 170 170 0
2.82715 -11.8108 2.956 170 170 0
2.779036 -11.786283 3.069 170 170 0
2.799075 -11.797617 3.493 170 170 0
2.753633 -11.774464 3.391 170 170 0
2.778145 -11.78583 2.903 170 170 0
2.808876 -11.80261 3.333 170 170 0
2.75898 -11.777187 3.236 170 170 0
2.955472 -11.873938 3.188 170 170 0
2.779927 -11.786737 3.034 170 170 0
2.792401 -11.793094 2.746 170 170 0
2.840515 -11.817609 3.215 170 170 0
2.721557 -11.75812 3.045 170 170 0
2.844079 -11.819425 3.287 170 170 0
2.716211 -11.755396 2.782 170 170 0
2.756761 -11.774934 2.835 170 170 0
2.780818 -11.787191 3.184 170 170 0
2.793746 -11.792657 2.827 170 170 0
2.832496 -11.813523 3.009 170 170 0
2.761216 -11.777204 3.017 170 170 0
2.861009 -11.828051 3.347 170 170 0
2.763889 -11.778565 2.99 170 170 0
2.724668 -11.760826 3.439 170 170 0
2.836497 -11.816685 3.426 170 170 0
2.824023 -11.810328 3.353 170 170 0
2.787509 -11.789479 2.742 170 170 0
2.795074 -11.794456 3.277 170 170 0
2.852098 -11.823511 3.395 170 170 0
2.985766 -11.889374 3.156 170 170 0
2.852098 -11.823511 3.363 170 170 0
2.867246 -11.831229 3.108 170 170 0
2.876156 -11.835769 3.286 170 170 0
2.914923 -11.8544 3.305 170 170 0
2.983984 -11.888466 3.194 170 170 0
2.840061 -11.818501 3.348 170 170 0
2.876156 -11.835769 3.377 170 170 0
2.83606 -11.815339 2.842 170 170 0
2.799966 -11.798071 3.159 170 170 0
2.942544 -11.868474 3.267 170 170 0
2.806657 -11.800357 3.003 170 170 0
2.900666 -11.847136 3.171 170 170 0
2.81824 -11.806259 3.106 170 170 0
2.720666 -11.757666 3.229 170 170 0
2.723339 -11.759027 3.13 170 170 0
2.752743 -11.77401 3.489 170 170 0
2.975965 -11.884379 3.187 170 170 0
2.808439 -11.801266 2.875 170 170 0
2.845861 -11.820333 3.221 170 170 0
2.734469 -11.76582 3.531 170 170 0
2.913141 -11.853492 3.319 170 170 0
2.751415 -11.77221 2.94 170 170 0
2.784382 -11.789008 3.194 170 170 0
2.869919 -11.832591 3.364 170 170 0
2.807548 -11.800812 2.831 170 170 0
2.756307 -11.775826 3.529 170 170 0
2.718431 -11.757648 3.462 170 170 0
2.862353 -11.827615 2.993 170 170 0
2.914032 -11.853946 3.301 170 170 0
2.757652 -11.775388 2.948 170 170 0
2.786164 -11.789916 3.208 170 170 0
2.807985 -11.802156 3.14 170 170 0
2.752306 -11.772664 2.727 170 170 0
2.865463 -11.83032 3.157 170 170 0
2.743833 -11.769469 3.115 170 170 0
2.866808 -11.829885 2.955 170 170 0
2.855663 -11.825327 3.369 170 170 0
2.942107 -11.867128 3.06 170 170 0
2.748288 -11.77174 3.414 170 170 0
2.739377 -11.7672 3.276 170 170 0
2.736268 -11.764492 2.721 170 170 0
2.894429 -11.843958 3.012 170 170 0
2.967055 -11.87984 3.196 170 170 0
2.790619 -11.792186 3.025 170 170 0
2.739832 -11.766308 2.722 170 170 0
2.768781 -11.782181 3.461 170 170 0
2.760325 -11.77675 3.039 170 170 0
2.953691 -11.87303 3.126 170 170 0
2.889975 -11.841688 3.03 170 170 0
2.763889 -11.778565 2.704 170 170 0
2.850317 -11.822603 3.362 170 170 0
2.741614 -11.767216 2.701 170 170 0
2.870372 -11.8317 2.937 170 170 0
2.728685 -11.761751 3.061 170 170 0
2.880611 -11.838038 3.211 170 170 0
2.813331 -11.804881 3.197 170 170 0
2.870372 -11.8317 2.922 170 170 0
2.718884 -11.756758 3.143 170 170 0
2.744724 -11.769923 3.176 170 170 0
2.836951 -11.815793 3.286 170 170 0
2.945671 -11.868944 3.081 170 170 0
2.872592 -11.833953 3.273 170 170 0
2.734031 -11.764476 3.068 170 170 0
2.897103 -11.84532 3.278 170 170 0
2.739377 -11.7672 2.949 170 170 0
2.731813 -11.762222 2.631 170 170 0
2.967055 -11.87984 3.129 170 170 0
2.761653 -11.778549 3.156 170 170 0
2.964383 -11.878478 3.179 170 170 0
2.742942 -11.769015 2.985 170 170 0
2.768781 -11.782181 3.467 170 170 0
2.795074 -11.794456 3.212 170 170 0
2.931852 -11.863026 3.284 170 170 0
2.763435 -11.779457 3.538 170 170 0
2.899776 -11.846682 3.011 170 170 0
2.959927 -11.876208 3.253 170 170 0
2.828932 -11.811707 2.873 170 170 0
2.878392 -11.835786 2.999 170 170 0
2.899776 -11.846682 2.985 170 170 0
2.830714 -11.812615 2.987 170 170 0
2.823586 -11.808983 2.831 170 170 0
2.759434 -11.776296 2.8 170 170 0
2.73314 -11.764022 3.099 170 170 0
2.784819 -11.790353 3.336 170 170 0
2.766999 -11.781273 3.389 170 170 0
2.950126 -11.871214 3.195 170 170 0
2.751852 -11.773556 3.186 170 170 0
2.724684 -11.75859 2.693 170 170 0
2.801748 -11.798979 3.342 170 170 0
2.775472 -11.784468 2.82 170 170 0
2.776363 -11.784922 3.148 170 170 0
2.766999 -11.781273 3.404 170 170 0
2.806203 -11.801249 3.407 170 170 0
2.90334 -11.848498 3.244 170 170 0
2.741614 -11.767216 2.67 170 170 0
2.83026 -11.813507 3.376 170 170 0
2.771017 -11.782198 3.177 170 170 0
2.798638 -11.796271 3.095 170 170 0
2.859226 -11.827143 3.373 170 170 0
2.823586 -11.808983 3.076 170 170 0
2.83026 -11.813507 3.36 170 170 0
2.78571 -11.790807 3.479 170 170 0
2.88552 -11.839418 3.051 170 170 0
2.751415 -11.77221 2.962 170 170 0
2.804875 -11.799449 2.802 170 170 0
2.790165 -11.793077 3.497 170 170 0
2.982202 -11.887558 3.195 170 170 0
2.967055 -11.87984 3.236 170 170 0
2.874827 -11.83397 3.003 170 170 0
2.730467 -11.762659 3.174 170 170 0
2.83606 -11.815339 3.242 170 170 0
2.888192 -11.84078 2.947 170 170 0
2.779036 -11.786283 3.05 170 170 0
2.91805 -11.85487 3.011 170 170 0
2.741159 -11.768107 3.121 170 170 0
2.849426 -11.822149 3.095 170 170 0
2.766562 -11.779928 2.916 170 170 0
2.720666 -11.757666 3.005 170 170 0
2.751852 -11.773556 3.425 170 170 0
2.839624 -11.817155 3.188 170 170 0
2.879282 -11.83624 2.995 170 170 0
2.766562 -11.779928 3.013 170 170 0
2.785273 -11.789462 3.284 170 170 0
2.89532 -11.844412 3.182 170 170 0
2.862353 -11.827615 2.918 170 170 0
2.84808 -11.822586 3.421 170 170 0
2.721121 -11.756774 2.72 170 170 0
2.807548 -11.800812 2.822 170 170 0
2.753197 -11.773118 2.769 170 170 0
2.896212 -11.844866 3.113 170 170 0
2.797747 -11.795817 2.89 170 170 0
2.780381 -11.785848 2.718 170 170 0
2.807548 -11.800812 3.001 170 170 0
2.754525 -11.774918 3.411 170 170 0
2.805766 -11.799903 3.134 170 170 0
2.738033 -11.767636 3.42 170 170 0
2.831605 -11.813069 3.215 170 170 0
2.731359 -11.763114 2.956 170 170 0
2.885957 -11.840762 3.279 170 170 0
2.746505 -11.770831 3.465 170 170 0
2.807985 -11.802156 3.428 170 170 0
2.918487 -11.856215 3.115 170 170 0
2.759434 -11.776296 3.024 170 170 0
2.72023 -11.75632 2.678 170 170 0
2.91225 -11.853038 3.032 170 170 0
2.803984 -11.798995 3.075 170 170 0
2.863244 -11.828069 2.964 170 170 0
2.88552 -11.839418 3.091 170 170 0
2.776363 -11.784922 2.778 170 170 0
2.92116 -11.857577 3.198 170 170 0
2.875718 -11.834424 2.974 170 170 0
2.740268 -11.767653 3.288 170 170 0
2.881502 -11.838492 3.372 170 170 0
2.737142 -11.767182 3.509 170 170 0
2.839624 -11.817155 3.155 170 170 0
2.889975 -11.841688 3.18 170 170 0
2.960818 -11.876662 3.234 170 170 0
2.842297 -11.818517 3.346 170 170 0
2.835169 -11.814885 2.979 170 170 0
2.783491 -11.788553 2.838 170 170 0
2.900666 -11.847136 3.351 170 170 0
2.81824 -11.806259 2.899 170 170 0
2.905122 -11.849406 3.196 170 170 0
2.783928 -11.789899 3.465 170 170 0
2.860118 -11.827597 3.226 170 170 0
2.919378 -11.856669 3.133 170 170 0
2.726903 -11.760843 3.251 170 170 0
2.867246 -11.831229 3.298 170 170 0
2.876609 -11.834878 3.105 170 170 0
2.834278 -11.814431 2.986 170 170 0
2.751852 -11.773556 3.354 170 170 0
2.812894 -11.803535 2.83 170 170 0
2.749179 -11.772194 3.096 170 170 0
2.754525 -11.774918 3.187 170 170 0
2.927851 -11.859864 3.071 170 170 0
2.875718 -11.834424 2.985 170 170 0
2.911359 -11.852584 3.277 170 170 0
2.803093 -11.798541 2.794 170 170 0
2.87972 -11.837584 3.301 170 170 0
2.749179 -11.772194 3.322 170 170 0
2.890866 -11.842142 3.086 170 170 0
2.849879 -11.821259 2.87 170 170 0
2.789274 -11.792624 3.375 170 170 0
2.861009 -11.828051 3.326 170 170 0
2.76478 -11.779019 2.839 170 170 0
2.884629 -11.838964 3.162 170 170 0
2.751415 -11.77221 2.753 170 170 0
2.882846 -11.838056 3.185 170 170 0
2.7826 -11.788099 3.217 170 170 0
2.795074 -11.794456 3.379 170 170 0
2.723776 -11.760372 3.374 170 170 0
2.723339 -11.759027 3.104 170 170 0
2.782146 -11.788991 3.386 170 170 0
2.865026 -11.828977 2.965 170 170 0
2.827587 -11.812144 3.248 170 170 0
2.729123 -11.763096 3.506 170 170 0
2.774581 -11.784014 2.798 170 170 0
2.951017 -11.871668 3.147 170 170 0
2.72914 -11.76086 2.692 170 170 0
2.861009 -11.828051 3.066 170 170 0
2.758543 -11.775842 3.029 170 170 0
2.745615 -11.770377 3.118 170 170 0
2.783491 -11.788553 2.857 170 170 0
2.783054 -11.78721 2.775 170 170 0
2.787946 -11.790824 3.077 170 170 0
2.955472 -11.873938 3.088 170 170 0
2.844079 -11.819425 3.028 170 170 0
2.871701 -11.833499 3.123 170 170 0
2.82135 -11.808967 3.442 170 170 0
2.797293 -11.796709 3.463 170 170 0
2.933197 -11.862588 3.077 170 170 0
2.751852 -11.773556 3.231 170 170 0
2.761216 -11.777204 3.084 170 170 0
2.846752 -11.820786 2.984 170 170 0
2.85388 -11.824419 2.957 170 170 0
2.896212 -11.844866 2.959 170 170 0
2.724668 -11.760826 3.418 170 170 0
2.754088 -11.773572 2.883 170 170 0
2.898885 -11.846228 3.252 170 170 0
2.807548 -11.800812 3.068 170 170 0
2.751415 -11.77221 2.93 170 170 0
2.772799 -11.783106 2.768 170 170 0
2.820459 -11.808513 3.393 170 170 0
2.801748 -11.798979 3.35 170 170 0
2.727794 -11.761297 2.877 170 170 0
2.760762 -11.778095 3.215 170 170 0
2.875718 -11.834424 3.054 170 170 0
2.99424 -11.89257 3.215 170 170 0
2.792401 -11.793094 3.38 170 170 0
2.719322 -11.758102 3.299 170 170 0
2.769672 -11.782635 3.461 170 170 0
2.780364 -11.788083 3.34 170 170 0
2.840515 -11.817609 3.171 170 170 0
2.762107 -11.777658 2.684 170 170 0
2.738924 -11.76809 3.439 170 170 0
2.778145 -11.78583 3.115 170 170 0
2.973292 -11.883018 3.179 170 170 0
2.84497 -11.819879 3.235 170 170 0
2.831605 -11.813069 3.202 170 170 0
2.867246 -11.831229 3.209 170 170 0
2.942107 -11.867128 3.171 170 170 0
2.794183 -11.794002 2.788 170 170 0
2.716211 -11.755396 2.88 170 170 0
2.948344 -11.870306 3.082 170 170 0
2.88552 -11.839418 2.947 170 170 0
2.735377 -11.764038 2.625 170 170 0
2.827587 -11.812144 3.23 170 170 0
2.816895 -11.806697 3.365 170 170 0
2.740268 -11.767653 3.232 170 170 0
2.933634 -11.863934 3.21 170 170 0
2.877938 -11.836677 3.352 170 170 0
2.894867 -11.845303 3.355 170 170 0
2.784382 -11.789008 3.18 170 170 0
2.829823 -11.812161 2.938 170 170 0
2.869481 -11.831246 3.021 170 170 0
2.817786 -11.807151 3.185 170 170 0
2.783928 -11.789899 3.484 170 170 0
2.721104 -11.75901 3.351 170 170 0
2.734922 -11.76493 2.909 170 170 0
2.722886 -11.759918 3.272 170 170 0
2.775472 -11.784468 3.079 170 170 0
2.729576 -11.762205 2.836 170 170 0
2.771908 -11.782652 2.765 170 170 0
2.845861 -11.820333 3.146 170 170 0
2.768344 -11.780836 3.11 170 170 0
2.87081 -11.833045 3.395 170 170 0
2.73314 -11.764022 2.959 170 170 0
2.816004 -11.806243 3.29 170 170 0
2.856554 -11.825781 3.012 170 170 0
2.736251 -11.766728 3.409 170 170 0
2.855663 -11.825327 3.283 170 170 0
2.833387 -11.813977 3.151 170 170 0
2.88641 -11.839872 3.029 170 170 0
2.876156 -11.835769 3.244 170 170 0
2.892648 -11.84305 3.023 170 170 0
2.770126 -11.781744 3.051 170 170 0
2.852098 -11.823511 2.951 170 170 0
2.718884 -11.756758 3.062 170 170 0
2.834715 -11.815777 3.361 170 170 0
2.810221 -11.802174 2.913 170 170 0
2.731796 -11.764458 3.353 170 170 0
2.765217 -11.780365 3.264 170 170 0
2.717993 -11.756304 2.821 170 170 0
2.84497 -11.819879 3.102 170 170 0
2.946562 -11.869398 3.274 170 170 0
2.773236 -11.784451 3.488 170 170 0
2.789728 -11.791732 3.016 170 170 0
2.842297 -11.818517 2.891 170 170 0
2.732249 -11.763568 3.193 170 170 0
2.758543 -11.775842 2.699 170 170 0
2.717993 -11.756304 3.185 170 170 0
2.907795 -11.850768 3.286 170 170 0
2.91225 -11.853038 3.108 170 170 0
2.74696 -11.76994 2.775 170 170 0
2.804875 -11.799449 2.815 170 170 0
2.723794 -11.758136 2.654 170 170 0
2.965273 -11.878932 3.175 170 170 0
2.860571 -11.826707 2.943 170 170 0
2.831605 -11.813069 2.974 170 170 0
2.768344 -11.780836 3.063 170 170 0
2.780818 -11.787191 2.795 170 170 0
2.955472 -11.873938 3.147 170 170 0
2.952799 -11.872576 3.168 170 170 0
2.831151 -11.813961 3.413 170 170 0
2.939871 -11.867111 3.243 170 170 0
2.914923 -11.8544 3.226 170 170 0
2.74205 -11.768561 2.981 170 170 0
2.923833 -11.858939 3.163 170 170 0
2.719775 -11.757212 2.848 170 170 0
2.905122 -11.849406 3.332 170 170 0
2.817786 -11.807151 3.16 170 170 0
2.751415 -11.77221 2.66 170 170 0
2.826259 -11.810346 2.958 170 170 0
2.728685 -11.761751 2.944 170 170 0
2.920269 -11.857123 3.078 170 170 0
2.739832 -11.766308 2.741 170 170 0
2.951017 -11.871668 3.075 170 170 0
2.744724 -11.769923 3.162 170 170 0
2.722448 -11.758574 2.776 170 170 0
2.919378 -11.856669 3.199 170 170 0
2.783491 -11.788553 3.083 170 170 0
2.972401 -11.882564 3.156 170 170 0
2.792401 -11.793094 3.298 170 170 0
2.738487 -11.766746 3.234 170 170 0
2.730031 -11.761314 2.701 170 170 0
2.843189 -11.818971 2.96 170 170 0
2.766108 -11.780819 3.199 170 170 0
2.920269 -11.857123 3.103 170 170 0
2.718884 -11.756758 2.953 170 170 0
2.762107 -11.777658 2.821 170 170 0
2.865917 -11.829431 2.93 170 170 0
2.797747 -11.795817 3.246 170 170 0
2.943889 -11.868036 3.099 170 170 0
2.83606 -11.815339 3.027 170 170 0
2.781709 -11.787645 2.999 170 170 0
2.754088 -11.773572 3.032 170 170 0
2.758089 -11.776733 3.449 170 170 0
2.757198 -11.776279 3.383 170 170 0
2.81244 -11.804426 3.179 170 170 0
2.767453 -11.780382 2.693 170 170 0
2.775472 -11.784468 3.024 170 170 0
2.99513 -11.893023 3.204 170 170 0
2.866808 -11.829885 2.958 170 170 0
2.722012 -11.757228 2.691 170 170 0
2.717102 -11.75585 2.831 170 170 0
2.745615 -11.770377 3.433 170 170 0
2.920269 -11.857123 3.166 170 170 0
2.748742 -11.770848 2.726 170 170 0
2.856554 -11.825781 3.197 170 170 0
2.889975 -11.841688 3.151 170 170 0
2.846752 -11.820786 2.942 170 170 0
2.721557 -11.75812 2.926 170 170 0
2.8619 -11.828505 3.096 170 170 0
2.817786 -11.807151 3.394 170 170 0
2.763435 -11.779457 3.186 170 170 0
2.817786 -11.807151 3.362 170 170 0
2.79462 -11.795347 3.496 170 170 0
2.722903 -11.757682 2.599 170 170 0
2.854772 -11.824873 3.062 170 170 0
2.73805 -11.7654 2.667 170 170 0
2.926506 -11.860302 3.303 170 170 0
2.765671 -11.779473 2.896 170 170 0
2.772799 -11.783106 3.12 170 170 0
2.871263 -11.832154 2.919 170 170 0
2.787055 -11.79037 2.889 170 170 0
2.737596 -11.766292 3.194 170 170 0
2.850317 -11.822603 2.957 170 170 0
2.754088 -11.773572 2.938 170 170 0
2.787946 -11.790824 2.914 170 170 0
2.788837 -11.791278 3.282 170 170 0
2.81244 -11.804426 3.37 170 170 0
2.934525 -11.864388 3.254 170 170 0
2.892648 -11.84305 3.251 170 170 0
2.863244 -11.828069 2.981 170 170 0
2.751415 -11.77221 2.801 170 170 0
2.795074 -11.794456 2.97 170 170 0
2.857007 -11.82489 2.908 170 170 0
2.738487 -11.766746 3.083 170 170 0
2.719339 -11.755866 2.69 170 170 0
2.748288 -11.77174 3.066 170 170 0
2.803093 -11.798541 2.913 170 170 0
2.794183 -11.794002 2.941 170 170 0
2.718431 -11.757648 3.508 170 170 0
2.780818 -11.787191 2.941 170 170 0
2.884629 -11.838964 3.2 170 170 0
2.779927 -11.786737 3.117 170 170 0
2.769235 -11.78129 3.01 170 170 0
2.868137 -11.831683 3.15 170 170 0
2.727794 -11.761297 3.045 170 170 0
2.847643 -11.82124 3.165 170 170 0
2.747851 -11.770394 2.699 170 170 0
2.805766 -11.799903 3.281 170 170 0
2.754525 -11.774918 3.463 170 170 0
2.757652 -11.775388 2.834 170 170 0
2.806203 -11.801249 3.131 170 170 0
2.845861 -11.820333 3.18 170 170 0
2.716211 -11.755396 3.192 170 170 0
2.876156 -11.835769 3.312 170 170 0
2.826696 -11.81169 3.295 170 170 0
2.942107 -11.867128 3.151 170 170 0
2.790619 -11.792186 2.792 170 170 0
2.819131 -11.806713 2.861 170 170 0
2.777254 -11.785376 3.122 170 170 0
2.87081 -11.833045 3.125 170 170 0
2.794183 -11.794002 3.031 170 170 0
2.933197 -11.862588 3.05 170 170 0
2.755416 -11.775372 3.13 170 170 0
2.924287 -11.858048 3.084 170 170 0
2.844079 -11.819425 3.127 170 170 0
2.826696 -11.81169 3.342 170 170 0
2.933634 -11.863934 3.274 170 170 0
2.834278 -11.814431 3.138 170 170 0
2.824477 -11.809437 2.916 170 170 0
2.885066 -11.840308 3.28 170 170 0
2.889975 -11.841688 2.964 170 170 0
2.951017 -11.871668 3.259 170 170 0
2.926069 -11.858956 3.077 170 170 0
2.744724 -11.769923 3.024 170 170 0
2.745178 -11.769032 2.812 170 170 0
2.719775 -11.757212 3.193 170 170 0
2.736251 -11.766728 3.401 170 170 0
2.832933 -11.814869 3.384 170 170 0
2.762107 -11.777658 3.017 170 170 0
2.865026 -11.828977 3.016 170 170 0
2.929179 -11.861664 3.208 170 170 0
2.885066 -11.840308 3.248 170 170 0
2.775472 -11.784468 2.729 170 170 0
2.873483 -11.834407 3.146 170 170 0
2.728232 -11.762642 3.319 170 170 0
2.958146 -11.8753 3.189 170 170 0
2.922942 -11.858485 3.256 170 170 0
2.755416 -11.775372 3.451 170 170 0
2.82715 -11.8108 2.972 170 170 0
2.963491 -11.878024 3.235 170 170 0
2.795074 -11.794456 3.338 170 170 0
2.959036 -11.875753 3.255 170 170 0
2.857445 -11.826235 3.301 170 170 0
2.82715 -11.8108 2.928 170 170 0
2.934088 -11.863042 3.156 170 170 0
2.72914 -11.76086 2.634 170 170 0
2.888192 -11.84078 3.163 170 170 0
2.947453 -11.869852 3.177 170 170 0
2.769672 -11.782635 3.256 170 170 0
2.935416 -11.864841 3.261 170 170 0
2.8619 -11.828505 3.178 170 170 0
2.849426 -11.822149 3.181 170 170 0
2.833387 -11.813977 3.228 170 170 0
2.839624 -11.817155 2.992 170 170 0
2.796856 -11.795363 3.148 170 170 0
2.824023 -11.810328 3.449 170 170 0
2.818677 -11.807605 3.223 170 170 0
2.753633 -11.774464 3.114 170 170 0
2.743396 -11.768125 2.737 170 170 0
2.754979 -11.774026 2.805 170 170 0
2.731796 -11.764458 3.351 170 170 0
2.75007 -11.772648 3.086 170 170 0
2.814676 -11.804443 3.083 170 170 0
2.861009 -11.828051 3.115 170 170 0
2.848535 -11.821695 3.106 170 170 0
2.815567 -11.804897 2.965 170 170 0
2.720213 -11.758556 3.342 170 170 0
2.743379 -11.77036 3.494 170 170 0
2.85388 -11.824419 3.269 170 170 0
2.799075 -11.797617 3.216 170 170 0
2.730031 -11.761314 2.751 170 170 0
2.787946 -11.790824 3.259 170 170 0
2.763889 -11.778565 2.784 170 170 0
2.74696 -11.76994 2.656 170 170 0
2.837388 -11.817139 3.422 170 170 0
2.823586 -11.808983 2.914 170 170 0
2.840515 -11.817609 3.32 170 170 0
2.943889 -11.868036 3.141 170 170 0
2.929179 -11.861664 3.309 170 170 0
2.80042 -11.797179 2.808 170 170 0
2.776363 -11.784922 3.23 170 170 0
2.758089 -11.776733 3.522 170 170 0
2.899776 -11.846682 3.263 170 170 0
2.719775 -11.757212 2.719 170 170 0
2.740706 -11.768998 3.483 170 170 0
2.72423 -11.759481 2.931 170 170 0
2.803984 -11.798995 2.923 170 170 0
2.766562 -11.779928 2.866 170 170 0
2.773236 -11.784451 3.28 170 170 0
2.806657 -11.800357 2.858 170 170 0
2.757652 -11.775388 2.831 170 170 0
2.757652 -11.775388 2.944 170 170 0
2.737596 -11.766292 3.342 170 170 0
2.720666 -11.757666 2.762 170 170 0
2.831605 -11.813069 3.042 170 170 0
2.901558 -11.84759 3.343 170 170 0
2.892648 -11.84305 3.236 170 170 0
2.939434 -11.865766 3.145 170 170 0
2.816895 -11.806697 3.212 170 170 0
2.826696 -11.81169 3.339 170 170 0
2.891757 -11.842596 3.113 170 170 0
2.745615 -11.770377 3.459 170 170 0
2.776363 -11.784922 3.247 170 170 0
2.838733 -11.816701 2.885 170 170 0
2.767453 -11.780382 3.129 170 170 0
2.812003 -11.803082 2.86 170 170 0
2.959036 -11.875753 3.116 170 170 0
2.861009 -11.828051 3.021 170 170 0
2.770126 -11.781744 2.761 170 170 0
2.795074 -11.794456 3.279 170 170 0
2.779036 -11.786283 2.806 170 170 0
2.846752 -11.820786 3.099 170 170 0
2.879282 -11.83624 2.93 170 170 0
2.742505 -11.76767 2.662 170 170 0
2.749179 -11.772194 3.099 170 170 0
2.846752 -11.820786 3.038 170 170 0
2.900666 -11.847136 3.288 170 170 0
2.74696 -11.76994 2.776 170 170 0
2.765217 -11.780365 3.536 170 170 0
2.788837 -11.791278 3.215 170 170 0
2.838733 -11.816701 3.225 170 170 0
2.849426 -11.822149 2.949 170 170 0
2.719322 -11.758102 3.302 170 170 0
2.778145 -11.78583 3.24 170 170 0
2.861009 -11.828051 3.121 170 170 0
2.795074 -11.794456 3.065 170 170 0
2.776363 -11.784922 2.952 170 170 0
2.754979 -11.774026 2.824 170 170 0
2.739815 -11.768544 3.421 170 170 0
2.812894 -11.803535 2.832 170 170 0
2.788837 -11.791278 3.155 170 170 0
2.834278 -11.814431 2.964 170 170 0
2.88641 -11.839872 3.164 170 170 0
2.841406 -11.818063 2.964 170 170 0
2.841843 -11.819408 3.356 170 170 0
2.933634 -11.863934 3.217 170 170 0
2.88641 -11.839872 2.941 170 170 0
2.829369 -11.813052 3.233 170 170 0
2.834715 -11.815777 3.386 170 170 0
2.975965 -11.884379 3.182 170 170 0
2.907795 -11.850768 3.122 170 170 0
2.737596 -11.766292 3.25 170 170 0
2.785273 -11.789462 3.093 170 170 0
2.737596 -11.766292 2.96 170 170 0
2.860118 -11.827597 3.034 170 170 0
2.803984 -11.798995 3.409 170 170 0
2.939434 -11.865766 3.136 170 170 0
2.795965 -11.794909 2.825 170 170 0
2.882393 -11.838946 3.306 170 170 0
2.82135 -11.808967 3.353 170 170 0
2.990221 -11.891644 3.226 170 170 0
2.803093 -11.798541 2.976 170 170 0
2.952799 -11.872576 3.191 170 170 0
2.832496 -11.813523 3.117 170 170 0
2.745178 -11.769032 2.715 170 170 0
2.923833 -11.858939 3.32 170 170 0
2.817786 -11.807151 3.354 170 170 0
2.77369 -11.78356 2.852 170 170 0
2.716211 -11.755396 3.078 170 170 0
2.760762 -11.778095 3.542 170 170 0
2.75898 -11.777187 3.321 170 170 0
2.870372 -11.8317 2.929 170 170 0
2.755416 -11.775372 3.15 170 170 0
2.90334 -11.848498 3.333 170 170 0
2.721557 -11.75812 2.98 170 170 0
2.888192 -11.84078 2.956 170 170 0
2.892648 -11.84305 3.304 170 170 0
2.843189 -11.818971 3.16 170 170 0
2.816004 -11.806243 3.41 170 170 0
2.787055 -11.79037 2.977 170 170 0
2.908686 -11.851222 3.127 170 170 0
2.741159 -11.768107 3.32 170 170 0
2.874827 -11.83397 3.008 170 170 0
2.821804 -11.808075 2.97 170 170 0
2.786164 -11.789916 2.999 170 170 0
2.843189 -11.818971 2.889 170 170 0
2.735813 -11.765384 3.003 170 170 0
2.750524 -11.771756 2.948 170 170 0
2.897103 -11.84532 3.023 170 170 0
2.888192 -11.84078 2.958 170 170 0
2.72645 -11.761734 3.439 170 170 0
2.765217 -11.780365 3.232 170 170 0
2.928288 -11.86121 3.217 170 170 0
2.736705 -11.765838 3.062 170 170 0
2.728232 -11.762642 3.407 170 170 0
2.922505 -11.857141 3.06 170 170 0
2.930961 -11.862572 3.208 170 170 0
2.806657 -11.800357 2.866 170 170 0
2.725559 -11.76128 3.397 170 170 0
2.897994 -11.845774 3.177 170 170 0
2.948344 -11.870306 3.265 170 170 0
2.797747 -11.795817 3.029 170 170 0
2.852098 -11.823511 3.307 170 170 0
2.735813 -11.765384 3.001 170 170 0
2.79731 -11.794473 2.798 170 170 0
2.718884 -11.756758 3.066 170 170 0
2.798638 -11.796271 3.054 170 170 0
2.723794 -11.758136 2.672 170 170 0
2.734486 -11.763584 2.844 170 170 0
2.916705 -11.855308 3.321 170 170 0
2.885066 -11.840308 3.317 170 170 0
2.754979 -11.774026 2.721 170 170 0
2.861462 -11.827161 2.946 170 170 0
2.740723 -11.766762 2.633 170 170 0
2.726012 -11.760389 3.061 170 170 0
2.71754 -11.757195 3.291 170 170 0
2.934979 -11.863497 3.038 170 170 0
2.751852 -11.773556 3.205 170 170 0
2.789728 -11.791732 3.091 170 170 0
2.83606 -11.815339 3.27 170 170 0
2.756307 -11.775826 3.349 170 170 0
2.774581 -11.784014 3.216 170 170 0
2.723339 -11.759027 2.811 170 170 0
2.844079 -11.819425 2.961 170 170 0
2.816458 -11.805351 2.918 170 170 0
2.724684 -11.75859 2.691 170 170 0
2.831605 -11.813069 2.928 170 170 0
2.919378 -11.856669 3.24 170 170 0
2.799966 -11.798071 3.434 170 170 0
2.808439 -11.801266 2.797 170 170 0
2.893538 -11.843504 2.966 170 170 0
2.786618 -11.789025 2.802 170 170 0
2.948344 -11.870306 3.236 170 170 0
2.827587 -11.812144 3.263 170 170 0
2.762998 -11.778111 2.752 170 170 0
2.831151 -11.813961 3.303 170 170 0
2.731813 -11.762222 2.749 170 170 0
2.717993 -11.756304 2.734 170 170 0
2.816004 -11.806243 3.266 170 170 0
2.770126 -11.781744 2.972 170 170 0
2.816004 -11.806243 3.136 170 170 0
2.722448 -11.758574 3.229 170 170 0
2.79151 -11.79264 3.354 170 170 0
2.729576 -11.762205 3.221 170 170 0
2.766108 -11.780819 3.181 170 170 0
2.813331 -11.804881 3.138 170 170 0
2.830714 -11.812615 2.98 170 170 0
2.758089 -11.776733 3.323 170 170 0
2.832933 -11.814869 3.276 170 170 0
2.984875 -11.88892 3.167 170 170 0
2.758543 -11.775842 2.724 170 170 0
2.779036 -11.786283 3.263 170 170 0
2.803984 -11.798995 3.417 170 170 0
2.757198 -11.776279 3.446 170 170 0
2.869028 -11.832137 3.152 170 170 0
2.74205 -11.768561 3.124 170 170 0
2.868137 -11.831683 3.144 170 170 0
2.802639 -11.799433 2.986 170 170 0
2.768344 -11.780836 3.019 170 170 0
2.820913 -11.807621 2.893 170 170 0
2.883284 -11.8394 3.254 170 170 0
2.805766 -11.799903 3.412 170 170 0
2.727794 -11.761297 3.101 170 170 0
2.798638 -11.796271 2.959 170 170 0
2.861009 -11.828051 3.297 170 170 0
2.865026 -11.828977 3.001 170 170 0
2.7826 -11.788099 3.146 170 170 0
2.974183 -11.883471 3.15 170 170 0
2.877047 -11.836223 3.23 170 170 0
2.856554 -11.825781 2.982 170 170 0
2.81244 -11.804426 3.451 170 170 0
2.781255 -11.788537 3.459 170 170 0
2.876156 -11.835769 3.223 170 170 0
2.717993 -11.756304 2.84 170 170 0
2.856554 -11.825781 3.284 170 170 0
2.966164 -11.879386 3.258 170 170 0
2.761653 -11.778549 3.314 170 170 0
2.744724 -11.769923 3.302 170 170 0
2.789728 -11.791732 2.918 170 170 0
2.742942 -11.769015 3.301 170 170 0
2.946562 -11.869398 3.203 170 170 0
2.968837 -11.880748 3.175 170 170 0
2.750961 -11.773102 3.387 170 170 0
2.762998 -11.778111 3.102 170 170 0
2.716211 -11.755396 2.886 170 170 0
2.765671 -11.779473 2.97 170 170 0
2.75898 -11.777187 3.371 170 170 0
2.771017 -11.782198 2.801 170 170 0
2.75898 -11.777187 3.512 170 170 0
2.950126 -11.871214 3.11 170 170 0
2.820913 -11.807621 2.912 170 170 0
2.787509 -11.789479 2.776 170 170 0
2.848535 -11.821695 3.271 170 170 0
2.807548 -11.800812 3.008 170 170 0
2.799966 -11.798071 3.226 170 170 0
2.824477 -11.809437 2.913 170 170 0
2.884175 -11.839854 3.36 170 170 0
2.73314 -11.764022 2.944 170 170 0
2.914032 -11.853946 3.096 170 170 0
2.862791 -11.828959 3.146 170 170 0
2.753633 -11.774464 3.384 170 170 0
2.723339 -11.759027 2.916 170 170 0
2.959036 -11.875753 3.267 170 170 0
2.90334 -11.848498 2.979 170 170 0
2.737159 -11.764946 2.735 170 170 0
2.758089 -11.776733 3.34 170 170 0
2.761653 -11.778549 3.451 170 170 0
2.792838 -11.794439 3.485 170 170 0
2.771908 -11.782652 3.009 170 170 0
2.824477 -11.809437 2.974 170 170 0
2.815567 -11.804897 3.043 170 170 0
2.837388 -11.817139 3.409 170 170 0
2.850317 -11.822603 3.275 170 170 0
2.841406 -11.818063 2.866 170 170 0
2.908686 -11.851222 3.22 170 170 0
2.730922 -11.761768 2.8 170 170 0
2.828041 -11.811254 3.058 170 170 0
2.759434 -11.776296 3.009 170 170 0
2.784382 -11.789008 2.964 170 170 0
2.722012 -11.757228 2.603 170 170 0
2.793746 -11.792657 2.86 170 170 0
2.97151 -11.88211 3.213 170 170 0
2.815113 -11.805789 3.17 170 170 0
2.83606 -11.815339 2.967 170 170 0
2.801748 -11.798979 3.464 170 170 0
2.878392 -11.835786 3.14 170 170 0
2.881502 -11.838492 3.372 170 170 0
2.762544 -11.779003 3.34 170 170 0
2.852989 -11.823965 3.048 170 170 0
2.801311 -11.797633 2.786 170 170 0
2.881502 -11.838492 3.309 170 170 0
2.76478 -11.779019 3.048 170 170 0
2.892194 -11.843941 3.327 170 170 0
2.845861 -11.820333 3.059 170 170 0
2.738941 -11.765854 2.807 170 170 0
2.857445 -11.826235 3.172 170 170 0
2.857445 -11.826235 3.389 170 170 0
2.739377 -11.7672 2.943 170 170 0
2.873045 -11.833062 3.073 170 170 0
2.831605 -11.813069 2.869 170 170 0
2.990675 -11.890753 3.178 170 170 0
2.877938 -11.836677 3.186 170 170 0
2.756761 -11.774934 2.935 170 170 0
2.765671 -11.779473 2.723 170 170 0
