ply
format ascii 1.0
element vertex 1379
property double x
property double y
property double z
property uchar red
property uchar green
property uchar blue
element face 0
property list uchar int vertex_indices
end_header
0.684591 -15.685405 1.091 84 170 0
0.669644 -15.710336 1.04 84 170 0
0.560703 -15.921942 1.133 84 170 0
0.677327 -15.69966 1.101 84 170 0
0.588799 -15.873407 1.2 84 170 0
0.727283 -15.599414 1.029 84 170 0
0.691957 -15.657733 0.901 84 170 0
0.694176 -15.659986 0.982 84 170 0
0.620209 -15.800748 1.018 84 170 0
0.613803 -15.81993 1.114 84 170 0
0.72187 -15.605634 0.98 84 170 0
0.571548 -15.907265 1.197 84 170 0
0.586966 -15.879207 1.213 84 170 0
0.657352 -15.738866 1.128 84 170 0
0.564789 -15.913923 1.141 84 170 0
0.6665 -15.712101 0.993 84 170 0
0.805841 -15.443034 0.918 84 170 0
0.638789 -15.768688 1.064 84 170 0
0.659622 -15.73441 1.124 84 170 0
0.516632 -16.01284 1.227 84 170 0
0.588884 -15.862227 1.057 84 170 0
0.570708 -15.900104 1.093 84 170 0
0.649634 -15.754012 1.134 84 170 0
0.700095 -15.646167 0.955 84 170 0
0.74134 -15.574029 1.033 84 170 0
0.717278 -15.621253 1.065 84 170 0
0.748167 -15.558428 0.99 84 170 0
0.625119 -15.802126 1.157 84 170 0
0.7632 -15.522317 0.897 84 170 0
0.455746 -16.138945 1.378 84 170 0
0.656058 -15.732594 1.005 84 170 0
0.577449 -15.895682 1.198 84 170 0
0.737339 -15.570868 0.897 84 170 0
0.63783 -15.777178 1.149 84 170 0
0.601108 -15.842643 1.097 84 170 0
0.64834 -15.747742 1.017 84 170 0
0.726409 -15.596725 0.976 84 170 0
0.594332 -15.851535 1.049 84 170 0
0.696934 -15.650167 0.92 84 170 0
0.529781 -15.989238 1.256 84 170 0
0.458924 -16.132708 1.391 84 170 0
0.702382 -15.639476 0.92 84 170 0
0.607901 -15.831512 1.115 84 170 0
0.665558 -15.718355 1.055 84 170 0
0.64422 -15.760232 1.078 84 170 0
0.631474 -15.789652 1.155 84 170 0
0.772716 -15.505841 0.902 84 170 0
0.512966 -16.024441 1.29 84 170 0
0.706922 -15.630566 0.929 84 170 0
0.634669 -15.781179 1.121 84 170 0
0.775877 -15.501841 0.931 84 170 0
0.749126 -15.549938 0.911 84 170 0
0.721852 -15.607871 1.001 84 170 0
0.628835 -15.783818 1.01 84 170 0
0.691906 -15.66444 0.989 84 170 0
0.528907 -15.986547 1.191 84 170 0
0.448028 -16.154091 1.409 84 170 0
0.763619 -15.525898 0.951 84 170 0
0.805387 -15.443926 0.897 84 170 0
0.584276 -15.880081 1.17 84 170 0
0.561106 -15.927759 1.224 84 170 0
0.667811 -15.716136 1.081 84 170 0
0.522971 -16.002604 1.272 84 170 0
0.549336 -15.946452 1.16 84 170 0
0.612407 -15.827075 1.173 84 170 0
0.638789 -15.768688 1.059 84 170 0
0.7405 -15.566867 0.925 84 170 0
0.547503 -15.952252 1.202 84 170 0
0.477101 -16.09483 1.335 84 170 0
0.576609 -15.888521 1.085 84 170 0
0.657369 -15.736629 1.08 84 170 0
0.737305 -15.57534 0.963 84 170 0
0.758172 -15.53659 0.952 84 170 0
0.835333 -15.387355 0.912 84 170 0
0.543383 -15.964744 1.257 84 170 0
0.483457 -16.082355 1.32 84 170 0
0.704601 -15.641728 1.017 84 170 0
0.528436 -15.989675 1.236 84 170 0
0.60247 -15.839969 1.08 84 170 0
0.775911 -15.497369 0.888 84 170 0
0.493427 -16.064991 1.34 84 170 0
0.525694 -15.997257 1.245 84 170 0
0.50846 -16.028879 1.252 84 170 0
0.625136 -15.799891 1.125 84 170 0
0.715479 -15.622581 1.032 84 170 0
0.674688 -15.693827 0.944 84 170 0
0.642455 -15.757089 0.995 84 170 0
0.542492 -15.96429 1.232 84 170 0
0.474814 -16.101521 1.362 84 170 0
0.72234 -15.602508 0.939 84 170 0
0.771809 -15.507624 0.902 84 170 0
0.742316 -15.563303 0.927 84 170 0
0.703222 -15.646637 1.053 84 170 0
0.653351 -15.735704 0.969 84 170 0
0.625187 -15.793182 1.028 84 170 0
0.616998 -15.811457 1.072 84 170 0
0.777728 -15.493804 0.891 84 170 0
0.640202 -15.759308 0.947 84 170 0
0.643817 -15.754416 0.983 84 170 0
0.625657 -15.790055 1.018 84 170 0
0.689148 -15.674258 1.057 84 170 0
0.547923 -15.955834 1.253 84 170 0
0.575179 -15.900137 1.216 84 170 0
0.496185 -16.055172 1.302 84 170 0
0.692763 -15.669367 1.08 84 170 0
0.6628 -15.728173 1.114 84 170 0
0.790842 -15.474673 0.943 84 170 0
0.557525 -15.928179 1.143 84 170 0
0.661455 -15.72861 1.077 84 170 0
0.625641 -15.792292 1.025 84 170 0
0.534774 -15.979437 1.255 84 170 0
0.507081 -16.033789 1.264 84 170 0
0.48845 -16.072556 1.327 84 170 0
0.730075 -15.585124 0.905 84 170 0
0.762275 -15.526335 0.92 84 170 0
0.676992 -15.6849 0.902 84 170 0
0.60062 -15.848004 1.154 84 170 0
0.681447 -15.68717 1.035 84 170 0
0.697774 -15.65733 1.063 84 170 0
0.753195 -15.544155 0.928 84 170 0
0.550664 -15.948252 1.22 84 170 0
0.650207 -15.73747 0.928 84 170 0
0.60701 -15.831059 1.072 84 170 0
0.75866 -15.531227 0.886 84 170 0
0.635611 -15.774925 1.052 84 170 0
0.658379 -15.721431 0.903 84 170 0
0.731403 -15.586923 0.956 84 170 0
0.552934 -15.943796 1.219 84 170 0
0.491611 -16.068554 1.343 84 170 0
0.717766 -15.61589 0.989 84 170 0
0.663792 -15.715211 0.96 84 170 0
0.790876 -15.470201 0.891 84 170 0
0.429415 -16.190622 1.425 84 170 0
0.649214 -15.750431 1.07 84 170 0
0.790422 -15.471092 0.896 84 170 0
0.723214 -15.605197 0.986 84 170 0
0.695033 -15.664911 1.088 84 170 0
0.656915 -15.73752 1.097 84 170 0
0.609683 -15.83242 1.181 84 170 0
0.628819 -15.786055 1.034 84 170 0
0.696395 -15.662238 1.08 84 170 0
0.571145 -15.901449 1.123 84 170 0
0.617837 -15.818619 1.189 84 170 0
0.638806 -15.766453 1.012 84 170 0
0.716455 -15.611855 0.925 84 170 0
0.627911 -15.787836 1.026 84 170 0
0.486197 -16.074776 1.293 84 170 0
0.749075 -15.556645 1.012 84 170 0
0.737759 -15.574449 0.949 84 170 0
0.591506 -15.870296 1.227 84 170 0
0.729587 -15.590487 0.96 84 170 0
0.681044 -15.681353 0.948 84 170 0
0.539785 -15.967401 1.226 84 170 0
0.621588 -15.795838 0.98 84 170 0
0.69505 -15.662676 1.066 84 170 0
0.697371 -15.651512 0.954 84 170 0
0.792675 -15.468873 0.937 84 170 0
0.640168 -15.76378 1.015 84 170 0
0.688291 -15.669333 0.97 84 170 0
0.708284 -15.627892 0.93 84 170 0
0.688257 -15.673804 1.035 84 170 0
0.769085 -15.512969 0.929 84 170 0
0.596954 -15.859605 1.221 84 170 0
0.690141 -15.661297 0.918 84 170 0
0.608792 -15.831966 1.129 84 170 0
0.602436 -15.84444 1.158 84 170 0
0.439856 -16.17013 1.401 84 170 0
0.60247 -15.839969 1.1 84 170 0
0.795853 -15.462636 0.911 84 170 0
0.783124 -15.48982 0.96 84 170 0
0.768176 -15.514751 0.926 84 170 0
0.726375 -15.601196 1.011 84 170 0
0.560215 -15.927304 1.178 84 170 0
0.493881 -16.064098 1.337 84 170 0
0.60247 -15.839969 1.101 84 170 0
0.602453 -15.842205 1.114 84 170 0
0.668736 -15.712118 1.05 84 170 0
0.675965 -15.702333 1.1 84 170 0
0.726813 -15.602541 1.043 84 170 0
0.708704 -15.631474 0.989 84 170 0
0.628767 -15.792763 1.118 84 170 0
0.679699 -15.681789 0.913 84 170 0
0.691418 -15.669804 1.065 84 170 0
0.830339 -15.397156 0.903 84 170 0
0.615199 -15.812785 1.054 84 170 0
0.63783 -15.777178 1.155 84 170 0
0.672906 -15.692919 0.892 84 170 0
0.538843 -15.973654 1.274 84 170 0
0.539768 -15.969636 1.247 84 170 0
0.553388 -15.942906 1.216 84 170 0
0.547974 -15.949125 1.167 84 170 0
0.686929 -15.672007 0.962 84 170 0
0.637024 -15.765545 0.962 84 170 0
0.547974 -15.949125 1.161 84 170 0
0.59793 -15.84888 1.094 84 170 0
0.461665 -16.125124 1.357 84 170 0
0.67462 -15.702771 1.077 84 170 0
0.630651 -15.780254 0.991 84 170 0
0.695067 -15.660439 1.01 84 170 0
0.612946 -15.815003 1.006 84 170 0
0.647818 -15.757577 1.139 84 170 0
0.709629 -15.627456 0.938 84 170 0
0.678252 -15.695642 1.058 84 170 0
0.732345 -15.580669 0.893 84 170 0
0.803117 -15.44838 0.908 84 170 0
0.646036 -15.756668 1.068 84 170 0
0.452568 -16.145182 1.381 84 170 0
0.77998 -15.491586 0.914 84 170 0
0.441672 -16.166565 1.413 84 170 0
0.740063 -15.565522 0.887 84 170 0
0.723197 -15.607433 1.027 84 170 0
0.620124 -15.811928 1.163 84 170 0
0.587017 -15.872499 1.139 84 170 0
0.486617 -16.078356 1.352 84 170 0
0.795836 -15.464872 0.966 84 170 0
0.791784 -15.468419 0.888 84 170 0
0.556583 -15.934432 1.192 84 170 0
0.541113 -15.969198 1.266 84 170 0
0.680993 -15.688061 1.051 84 170 0
0.513437 -16.021315 1.261 84 170 0
0.612004 -15.821258 1.084 84 170 0
0.622831 -15.808818 1.174 84 170 0
0.626094 -15.791401 1.031 84 170 0
0.768159 -15.516988 0.945 84 170 0
0.700095 -15.646167 0.949 84 170 0
0.55475 -15.940232 1.235 84 170 0
0.751362 -15.549954 0.957 84 170 0
0.655638 -15.729013 0.956 84 170 0
0.652426 -15.739722 0.995 84 170 0
0.700061 -15.650639 1.017 84 170 0
0.517506 -16.015532 1.291 84 170 0
0.592431 -15.866279 1.182 84 170 0
0.679665 -15.686262 0.972 84 170 0
0.506627 -16.034679 1.276 84 170 0
0.735909 -15.582485 1.024 84 170 0
0.501616 -16.046717 1.32 84 170 0
0.471182 -16.10865 1.369 84 170 0
0.712369 -15.619873 0.921 84 170 0
0.572473 -15.903247 1.188 84 170 0
0.539819 -15.962928 1.166 84 170 0
0.731857 -15.586032 0.953 84 170 0
0.657386 -15.734393 1.074 84 170 0
0.618814 -15.807893 1.068 84 170 0
0.639277 -15.763326 1.005 84 170 0
0.486617 -16.078356 1.359 84 170 0
0.651484 -15.745976 1.079 84 170 0
0.803117 -15.44838 0.917 84 170 0
0.512546 -16.020861 1.246 84 170 0
0.66428 -15.709848 0.908 84 170 0
0.511638 -16.022642 1.245 84 170 0
0.660631 -15.719213 0.946 84 170 0
0.794037 -15.4662 0.925 84 170 0
0.728713 -15.587796 0.911 84 170 0
0.714589 -15.622127 1.018 84 170 0
0.671425 -15.711244 1.096 84 170 0
0.77771 -15.496041 0.9 84 170 0
0.713698 -15.621673 0.989 84 170 0
0.564772 -15.916159 1.163 84 170 0
0.723197 -15.607433 1.027 84 170 0
0.520229 -16.010185 1.302 84 170 0
0.459832 -16.130924 1.387 84 170 0
0.621067 -15.805674 1.109 84 170 0
0.689636 -15.668896 1.01 84 170 0
0.678808 -15.681335 0.886 84 170 0
0.615148 -15.819492 1.123 84 170 0
0.787227 -15.479566 0.927 84 170 0
0.521137 -16.008404 1.3 84 170 0
0.603815 -15.839532 1.13 84 170 0
0.679212 -15.687153 0.971 84 170 0
0.507064 -16.036024 1.297 84 170 0
0.643295 -15.76425 1.098 84 170 0
0.643346 -15.757543 1.012 84 170 0
0.529763 -15.991474 1.282 84 170 0
0.675596 -15.692045 0.966 84 170 0
0.4562 -16.138052 1.386 84 170 0
0.680051 -15.694315 1.086 84 170 0
0.843959 -15.370425 0.892 84 170 0
0.820368 -15.414522 0.894 84 170 0
0.520667 -16.01153 1.313 84 170 0
0.704669 -15.632785 0.895 84 170 0
0.697808 -15.652858 1.005 84 170 0
0.575634 -15.899246 1.219 84 170 0
0.674167 -15.703662 1.068 84 170 0
0.611113 -15.820804 1.036 84 170 0
0.651955 -15.742849 1.044 84 170 0
0.491191 -16.064974 1.288 84 170 0
0.56114 -15.923286 1.169 84 170 0
0.690947 -15.672931 1.087 84 170 0
0.530706 -15.98522 1.216 84 170 0
0.601511 -15.848458 1.193 84 170 0
0.757752 -15.533009 0.892 84 170 0
0.561123 -15.925523 1.189 84 170 0
0.746368 -15.559755 0.978 84 170 0
0.737288 -15.577576 0.973 84 170 0
0.583385 -15.879627 1.136 84 170 0
0.703306 -15.635458 0.891 84 170 0
0.814903 -15.42745 0.932 84 170 0
0.786773 -15.480456 0.93 84 170 0
0.746856 -15.554394 0.9 84 170 0
0.649719 -15.742832 0.969 84 170 0
0.455746 -16.138945 1.379 84 170 0
0.61698 -15.813693 1.107 84 170 0
0.616527 -15.814584 1.114 84 170 0
0.766832 -15.515188 0.905 84 170 0
0.617015 -15.80922 1.05 84 170 0
0.522533 -16.001259 1.235 84 170 0
0.66428 -15.709848 0.893 84 170 0
0.701037 -15.639912 0.909 84 170 0
0.520264 -16.005713 1.231 84 170 0
0.622395 -15.807472 1.151 84 170 0
0.776802 -15.497823 0.899 84 170 0
0.722306 -15.606979 1.003 84 170 0
0.501179 -16.045372 1.297 84 170 0
0.490703 -16.070335 1.345 84 170 0
0.600586 -15.852477 1.213 84 170 0
0.640202 -15.759308 0.961 84 170 0
0.578829 -15.890773 1.172 84 170 0
0.751799 -15.5513 0.999 84 170 0
0.67785 -15.689826 0.972 84 170 0
0.704652 -15.63502 0.938 84 170 0
0.53844 -15.967836 1.188 84 170 0
0.783578 -15.488929 0.961 84 170 0
0.584276 -15.880081 1.167 84 170 0
0.672452 -15.69381 0.9 84 170 0
0.763637 -15.523662 0.938 84 170 0
0.723669 -15.604306 0.998 84 170 0
0.561577 -15.924631 1.192 84 170 0
0.754994 -15.542827 0.951 84 170 0
0.640639 -15.760653 0.999 84 170 0
0.685164 -15.668861 0.895 84 170 0
0.627944 -15.783364 0.981 84 170 0
0.616022 -15.822183 1.192 84 170 0
0.711865 -15.627472 1.007 84 170 0
0.663322 -15.718339 1.0 84 170 0
0.729082 -15.598086 1.046 84 170 0
0.682373 -15.683151 1.006 84 170 0
0.691469 -15.663095 0.958 84 170 0
0.538843 -15.973654 1.273 84 170 0
0.586966 -15.879207 1.219 84 170 0
0.624749 -15.791837 1.005 84 170 0
0.761384 -15.525881 0.909 84 170 0
0.514782 -16.020878 1.306 84 170 0
0.551555 -15.948706 1.25 84 170 0
0.628835 -15.783818 1.004 84 170 0
0.532033 -15.98702 1.268 84 170 0
0.791313 -15.471546 0.926 84 170 0
0.454384 -16.141617 1.377 84 170 0
0.63783 -15.777178 1.146 84 170 0
0.656932 -15.735284 1.072 84 170 0
0.677412 -15.68848 0.966 84 170 0
0.740063 -15.565522 0.891 84 170 0
0.572926 -15.902357 1.192 84 170 0
0.63245 -15.778927 1.018 84 170 0
0.648374 -15.743269 0.94 84 170 0
0.653771 -15.739285 1.037 84 170 0
0.67109 -15.696483 0.9 84 170 0
0.77586 -15.504076 0.982 84 170 0
0.61609 -15.813239 1.065 84 170 0
0.727335 -15.592706 0.924 84 170 0
0.724576 -15.602524 0.991 84 170 0
0.602402 -15.848912 1.206 84 170 0
0.584259 -15.882317 1.198 84 170 0
0.581149 -15.87961 1.072 84 170 0
0.739609 -15.566413 0.895 84 170 0
0.511167 -16.025768 1.272 84 170 0
0.732731 -15.588722 1.008 84 170 0
0.658849 -15.718305 0.893 84 170 0
0.574272 -15.901919 1.216 84 170 0
0.521592 -16.007511 1.285 84 170 0
0.540239 -15.966509 1.221 84 170 0
0.576978 -15.898809 1.233 84 170 0
0.709107 -15.63729 1.063 84 170 0
0.734093 -15.586049 1.026 84 170 0
0.694681 -15.652386 0.906 84 170 0
0.616475 -15.821292 1.193 84 170 0
0.692428 -15.654606 0.891 84 170 0
0.632819 -15.789215 1.169 84 170 0
0.807186 -15.442596 0.94 84 170 0
0.665138 -15.714774 1.004 84 170 0
0.748672 -15.550829 0.92 84 170 0
0.685533 -15.679152 1.039 84 170 0
0.591506 -15.870296 1.215 84 170 0
0.674251 -15.692481 0.936 84 170 0
0.468929 -16.110868 1.334 84 170 0
0.516144 -16.018204 1.288 84 170 0
0.45393 -16.142508 1.377 84 170 0
0.656007 -15.739302 1.091 84 170 0
0.762712 -15.527679 0.967 84 170 0
0.733639 -15.58694 1.023 84 170 0
0.73369 -15.580232 0.921 84 170 0
0.727351 -15.59047 0.915 84 170 0
0.601494 -15.850696 1.207 84 170 0
0.55702 -15.935778 1.23 84 170 0
0.495731 -16.056065 1.29 84 170 0
0.609212 -15.835547 1.199 84 170 0
0.700969 -15.648856 1.019 84 170 0
0.576575 -15.892992 1.14 84 170 0
0.81403 -15.42476 0.886 84 170 0
0.614291 -15.814567 1.056 84 170 0
0.543888 -15.957145 1.168 84 170 0
0.665558 -15.718355 1.051 84 170 0
0.446212 -16.157656 1.393 84 170 0
0.784049 -15.485803 0.926 84 170 0
0.682321 -15.689859 1.093 84 170 0
0.73184 -15.588268 0.982 84 170 0
0.739609 -15.566413 0.894 84 170 0
0.546124 -15.957162 1.233 84 170 0
0.440764 -16.168348 1.403 84 170 0
0.632416 -15.783399 1.082 84 170 0
0.581989 -15.886772 1.214 84 170 0
0.592431 -15.866279 1.203 84 170 0
0.655183 -15.729904 0.948 84 170 0
0.595155 -15.860933 1.201 84 170 0
0.53205 -15.984783 1.243 84 170 0
0.777239 -15.499167 0.928 84 170 0
0.640554 -15.771832 1.152 84 170 0
0.747696 -15.561555 1.023 84 170 0
0.836712 -15.382445 0.89 84 170 0
0.523879 -16.00082 1.262 84 170 0
0.673293 -15.700972 1.024 84 170 0
0.762712 -15.527679 0.945 84 170 0
0.763166 -15.526789 0.96 84 170 0
0.69648 -15.651058 0.927 84 170 0
0.691049 -15.659514 0.894 84 170 0
0.530722 -15.982984 1.2 84 170 0
0.579702 -15.893463 1.222 84 170 0
0.713698 -15.621673 0.989 84 170 0
0.822638 -15.410067 0.898 84 170 0
0.725518 -15.596271 0.925 84 170 0
0.663288 -15.72281 1.065 84 170 0
0.613383 -15.816349 1.056 84 170 0
0.836695 -15.384682 0.913 84 170 0
0.756776 -15.543735 1.014 84 170 0
0.601511 -15.848458 1.18 84 170 0
0.647012 -15.745942 0.958 84 170 0
0.695538 -15.657312 1.004 84 170 0
0.556617 -15.92996 1.142 84 170 0
0.653283 -15.744649 1.099 84 170 0
0.535665 -15.979891 1.281 84 170 0
0.595189 -15.856461 1.132 84 170 0
0.518885 -16.010622 1.256 84 170 0
0.580679 -15.882737 1.115 84 170 0
0.498421 -16.055189 1.346 84 170 0
0.715043 -15.621235 0.99 84 170 0
0.716422 -15.616326 0.96 84 170 0
0.630214 -15.77891 0.971 84 170 0
0.616124 -15.808766 1.018 84 170 0
0.749075 -15.556645 1.003 84 170 0
0.692763 -15.669367 1.072 84 170 0
0.577432 -15.897918 1.24 84 170 0
0.669207 -15.708991 1.034 84 170 0
0.677446 -15.684009 0.901 84 170 0
0.636553 -15.768671 0.993 84 170 0
0.483927 -16.079229 1.309 84 170 0
0.577013 -15.894337 1.186 84 170 0
0.780854 -15.494275 0.966 84 170 0
0.464389 -16.11978 1.354 84 170 0
0.674167 -15.703662 1.068 84 170 0
0.630197 -15.781145 1.001 84 170 0
0.752758 -15.542809 0.894 84 170 0
0.645599 -15.755323 1.052 84 170 0
0.523442 -15.999475 1.228 84 170 0
0.767235 -15.521006 0.985 84 170 0
0.656109 -15.725885 0.924 84 170 0
0.697354 -15.653749 0.983 84 170 0
0.543871 -15.95938 1.22 84 170 0
0.81946 -15.416304 0.896 84 170 0
0.602402 -15.848912 1.207 84 170 0
0.640134 -15.768251 1.084 84 170 0
0.787227 -15.479566 0.921 84 170 0
0.794037 -15.4662 0.932 84 170 0
0.727805 -15.58958 0.902 84 170 0
0.652829 -15.745539 1.108 84 170 0
0.776768 -15.502295 0.964 84 170 0
0.628398 -15.782474 0.974 84 170 0
0.632904 -15.778035 1.015 84 170 0
0.510713 -16.026661 1.267 84 170 0
0.551101 -15.949597 1.266 84 170 0
0.61012 -15.833766 1.201 84 170 0
0.66423 -15.716556 0.998 84 170 0
0.540222 -15.968744 1.245 84 170 0
0.608843 -15.825259 1.064 84 170 0
0.546561 -15.958507 1.264 84 170 0
0.620579 -15.811036 1.155 84 170 0
0.763149 -15.529024 0.994 84 170 0
0.528402 -15.994146 1.295 84 170 0
0.683246 -15.685843 1.07 84 170 0
0.824438 -15.408738 0.913 84 170 0
0.656024 -15.737066 1.069 84 170 0
0.808128 -15.436343 0.892 84 170 0
0.466659 -16.115324 1.353 84 170 0
0.75723 -15.542844 1.011 84 170 0
0.749092 -15.55441 0.96 84 170 0
0.527494 -15.995929 1.281 84 170 0
0.512966 -16.024441 1.297 84 170 0
0.769067 -15.515206 0.943 84 170 0
0.539785 -15.967401 1.218 84 170 0
0.724559 -15.60476 1.019 84 170 0
0.583402 -15.877391 1.106 84 170 0
0.661438 -15.730845 1.133 84 170 0
0.72683 -15.600305 1.016 84 170 0
0.58885 -15.866699 1.104 84 170 0
0.507518 -16.035133 1.306 84 170 0
0.4998 -16.050282 1.315 84 170 0
0.555255 -15.932633 1.149 84 170 0
0.813105 -15.428778 0.914 84 170 0
0.550681 -15.946015 1.193 84 170 0
0.636922 -15.778961 1.153 84 170 0
0.672452 -15.69381 0.886 84 170 0
0.697774 -15.65733 1.039 84 170 0
0.622463 -15.798529 1.041 84 170 0
0.655133 -15.736612 1.023 84 170 0
0.597459 -15.852006 1.112 84 170 0
0.445775 -16.156309 1.383 84 170 0
0.723214 -15.605197 1.0 84 170 0
0.836695 -15.384682 0.904 84 170 0
0.548865 -15.949579 1.214 84 170 0
0.619217 -15.813709 1.157 84 170 0
0.579753 -15.886755 1.128 84 170 0
0.678757 -15.688044 0.967 84 170 0
0.661103 -15.716085 0.899 84 170 0
0.697808 -15.652858 0.997 84 170 0
0.458016 -16.134489 1.389 84 170 0
0.63472 -15.774471 1.031 84 170 0
0.500271 -16.047153 1.279 84 170 0
0.443488 -16.163 1.402 84 170 0
0.575651 -15.89701 1.171 84 170 0
0.589287 -15.868044 1.13 84 170 0
0.609683 -15.83242 1.159 84 170 0
0.608758 -15.836438 1.198 84 170 0
0.7273 -15.597178 1.004 84 170 0
0.842143 -15.373989 0.894 84 170 0
0.69917 -15.650185 1.001 84 170 0
0.604303 -15.834168 1.06 84 170 0
0.774045 -15.50764 0.961 84 170 0
0.773624 -15.50406 0.914 84 170 0
0.601108 -15.842643 1.079 84 170 0
0.589741 -15.867153 1.145 84 170 0
0.446666 -16.156763 1.394 84 170 0
0.593827 -15.859134 1.137 84 170 0
0.792221 -15.469764 0.935 84 170 0
0.684642 -15.678698 0.998 84 170 0
0.629675 -15.790981 1.129 84 170 0
0.656041 -15.73483 1.022 84 170 0
0.682338 -15.687624 1.075 84 170 0
0.659706 -15.72323 0.973 84 170 0
0.680539 -15.688951 1.031 84 170 0
0.730983 -15.583343 0.902 84 170 0
0.616544 -15.812347 1.067 84 170 0
0.660648 -15.716976 0.895 84 170 0
0.683802 -15.671535 0.892 84 170 0
0.611045 -15.829747 1.158 84 170 0
0.672787 -15.70857 1.11 84 170 0
0.814903 -15.42745 0.93 84 170 0
0.799468 -15.457744 0.938 84 170 0
0.529343 -15.987893 1.221 84 170 0
0.600603 -15.850242 1.175 84 170 0
0.678286 -15.691171 1.017 84 170 0
0.51569 -16.019094 1.294 84 170 0
0.688728 -15.670677 0.996 84 170 0
0.631491 -15.787416 1.108 84 170 0
0.639226 -15.770033 1.071 84 170 0
0.639731 -15.762434 0.989 84 170 0
0.618377 -15.806548 1.034 84 170 0
0.555658 -15.938451 1.222 84 170 0
0.676084 -15.686682 0.887 84 170 0
0.773154 -15.507186 0.934 84 170 0
0.768631 -15.513861 0.909 84 170 0
0.511167 -16.025768 1.262 84 170 0
0.666029 -15.715228 1.03 84 170 0
0.65431 -15.727214 0.9 84 170 0
0.684188 -15.679587 0.996 84 170 0
0.790422 -15.471092 0.886 84 170 0
0.653351 -15.735704 0.964 84 170 0
0.644169 -15.76694 1.158 84 170 0
0.626027 -15.800344 1.168 84 170 0
0.617871 -15.814147 1.139 84 170 0
0.694227 -15.653277 0.913 84 170 0
0.598333 -15.854695 1.181 84 170 0
0.594281 -15.858243 1.126 84 170 0
0.635645 -15.770452 0.989 84 170 0
0.581989 -15.886772 1.196 84 170 0
0.523442 -15.999475 1.244 84 170 0
0.683751 -15.678244 0.97 84 170 0
0.611953 -15.827966 1.168 84 170 0
0.576575 -15.892992 1.14 84 170 0
0.629658 -15.793217 1.153 84 170 0
0.679614 -15.692969 1.077 84 170 0
0.644742 -15.750398 0.968 84 170 0
0.607044 -15.826587 1.03 84 170 0
0.810398 -15.431888 0.89 84 170 0
0.855763 -15.34726 0.887 84 170 0
0.685516 -15.681387 1.077 84 170 0
0.692831 -15.660422 0.965 84 170 0
0.693671 -15.667585 1.079 84 170 0
0.552968 -15.939324 1.178 84 170 0
0.632921 -15.7758 1.006 84 170 0
0.529326 -15.990129 1.265 84 170 0
0.502978 -16.044044 1.316 84 170 0
0.630146 -15.787853 1.103 84 170 0
0.693234 -15.66624 1.045 84 170 0
0.788152 -15.475547 0.894 84 170 0
0.668247 -15.717481 1.1 84 170 0
0.750034 -15.548156 0.911 84 170 0
0.60104 -15.851585 1.2 84 170 0
0.646961 -15.75265 1.036 84 170 0
0.765872 -15.523679 0.98 84 170 0
0.612407 -15.827075 1.167 84 170 0
0.587 -15.874735 1.161 84 170 0
0.744586 -15.558847 0.903 84 170 0
0.599695 -15.852023 1.177 84 170 0
0.584696 -15.883662 1.213 84 170 0
0.611584 -15.817677 1.027 84 170 0
0.717766 -15.61589 0.987 84 170 0
0.716842 -15.619907 1.03 84 170 0
0.664162 -15.7255 1.104 84 170 0
0.633392 -15.772673 0.959 84 170 0
0.663271 -15.725046 1.089 84 170 0
0.801755 -15.451053 0.916 84 170 0
0.791313 -15.471546 0.94 84 170 0
0.788572 -15.479128 0.959 84 170 0
0.455309 -16.137598 1.374 84 170 0
0.778619 -15.494258 0.917 84 170 0
0.801755 -15.451053 0.906 84 170 0
0.666432 -15.721045 1.111 84 170 0
0.677361 -15.695189 1.051 84 170 0
0.691957 -15.657733 0.917 84 170 0
0.781813 -15.485785 0.887 84 170 0
0.453022 -16.144289 1.386 84 170 0
0.674251 -15.692481 0.93 84 170 0
0.690073 -15.67024 1.025 84 170 0
0.759954 -15.537498 1.006 84 170 0
0.672435 -15.696046 0.934 84 170 0
0.791313 -15.471546 0.915 84 170 0
0.60247 -15.839969 1.085 84 170 0
0.667828 -15.7139 1.055 84 170 0
0.656898 -15.739756 1.13 84 170 0
0.631474 -15.789652 1.146 84 170 0
0.717363 -15.610072 0.914 84 170 0
0.615148 -15.819492 1.133 84 170 0
0.709141 -15.632819 1.013 84 170 0
0.670586 -15.704082 0.98 84 170 0
0.605177 -15.83686 1.108 84 170 0
0.6097 -15.830185 1.144 84 170 0
0.59423 -15.864951 1.22 84 170 0
0.690493 -15.673822 1.082 84 170 0
0.776297 -15.505422 0.991 84 170 0
0.492065 -16.067663 1.343 84 170 0
0.613854 -15.813222 1.032 84 170 0
0.55433 -15.936651 1.175 84 170 0
0.702314 -15.648419 1.05 84 170 0
0.651569 -15.734797 0.923 84 170 0
0.566134 -15.913486 1.158 84 170 0
0.717363 -15.610072 0.922 84 170 0
0.643295 -15.76425 1.103 84 170 0
0.633375 -15.774908 0.989 84 170 0
0.606119 -15.830605 1.052 84 170 0
0.500742 -16.044025 1.256 84 170 0
0.726375 -15.601196 1.015 84 170 0
0.650593 -15.745522 1.046 84 170 0
0.697774 -15.65733 1.054 84 170 0
0.545182 -15.963415 1.286 84 170 0
0.604774 -15.831042 1.018 84 170 0
0.710116 -15.622092 0.894 84 170 0
0.67151 -15.700064 0.956 84 170 0
0.604218 -15.845348 1.209 84 170 0
0.676925 -15.693844 1.017 84 170 0
0.658277 -15.734847 1.081 84 170 0
0.620124 -15.811928 1.169 84 170 0
0.677344 -15.697425 1.07 84 170 0
0.649719 -15.742832 0.971 84 170 0
0.746822 -15.558865 0.969 84 170 0
0.710099 -15.624329 0.909 84 170 0
0.688711 -15.672915 1.03 84 170 0
0.736885 -15.571759 0.896 84 170 0
0.723265 -15.598489 0.902 84 170 0
0.502541 -16.042698 1.278 84 170 0
0.717801 -15.611417 0.939 84 170 0
0.522988 -16.000366 1.236 84 170 0
0.704147 -15.642619 1.021 84 170 0
0.77132 -15.512986 0.981 84 170 0
0.590212 -15.864026 1.109 84 170 0
0.632938 -15.773563 0.958 84 170 0
0.648777 -15.749086 1.042 84 170 0
0.744098 -15.564211 0.988 84 170 0
0.612912 -15.819476 1.083 84 170 0
0.703693 -15.643511 1.01 84 170 0
0.527981 -15.990566 1.224 84 170 0
0.612895 -15.821712 1.117 84 170 0
0.520735 -16.002586 1.208 84 170 0
0.809019 -15.436797 0.898 84 170 0
0.59835 -15.85246 1.149 84 170 0
0.622883 -15.80211 1.097 84 170 0
0.627002 -15.789619 1.038 84 170 0
0.547032 -15.95538 1.227 84 170 0
0.491645 -16.064083 1.297 84 170 0
0.478445 -16.094393 1.354 84 170 0
0.68101 -15.685824 1.003 84 170 0
0.730075 -15.585124 0.904 84 170 0
0.715917 -15.623925 1.054 84 170 0
0.606488 -15.840894 1.206 84 170 0
0.644271 -15.753525 0.978 84 170 0
0.622883 -15.80211 1.097 84 170 0
0.748201 -15.553956 0.949 84 170 0
0.610221 -15.82035 1.019 84 170 0
0.722306 -15.606979 0.991 84 170 0
0.571582 -15.902793 1.146 84 170 0
0.505872 -16.016338 1.903 84 170 0
0.478531 -16.083214 1.652 84 170 0
0.622917 -15.797638 1.431 84 170 0
0.620176 -15.80522 1.377 84 170 0
0.502643 -16.029282 1.77 84 170 0
0.506593 -16.03915 1.339 84 170 0
0.859395 -15.340131 0.886 84 170 0
0.459009 -16.121527 1.697 84 170 0
0.792204 -15.472 0.983 84 170 0
0.54752 -15.950017 1.478 84 170 0
0.480784 -16.080994 1.579 84 170 0
0.447591 -16.152746 1.475 84 170 0
0.750874 -15.555318 1.038 84 170 0
0.585774 -15.85952 1.747 84 170 0
0.642489 -15.752617 1.572 84 170 0
0.587119 -15.859083 1.7 84 170 0
0.553456 -15.933962 1.544 84 170 0
0.513454 -16.019077 1.495 84 170 0
0.508074 -16.020826 1.687 84 170 0
0.651535 -15.739267 1.436 84 170 0
0.517187 -15.998534 1.795 84 170 0
0.459883 -16.124216 1.565 84 170 0
0.751379 -15.547719 1.197 84 170 0
0.626582 -15.786037 1.559 84 170 0
0.671006 -15.707663 1.256 84 170 0
0.718709 -15.609635 1.271 84 170 0
0.742265 -15.570011 1.066 84 170 0
0.525326 -15.986967 1.676 84 170 0
0.558467 -15.921924 1.629 84 170 0
0.601057 -15.84935 1.271 84 170 0
0.751379 -15.547719 1.155 84 170 0
0.468997 -16.101925 1.681 84 170 0
0.493984 -16.050684 1.681 84 170 0
0.513136 -16.002081 1.888 84 170 0
0.735035 -15.579795 1.199 84 170 0
0.596097 -15.854679 1.37 84 170 0
0.505838 -16.020809 1.796 84 170 0
0.543014 -15.954454 1.597 84 170 0
0.47722 -16.079178 1.782 84 170 0
0.550766 -15.934835 1.662 84 170 0
0.693739 -15.658641 1.304 84 170 0
0.697757 -15.659565 1.102 84 170 0
0.716455 -15.611855 1.319 84 170 0
0.571162 -15.899212 1.542 84 170 0
0.512092 -16.021751 1.48 84 170 0
0.506678 -16.027971 1.593 84 170 0
0.504005 -16.026609 1.769 84 170 0
0.562973 -15.917486 1.483 84 170 0
0.6248 -15.78513 1.624 84 170 0
0.683768 -15.676006 1.395 84 170 0
0.604337 -15.829697 1.579 84 170 0
0.699607 -15.651529 1.187 84 170 0
0.558081 -15.913871 1.799 84 170 0
0.553422 -15.938434 1.456 84 170 0
0.502507 -16.047171 1.361 84 170 0
0.583402 -15.877391 1.438 84 170 0
0.526756 -15.975351 1.869 84 170 0
0.468509 -16.107288 1.564 84 170 0
0.513085 -16.008789 1.747 84 170 0
0.742282 -15.567776 1.119 84 170 0
0.7273 -15.597178 1.157 84 170 0
0.695538 -15.657312 1.288 84 170 0
0.558887 -15.925506 1.491 84 170 0
0.632955 -15.771328 1.569 84 170 0
0.493058 -16.054703 1.625 84 170 0
0.487542 -16.074337 1.43 84 170 0
0.459378 -16.131815 1.436 84 170 0
0.636956 -15.774488 1.311 84 170 0
0.513607 -15.998955 1.948 84 170 0
0.548513 -15.937055 1.746 84 170 0
0.680153 -15.680899 1.432 84 170 0
0.685062 -15.682278 1.184 84 170 0
0.738179 -15.57803 1.106 84 170 0
0.52709 -15.990112 1.489 84 170 0
0.506173 -16.03557 1.417 84 170 0
0.728226 -15.59316 1.211 84 170 0
0.503466 -16.038681 1.522 84 170 0
0.491208 -16.062737 1.513 84 170 0
0.562536 -15.916142 1.551 84 170 0
0.799485 -15.455508 1.029 84 170 0
0.609297 -15.824368 1.475 84 170 0
0.479439 -16.081432 1.662 84 170 0
0.779509 -15.494712 1.086 84 170 0
0.479052 -16.07338 1.853 84 170 0
0.614325 -15.810094 1.579 84 170 0
0.605648 -15.833732 1.411 84 170 0
0.526132 -15.998602 1.368 84 170 0
0.665171 -15.710302 1.459 84 170 0
0.63657 -15.766436 1.531 84 170 0
0.720474 -15.612779 1.143 84 170 0
0.506207 -16.031097 1.544 84 170 0
0.645548 -15.762032 1.225 84 170 0
0.799031 -15.4564 1.049 84 170 0
0.498574 -16.035065 1.833 84 170 0
0.572978 -15.895648 1.551 84 170 0
0.548377 -15.954943 1.312 84 170 0
0.663809 -15.712976 1.498 84 170 0
0.476329 -16.078724 1.875 84 170 0
0.573448 -15.892521 1.605 84 170 0
0.497127 -16.04892 1.58 84 170 0
0.691906 -15.66444 1.264 84 170 0
0.636519 -15.773144 1.393 84 170 0
0.684693 -15.671988 1.442 84 170 0
0.630163 -15.785618 1.403 84 170 0
0.712369 -15.619873 1.322 84 170 0
0.607413 -15.836876 1.275 84 170 0
0.674251 -15.692481 1.458 84 170 0
0.448113 -16.142912 1.689 84 170 0
0.658714 -15.736192 1.201 84 170 0
0.709578 -15.634163 1.137 84 170 0
0.493024 -16.059174 1.525 84 170 0
0.548916 -15.942872 1.554 84 170 0
0.608003 -15.818097 1.669 84 170 0
0.699641 -15.647058 1.296 84 170 0
0.544745 -15.962071 1.349 84 170 0
0.693251 -15.664003 1.212 84 170 0
0.49585 -16.040411 1.839 84 170 0
0.442563 -16.167019 1.421 84 170 0
0.43804 -16.173693 1.449 84 170 0
0.59196 -15.869407 1.251 84 170 0
0.550834 -15.925891 1.866 84 170 0
0.676958 -15.689372 1.425 84 170 0
0.454401 -16.139381 1.453 84 170 0
0.52171 -15.99186 1.733 84 170 0
0.761367 -15.528116 1.129 84 170 0
0.563966 -15.904525 1.743 84 170 0
0.637949 -15.761526 1.562 84 170 0
0.639697 -15.766907 1.35 84 170 0
0.806732 -15.443488 0.993 84 170 0
0.561628 -15.917924 1.578 84 170 0
0.465734 -16.119341 1.413 84 170 0
0.475739 -16.097504 1.437 84 170 0
0.701423 -15.647965 1.229 84 170 0
0.607515 -15.82346 1.564 84 170 0
0.605194 -15.834622 1.447 84 170 0
0.520819 -15.991406 1.755 84 170 0
0.50535 -16.026173 1.715 84 170 0
0.611129 -15.818568 1.507 84 170 0
0.75496 -15.547298 1.038 84 170 0
0.711411 -15.628364 1.207 84 170 0
0.556634 -15.927725 1.547 84 170 0
0.515388 -15.999863 1.818 84 170 0
0.651484 -15.745976 1.282 84 170 0
0.706383 -15.642636 1.119 84 170 0
0.509453 -16.015917 1.754 84 170 0
0.655116 -15.738848 1.288 84 170 0
0.642438 -15.759324 1.437 84 170 0
0.494993 -16.035484 1.952 84 170 0
0.677378 -15.692953 1.303 84 170 0
0.510798 -16.01548 1.682 84 170 0
0.782216 -15.491602 0.998 84 170 0
0.498523 -16.041775 1.683 84 170 0
0.582108 -15.87112 1.679 84 170 0
0.558081 -15.913871 1.82 84 170 0
0.437621 -16.170113 1.571 84 170 0
0.758206 -15.532118 1.208 84 170 0
0.501786 -16.024357 1.934 84 170 0
0.743661 -15.562866 1.209 84 170 0
0.463935 -16.12067 1.468 84 170 0
0.631542 -15.780708 1.43 84 170 0
0.700986 -15.646621 1.249 84 170 0
0.553995 -15.921891 1.809 84 170 0
0.642858 -15.762905 1.328 84 170 0
0.543922 -15.952673 1.585 84 170 0
0.558819 -15.93445 1.313 84 170 0
0.600251 -15.837716 1.594 84 170 0
0.493109 -16.047993 1.775 84 170 0
0.427599 -16.194185 1.474 84 170 0
0.643363 -15.755306 1.446 84 170 0
0.445792 -16.154074 1.57 84 170 0
0.622009 -15.799419 1.472 84 170 0
0.497178 -16.04221 1.734 84 170 0
0.520853 -15.986935 1.898 84 170 0
0.620647 -15.802093 1.425 84 170 0
0.691855 -15.671148 1.118 84 170 0
0.704635 -15.637257 1.294 84 170 0
0.581688 -15.867538 1.77 84 170 0
0.508409 -16.035587 1.346 84 170 0
0.501298 -16.02972 1.786 84 170 0
0.630651 -15.780254 1.497 84 170 0
0.575315 -15.88225 1.713 84 170 0
0.798577 -15.45729 1.028 84 170 0
0.520246 -16.00795 1.415 84 170 0
0.719548 -15.616797 1.094 84 170 0
0.751379 -15.547719 1.156 84 170 0
0.544847 -15.948655 1.651 84 170 0
0.703273 -15.63993 1.31 84 170 0
0.526739 -15.977587 1.801 84 170 0
0.678337 -15.684463 1.456 84 170 0
0.571094 -15.908156 1.334 84 170 0
0.513051 -16.013262 1.621 84 170 0
0.645599 -15.755323 1.342 84 170 0
0.535313 -15.967366 1.675 84 170 0
0.625572 -15.801235 1.234 84 170 0
0.586211 -15.860866 1.741 84 170 0
0.718221 -15.614998 1.173 84 170 0
0.548865 -15.949579 1.431 84 170 0
0.60432 -15.831933 1.536 84 170 0
0.628852 -15.781583 1.524 84 170 0
0.699204 -15.645713 1.344 84 170 0
0.492973 -16.065882 1.378 84 170 0
0.527056 -15.994584 1.402 84 170 0
0.585303 -15.862647 1.709 84 170 0
0.586194 -15.863101 1.66 84 170 0
0.605245 -15.827915 1.58 84 170 0
0.448533 -16.146492 1.601 84 170 0
0.748184 -15.556191 1.108 84 170 0
0.764965 -15.52546 1.036 84 170 0
0.671425 -15.711244 1.154 84 170 0
0.487661 -16.058685 1.763 84 170 0
0.642387 -15.766032 1.233 84 170 0
0.601074 -15.847114 1.328 84 170 0
0.655973 -15.743773 1.15 84 170 0
0.768159 -15.516988 1.106 84 170 0
0.439453 -16.164312 1.627 84 170 0
0.653737 -15.743757 1.23 84 170 0
0.606119 -15.830605 1.458 84 170 0
0.431718 -16.181696 1.55 84 170 0
0.523424 -16.001713 1.395 84 170 0
0.594383 -15.844827 1.709 84 170 0
0.481237 -16.080103 1.569 84 170 0
0.529849 -15.980294 1.588 84 170 0
0.556078 -15.942031 1.278 84 170 0
0.586211 -15.860866 1.739 84 170 0
0.567025 -15.913939 1.409 84 170 0
0.704584 -15.643965 1.17 84 170 0
0.694613 -15.66133 1.225 84 170 0
0.636956 -15.774488 1.341 84 170 0
0.695992 -15.656422 1.263 84 170 0
0.498455 -16.050716 1.432 84 170 0
0.537935 -15.975435 1.317 84 170 0
0.791767 -15.470655 1.035 84 170 0
0.578476 -15.878248 1.672 84 170 0
0.701877 -15.647075 1.192 84 170 0
0.599729 -15.84755 1.379 84 170 0
0.617401 -15.817273 1.271 84 170 0
0.770429 -15.512532 1.092 84 170 0
0.752724 -15.547281 1.115 84 170 0
0.613786 -15.822165 1.328 84 170 0
0.712353 -15.622109 1.292 84 170 0
0.488081 -16.062267 1.688 84 170 0
0.51586 -15.996736 1.9 84 170 0
0.64422 -15.760232 1.327 84 170 0
0.509435 -16.018154 1.677 84 170 0
0.493143 -16.043522 1.888 84 170 0
0.48445 -16.069395 1.681 84 170 0
0.649248 -15.745959 1.414 84 170 0
0.603009 -15.827898 1.683 84 170 0
0.513573 -16.003426 1.826 84 170 0
0.527595 -15.982513 1.638 84 170 0
0.492116 -16.060955 1.5 84 170 0
0.513522 -16.010134 1.707 84 170 0
0.749563 -15.551283 1.185 84 170 0
0.739558 -15.573121 1.117 84 170 0
0.517239 -15.991826 1.931 84 170 0
0.517994 -16.010168 1.498 84 170 0
0.455377 -16.128654 1.71 84 170 0
0.506139 -16.040043 1.36 84 170 0
0.58515 -15.882771 1.257 84 170 0
0.483019 -16.081011 1.484 84 170 0
0.547957 -15.951362 1.415 84 170 0
0.504425 -16.03019 1.636 84 170 0
0.742282 -15.567776 1.162 84 170 0
0.794508 -15.463073 1.077 84 170 0
0.557003 -15.938013 1.284 84 170 0
0.513959 -16.011478 1.633 84 170 0
0.536272 -15.958876 1.794 84 170 0
0.642892 -15.758433 1.435 84 170 0
0.567042 -15.911703 1.413 84 170 0
0.480784 -16.080994 1.583 84 170 0
0.648794 -15.74685 1.405 84 170 0
0.485744 -16.075665 1.461 84 170 0
0.62971 -15.786509 1.386 84 170 0
0.776802 -15.497823 1.125 84 170 0
0.643329 -15.759778 1.375 84 170 0
0.501786 -16.024357 1.916 84 170 0
0.513068 -16.011024 1.704 84 170 0
0.498489 -16.046246 1.582 84 170 0
0.598469 -15.836807 1.716 84 170 0
0.517069 -16.014187 1.447 84 170 0
0.447137 -16.153637 1.472 84 170 0
0.461699 -16.120653 1.561 84 170 0
0.835804 -15.384228 0.957 84 170 0
0.649719 -15.742832 1.439 84 170 0
0.442143 -16.163439 1.479 84 170 0
0.538894 -15.966947 1.467 84 170 0
0.434896 -16.175459 1.588 84 170 0
0.582074 -15.875591 1.576 84 170 0
0.585167 -15.880535 1.291 84 170 0
0.635577 -15.779397 1.282 84 170 0
0.510361 -16.014135 1.741 84 170 0
0.567461 -15.915285 1.333 84 170 0
0.561106 -15.927759 1.345 84 170 0
0.56383 -15.922412 1.316 84 170 0
0.690998 -15.666224 1.265 84 170 0
0.629675 -15.790981 1.292 84 170 0
0.62601 -15.80258 1.204 84 170 0
0.61614 -15.806531 1.574 84 170 0
0.528402 -15.994146 1.357 84 170 0
0.481777 -16.068031 1.857 84 170 0
0.823092 -15.409176 1.004 84 170 0
0.469014 -16.099689 1.737 84 170 0
0.495345 -16.048012 1.684 84 170 0
0.785428 -15.480893 1.112 84 170 0
0.53987 -15.95622 1.702 84 170 0
0.547605 -15.938837 1.714 84 170 0
0.461665 -16.125124 1.469 84 170 0
0.468929 -16.110868 1.439 84 170 0
0.753632 -15.5455 1.096 84 170 0
0.624783 -15.787366 1.62 84 170 0
0.493529 -16.051575 1.646 84 170 0
0.495328 -16.050247 1.635 84 170 0
0.594718 -15.859588 1.341 84 170 0
0.613803 -15.81993 1.353 84 170 0
0.586983 -15.876971 1.32 84 170 0
0.46444 -16.113071 1.61 84 170 0
0.504357 -16.039135 1.453 84 170 0
0.705997 -15.634583 1.289 84 170 0
0.455377 -16.128654 1.696 84 170 0
0.493177 -16.039049 2.003 84 170 0
0.690073 -15.67024 1.212 84 170 0
0.612441 -15.822602 1.368 84 170 0
0.650156 -15.744177 1.393 84 170 0
0.592885 -15.865388 1.3 84 170 0
0.546124 -15.957162 1.362 84 170 0
0.453964 -16.138037 1.542 84 170 0
0.639209 -15.772269 1.262 84 170 0
0.714152 -15.620781 1.214 84 170 0
0.635594 -15.777162 1.31 84 170 0
0.616022 -15.822183 1.216 84 170 0
0.495294 -16.054718 1.517 84 170 0
0.443051 -16.161657 1.476 84 170 0
0.725048 -15.599397 1.23 84 170 0
0.556214 -15.924144 1.653 84 170 0
0.577115 -15.88092 1.664 84 170 0
0.597998 -15.839935 1.644 84 170 0
0.531749 -15.96555 1.848 84 170 0
0.532135 -15.973603 1.63 84 170 0
0.762746 -15.523208 1.181 84 170 0
0.824908 -15.405612 0.983 84 170 0
0.779526 -15.492476 1.14 84 170 0
0.769958 -15.51566 1.045 84 170 0
0.446229 -16.15542 1.486 84 170 0
0.700112 -15.64393 1.363 84 170 0
0.708687 -15.633709 1.192 84 170 0
0.799031 -15.4564 1.028 84 170 0
0.624262 -15.7972 1.406 84 170 0
0.513891 -16.020424 1.449 84 170 0
0.691418 -15.669804 1.197 84 170 0
0.495294 -16.054718 1.537 84 170 0
0.495918 -16.031467 2.009 84 170 0
0.548865 -15.949579 1.407 84 170 0
0.642943 -15.751725 1.559 84 170 0
0.477623 -16.084995 1.658 84 170 0
0.819915 -15.415413 1.0 84 170 0
0.502257 -16.021229 1.941 84 170 0
0.519962 -15.986481 1.94 84 170 0
0.496254 -16.046228 1.641 84 170 0
0.473469 -16.101959 1.465 84 170 0
0.616039 -15.819946 1.247 84 170 0
0.45267 -16.131765 1.717 84 170 0
0.452216 -16.132656 1.727 84 170 0
0.5793 -15.887646 1.421 84 170 0
0.627524 -15.779783 1.626 84 170 0
0.539314 -15.970527 1.4 84 170 0
0.649265 -15.743723 1.458 84 170 0
0.794037 -15.4662 1.064 84 170 0
0.592885 -15.865388 1.268 84 170 0
0.550749 -15.937072 1.608 84 170 0
0.553388 -15.942906 1.365 84 170 0
0.530268 -15.983875 1.522 84 170 0
0.78948 -15.477346 1.02 84 170 0
0.587 -15.874735 1.372 84 170 0
0.61071 -15.814987 1.623 84 170 0
0.528419 -15.991911 1.402 84 170 0
0.501701 -16.035538 1.665 84 170 0
0.464877 -16.114416 1.547 84 170 0
0.577449 -15.895682 1.296 84 170 0
0.622849 -15.806581 1.22 84 170 0
0.56837 -15.913502 1.328 84 170 0
0.533026 -15.974057 1.582 84 170 0
0.59112 -15.862244 1.475 84 170 0
0.623319 -15.803455 1.297 84 170 0
0.661103 -15.716085 1.514 84 170 0
0.468475 -16.111759 1.442 84 170 0
0.554279 -15.94336 1.3 84 170 0
0.556197 -15.926379 1.613 84 170 0
0.518868 -16.012857 1.392 84 170 0
0.498574 -16.035065 1.806 84 170 0
0.524786 -15.999039 1.407 84 170 0
0.526182 -15.991894 1.533 84 170 0
0.614223 -15.82351 1.23 84 170 0
0.499499 -16.031048 1.889 84 170 0
0.715514 -15.618108 1.222 84 170 0
0.514883 -16.007462 1.693 84 170 0
0.469366 -16.112213 1.416 84 170 0
0.631928 -15.788761 1.21 84 170 0
0.59608 -15.856915 1.355 84 170 0
0.708216 -15.636836 1.15 84 170 0
0.508931 -16.025753 1.533 84 170 0
0.709175 -15.628346 1.316 84 170 0
0.587437 -15.87608 1.29 84 170 0
0.557139 -15.920126 1.712 84 170 0
0.531295 -15.96644 1.889 84 170 0
0.68059 -15.682243 1.378 84 170 0
0.547605 -15.938837 1.726 84 170 0
0.60928 -15.826604 1.429 84 170 0
0.475824 -16.086323 1.726 84 170 0
0.540375 -15.948621 1.85 84 170 0
0.683751 -15.678244 1.35 84 170 0
0.601125 -15.840405 1.472 84 170 0
0.554313 -15.938888 1.422 84 170 0
0.635628 -15.77269 1.403 84 170 0
0.696043 -15.649714 1.403 84 170 0
0.725973 -15.595379 1.258 84 170 0
0.769505 -15.51655 1.056 84 170 0
0.522516 -16.003494 1.398 84 170 0
0.61609 -15.813239 1.409 84 170 0
0.499987 -16.025684 1.943 84 170 0
0.708704 -15.631474 1.254 84 170 0
0.681867 -15.69075 1.123 84 170 0
0.549926 -15.927674 1.862 84 170 0
0.759551 -15.531681 1.144 84 170 0
0.55021 -15.949143 1.345 84 170 0
0.609785 -15.819005 1.569 84 170 0
0.627019 -15.787382 1.48 84 170 0
0.811743 -15.431451 1.013 84 170 0
0.611147 -15.816331 1.574 84 170 0
0.623404 -15.792274 1.549 84 170 0
0.648726 -15.755795 1.176 84 170 0
0.476664 -16.093485 1.486 84 170 0
0.524838 -15.992331 1.55 84 170 0
0.618745 -15.816837 1.21 84 170 0
0.791313 -15.471546 1.031 84 170 0
0.561089 -15.929995 1.274 84 170 0
0.55038 -15.926783 1.871 84 170 0
0.836695 -15.384682 0.943 84 170 0
0.567496 -15.910812 1.423 84 170 0
0.670602 -15.701846 1.427 84 170 0
0.750471 -15.5495 1.194 84 170 0
0.672351 -15.707226 1.229 84 170 0
0.670148 -15.702737 1.407 84 170 0
0.487542 -16.074337 1.413 84 170 0
0.695033 -15.664911 1.132 84 170 0
0.44712 -16.155874 1.45 84 170 0
0.694613 -15.66133 1.201 84 170 0
0.542509 -15.962053 1.428 84 170 0
0.702819 -15.640821 1.302 84 170 0
0.548462 -15.943763 1.561 84 170 0
0.825816 -15.403831 0.997 84 170 0
0.579702 -15.893463 1.27 84 170 0
0.45494 -16.12731 1.715 84 170 0
0.448028 -16.154091 1.449 84 170 0
0.628415 -15.780237 1.566 84 170 0
0.649668 -15.74954 1.307 84 170 0
0.49753 -16.054735 1.388 84 170 0
0.456268 -16.129108 1.637 84 170 0
0.641076 -15.761997 1.4 84 170 0
0.623404 -15.792274 1.544 84 170 0
0.579753 -15.886755 1.433 84 170 0
0.655587 -15.735721 1.348 84 170 0
0.541669 -15.954892 1.66 84 170 0
0.522097 -15.999913 1.54 84 170 0
0.730966 -15.585578 1.241 84 170 0
0.598367 -15.850224 1.406 84 170 0
0.709175 -15.628346 1.303 84 170 0
0.483962 -16.074757 1.582 84 170 0
0.499028 -16.034174 1.825 84 170 0
0.609229 -15.833312 1.245 84 170 0
0.60163 -15.832807 1.623 84 170 0
0.562956 -15.919723 1.421 84 170 0
0.456705 -16.130453 1.563 84 170 0
0.620613 -15.806564 1.321 84 170 0
0.795836 -15.464872 0.985 84 170 0
0.646541 -15.749069 1.479 84 170 0
0.512613 -16.011917 1.703 84 170 0
0.583453 -15.870684 1.628 84 170 0
0.548093 -15.933474 1.817 84 170 0
0.522618 -15.990078 1.733 84 170 0
0.627473 -15.786491 1.496 84 170 0
0.736817 -15.580704 1.073 84 170 0
0.724542 -15.606996 1.068 84 170 0
0.568489 -15.89785 1.708 84 170 0
0.469014 -16.099689 1.722 84 170 0
0.443085 -16.157185 1.618 84 170 0
0.522182 -15.988733 1.781 84 170 0
0.537952 -15.9732 1.368 84 170 0
0.487088 -16.07523 1.407 84 170 0
0.578493 -15.876013 1.754 84 170 0
0.701843 -15.651546 1.119 84 170 0
0.45124 -16.143381 1.537 84 170 0
0.494102 -16.03503 2.022 84 170 0
0.796761 -15.460854 1.041 84 170 0
0.605143 -15.841331 1.29 84 170 0
0.558416 -15.928633 1.456 84 170 0
0.665121 -15.71701 1.327 84 170 0
0.577097 -15.883158 1.62 84 170 0
0.56795 -15.909922 1.446 84 170 0
0.46259 -16.121107 1.497 84 170 0
0.510361 -16.014135 1.734 84 170 0
0.595291 -15.843044 1.702 84 170 0
0.521291 -15.988279 1.811 84 170 0
0.609297 -15.824368 1.479 84 170 0
0.566655 -15.90365 1.651 84 170 0
0.504981 -16.015884 1.964 84 170 0
0.745948 -15.556175 1.253 84 170 0
0.557071 -15.92907 1.494 84 170 0
0.532152 -15.971367 1.723 84 170 0
0.470779 -16.102833 1.54 84 170 0
0.50451 -16.019011 1.888 84 170 0
0.671056 -15.700955 1.404 84 170 0
0.491157 -16.069447 1.371 84 170 0
0.774515 -15.504514 1.068 84 170 0
0.495396 -16.041302 1.821 84 170 0
0.613451 -15.807405 1.645 84 170 0
0.425312 -16.200878 1.45 84 170 0
0.498438 -16.052954 1.406 84 170 0
0.453022 -16.144289 1.436 84 170 0
0.702819 -15.640821 1.291 84 170 0
0.587454 -15.873844 1.349 84 170 0
0.55702 -15.935778 1.364 84 170 0
0.661018 -15.727265 1.29 84 170 0
0.648845 -15.740142 1.541 84 170 0
0.617065 -15.802513 1.635 84 170 0
0.506797 -16.01232 1.98 84 170 0
0.656546 -15.727231 1.506 84 170 0
0.679614 -15.692969 1.175 84 170 0
0.698228 -15.656439 1.158 84 170 0
0.455377 -16.128654 1.675 84 170 0
0.582023 -15.8823 1.419 84 170 0
0.513573 -16.003426 1.823 84 170 0
0.453527 -16.13669 1.57 84 170 0
0.56758 -15.899632 1.704 84 170 0
0.621538 -15.802547 1.374 84 170 0
0.508477 -16.026644 1.56 84 170 0
0.447642 -16.146038 1.64 84 170 0
0.652896 -15.736595 1.427 84 170 0
0.619285 -15.804766 1.429 84 170 0
0.77359 -15.508532 1.031 84 170 0
0.509487 -16.011446 1.823 84 170 0
0.519827 -16.004368 1.524 84 170 0
0.713698 -15.621673 1.222 84 170 0
0.625691 -15.785583 1.587 84 170 0
0.590246 -15.859554 1.538 84 170 0
0.547571 -15.943309 1.649 84 170 0
0.472544 -16.105976 1.397 84 170 0
0.688728 -15.670677 1.257 84 170 0
0.500441 -16.024794 1.965 84 170 0
0.620176 -15.80522 1.413 84 170 0
0.629658 -15.793217 1.221 84 170 0
0.695033 -15.664911 1.098 84 170 0
0.638823 -15.764215 1.459 84 170 0
0.64649 -15.755777 1.286 84 170 0
0.568892 -15.903667 1.563 84 170 0
0.525848 -15.977133 1.85 84 170 0
0.665994 -15.719701 1.218 84 170 0
0.577921 -15.892555 1.359 84 170 0
0.624228 -15.801672 1.267 84 170 0
0.691401 -15.672039 1.103 84 170 0
0.486163 -16.079247 1.374 84 170 0
0.549319 -15.948689 1.412 84 170 0
0.670569 -15.706318 1.335 84 170 0
0.642926 -15.753962 1.491 84 170 0
0.810381 -15.434124 1.024 84 170 0
0.6837 -15.684951 1.175 84 170 0
0.686895 -15.676477 1.253 84 170 0
0.601074 -15.847114 1.349 84 170 0
0.655553 -15.740193 1.242 84 170 0
0.548513 -15.937055 1.721 84 170 0
0.56114 -15.923286 1.447 84 170 0
0.575634 -15.899246 1.348 84 170 0
0.492201 -16.049774 1.787 84 170 0
0.663707 -15.726392 1.157 84 170 0
0.580258 -15.879156 1.558 84 170 0
0.569397 -15.896068 1.689 84 170 0
0.706451 -15.633693 1.276 84 170 0
0.705021 -15.645309 1.09 84 170 0
0.485896 -16.055542 1.915 84 170 0
0.611045 -15.829747 1.252 84 170 0
0.609717 -15.827949 1.378 84 170 0
0.466222 -16.113979 1.513 84 170 0
0.464054 -16.105019 1.802 84 170 0
0.47041 -16.092545 1.823 84 170 0
0.584696 -15.883662 1.254 84 170 0
0.762275 -15.526335 1.174 84 170 0
0.690964 -15.670694 1.149 84 170 0
0.782216 -15.491602 0.993 84 170 0
0.48408 -16.059105 1.922 84 170 0
0.553944 -15.928598 1.643 84 170 0
0.781308 -15.493384 1.035 84 170 0
0.70144 -15.645729 1.265 84 170 0
0.661086 -15.718321 1.475 84 170 0
0.754052 -15.549081 1.037 84 170 0
0.533883 -15.978983 1.422 84 170 0
0.532521 -15.981656 1.452 84 170 0
0.495294 -16.054718 1.53 84 170 0
0.522618 -15.990078 1.735 84 170 0
0.440798 -16.163876 1.537 84 170 0
0.50081 -16.035082 1.719 84 170 0
0.614325 -15.810094 1.558 84 170 0
0.682809 -15.684497 1.236 84 170 0
0.599729 -15.84755 1.388 84 170 0
0.52662 -15.993238 1.446 84 170 0
0.45536 -16.130892 1.617 84 170 0
0.545721 -15.951344 1.516 84 170 0
0.594281 -15.858243 1.378 84 170 0
0.50308 -16.030628 1.696 84 170 0
0.578493 -15.876013 1.708 84 170 0
0.506359 -16.010975 1.984 84 170 0
0.484836 -16.077448 1.493 84 170 0
0.814921 -15.425214 1.01 84 170 0
0.575248 -15.891193 1.524 84 170 0
0.806749 -15.441252 1.0 84 170 0
0.809002 -15.439033 0.952 84 170 0
0.774045 -15.50764 1.018 84 170 0
0.475857 -16.081852 1.81 84 170 0
0.579317 -15.88541 1.482 84 170 0
0.731403 -15.586923 1.216 84 170 0
0.521274 -15.990515 1.789 84 170 0
0.810817 -15.435469 0.957 84 170 0
0.695992 -15.656422 1.246 84 170 0
0.546612 -15.951798 1.492 84 170 0
0.75681 -15.539263 1.091 84 170 0
0.556583 -15.934432 1.398 84 170 0
0.576643 -15.884048 1.65 84 170 0
0.629255 -15.787399 1.367 84 170 0
0.591171 -15.855536 1.586 84 170 0
0.597073 -15.843952 1.608 84 170 0
0.567496 -15.910812 1.462 84 170 0
0.584866 -15.861301 1.754 84 170 0
0.601528 -15.846223 1.338 84 170 0
0.56568 -15.914377 1.435 84 170 0
0.51115 -16.028006 1.364 84 170 0
0.644708 -15.754869 1.432 84 170 0
0.458033 -16.132254 1.469 84 170 0
0.559897 -15.910308 1.806 84 170 0
0.555726 -15.929506 1.57 84 170 0
0.555272 -15.930398 1.561 84 170 0
0.664667 -15.717901 1.327 84 170 0
0.719565 -15.614562 1.1 84 170 0
0.591137 -15.860008 1.478 84 170 0
0.663742 -15.721919 1.287 84 170 0
0.653351 -15.735704 1.462 84 170 0
0.492519 -16.066772 1.372 84 170 0
0.485862 -16.060013 1.824 84 170 0
0.795416 -15.461291 1.09 84 170 0
0.725031 -15.601633 1.155 84 170 0
0.555323 -15.92369 1.721 84 170 0
0.498103 -16.038193 1.755 84 170 0
0.48803 -16.068974 1.536 84 170 0
0.646104 -15.747725 1.536 84 170 0
0.644237 -15.757997 1.339 84 170 0
0.559795 -15.923723 1.483 84 170 0
0.551237 -15.931708 1.749 84 170 0
0.702785 -15.645292 1.203 84 170 0
0.434408 -16.180822 1.444 84 170 0
0.438494 -16.172802 1.464 84 170 0
0.478564 -16.078741 1.753 84 170 0
0.637932 -15.763762 1.522 84 170 0
0.439453 -16.164312 1.62 84 170 0
0.515236 -16.019985 1.399 84 170 0
0.501298 -16.02972 1.804 84 170 0
0.683331 -15.674662 1.437 84 170 0
0.629221 -15.791871 1.287 84 170 0
0.535699 -15.975419 1.416 84 170 0
0.465399 -16.10458 1.777 84 170 0
0.699153 -15.65242 1.229 84 170 0
0.548059 -15.937945 1.744 84 170 0
0.526704 -15.982059 1.702 84 170 0
0.612895 -15.821712 1.376 84 170 0
0.702751 -15.649764 1.114 84 170 0
0.491815 -16.041721 1.963 84 170 0
