ply
format ascii 1.0
element vertex 1404
property double x
property double y
property double z
property uchar red
property uchar green
property uchar blue
element face 0
property list uchar int vertex_indices
end_header
0.184556 -17.457544 0.261 0 255 0
0.134417 -17.522907 0.162 0 255 0
0.256723 -17.318111 0.056 0 255 0
0.255764 -17.326601 0.107 0 255 0
0.197369 -17.41918 0.112 0 255 0
0.341314 -17.191742 0.093 0 255 0
0.142284 -17.547117 0.432 0 255 0
0.265162 -17.325779 0.215 0 255 0
0.182354 -17.453056 0.193 0 255 0
0.192189 -17.453577 0.309 0 255 0
0.151465 -17.515881 0.31 0 255 0
0.134468 -17.516197 0.105 0 255 0
0.242429 -17.3748 0.31 0 255 0
0.194259 -17.416473 0.063 0 255 0
0.278799 -17.296812 0.155 0 255 0
0.24307 -17.349314 0.125 0 255 0
0.193704 -17.43078 0.157 0 255 0
0.171156 -17.455208 0.083 0 255 0
0.309216 -17.237114 0.066 0 255 0
0.124413 -17.544744 0.202 0 255 0
0.241237 -17.355114 0.154 0 255 0
0.158156 -17.518167 0.398 0 255 0
0.267013 -17.317741 0.177 0 255 0
0.138231 -17.550663 0.408 0 255 0
0.131421 -17.56403 0.424 0 255 0
0.245272 -17.353802 0.188 0 255 0
0.182506 -17.432932 0.055 0 255 0
0.239722 -17.377911 0.303 0 255 0
0.213208 -17.394705 0.118 0 255 0
0.263749 -17.335159 0.263 0 255 0
0.181191 -17.488379 0.438 0 255 0
0.325407 -17.225163 0.162 0 255 0
0.281103 -17.287886 0.11 0 255 0
0.123033 -17.549654 0.221 0 255 0
0.195014 -17.434816 0.209 0 255 0
0.193045 -17.458504 0.361 0 255 0
0.156425 -17.510551 0.319 0 255 0
0.190742 -17.467432 0.395 0 255 0
0.255815 -17.319893 0.058 0 255 0
0.231753 -17.367117 0.126 0 255 0
0.251424 -17.36816 0.362 0 255 0
0.274361 -17.292305 0.062 0 255 0
0.151635 -17.493521 0.134 0 255 0
0.207256 -17.412994 0.187 0 255 0
0.273754 -17.31332 0.216 0 255 0
0.105969 -17.558916 0.103 0 255 0
0.234495 -17.359535 0.11 0 255 0
0.176248 -17.49147 0.407 0 255 0
0.178501 -17.489252 0.417 0 255 0
0.334555 -17.198399 0.065 0 255 0
0.234444 -17.366241 0.158 0 255 0
0.312259 -17.248766 0.185 0 255 0
0.235437 -17.353281 0.073 0 255 0
0.271467 -17.320011 0.236 0 255 0
0.220587 -17.424276 0.429 0 255 0
0.137545 -17.523378 0.204 0 255 0
0.240596 -17.3806 0.33 0 255 0
0.132398 -17.553303 0.364 0 255 0
0.143175 -17.547571 0.441 0 255 0
0.190674 -17.476376 0.461 0 255 0
0.181848 -17.460655 0.241 0 255 0
0.167321 -17.489166 0.286 0 255 0
0.17055 -17.476223 0.234 0 255 0
0.213844 -17.428698 0.378 0 255 0
0.286886 -17.291954 0.213 0 255 0
0.134599 -17.557793 0.416 0 255 0
0.191263 -17.457596 0.33 0 255 0
0.166651 -17.459644 0.067 0 255 0
0.200496 -17.419653 0.162 0 255 0
0.172684 -17.489655 0.361 0 255 0
0.148372 -17.510937 0.232 0 255 0
0.132466 -17.544359 0.301 0 255 0
0.15592 -17.51815 0.377 0 255 0
0.275133 -17.308413 0.202 0 255 0
0.177343 -17.465094 0.22 0 255 0
0.29499 -17.284859 0.251 0 255 0
0.202966 -17.447845 0.393 0 255 0
0.222322 -17.372412 0.058 0 255 0
0.308746 -17.240242 0.083 0 255 0
0.116677 -17.562128 0.243 0 255 0
0.248886 -17.348909 0.192 0 255 0
0.252536 -17.339546 0.171 0 255 0
0.166986 -17.474407 0.179 0 255 0
0.319926 -17.240326 0.211 0 255 0
0.166209 -17.517782 0.493 0 255 0
0.143311 -17.529682 0.31 0 255 0
0.162446 -17.483316 0.192 0 255 0
0.312275 -17.246529 0.172 0 255 0
0.117637 -17.553638 0.19 0 255 0
0.223565 -17.385391 0.173 0 255 0
0.37121 -17.141878 0.08 0 255 0
0.135121 -17.547956 0.353 0 255 0
0.202058 -17.449629 0.405 0 255 0
0.184607 -17.450838 0.2 0 255 0
0.200547 -17.412943 0.106 0 255 0
0.329998 -17.209545 0.091 0 255 0
0.142 -17.525648 0.268 0 255 0
0.141257 -17.56455 0.548 0 255 0
0.12675 -17.531345 0.131 0 255 0
0.152811 -17.515444 0.319 0 255 0
0.205524 -17.405378 0.109 0 255 0
0.226289 -17.380045 0.162 0 255 0
0.146471 -17.525681 0.322 0 255 0
0.305903 -17.26124 0.206 0 255 0
0.310879 -17.253674 0.209 0 255 0
0.123572 -17.537582 0.142 0 255 0
0.218588 -17.392956 0.163 0 255 0
0.170567 -17.473986 0.216 0 255 0
0.265316 -17.305655 0.06 0 255 0
0.143022 -17.567696 0.587 0 255 0
0.200093 -17.413836 0.112 0 255 0
0.133777 -17.548393 0.347 0 255 0
0.141409 -17.544426 0.4 0 255 0
0.228911 -17.388115 0.249 0 255 0
0.277738 -17.318718 0.297 0 255 0
0.277068 -17.289196 0.071 0 255 0
0.251292 -17.326567 0.051 0 255 0
0.220302 -17.402807 0.268 0 255 0
0.136772 -17.507271 0.072 0 255 0
0.1687 -17.484259 0.269 0 255 0
0.159637 -17.499844 0.276 0 255 0
0.315941 -17.23493 0.123 0 255 0
0.17946 -17.480762 0.372 0 255 0
0.155267 -17.486393 0.131 0 255 0
0.23794 -17.377003 0.269 0 255 0
0.268862 -17.309706 0.138 0 255 0
0.15071 -17.49754 0.155 0 255 0
0.128112 -17.528673 0.123 0 255 0
0.347165 -17.186867 0.129 0 255 0
0.141461 -17.53772 0.348 0 255 0
0.149832 -17.554329 0.571 0 255 0
0.221596 -17.409079 0.328 0 255 0
0.284179 -17.295063 0.2 0 255 0
0.175811 -17.490126 0.401 0 255 0
0.241622 -17.363167 0.211 0 255 0
0.337228 -17.19976 0.113 0 255 0
0.143259 -17.53639 0.367 0 255 0
0.128465 -17.541199 0.23 0 255 0
0.210956 -17.396923 0.106 0 255 0
0.171021 -17.473095 0.209 0 255 0
0.200747 -17.445593 0.349 0 255 0
0.188727 -17.438345 0.158 0 255 0
0.200395 -17.433069 0.258 0 255 0
0.283238 -17.301317 0.239 0 255 0
0.325475 -17.216219 0.099 0 255 0
0.178047 -17.490143 0.419 0 255 0
0.14797 -17.505121 0.18 0 255 0
0.146574 -17.512266 0.223 0 255 0
0.251628 -17.341328 0.17 0 255 0
0.33901 -17.200668 0.131 0 255 0
0.155733 -17.542747 0.558 0 255 0
0.221261 -17.394318 0.213 0 255 0
0.16088 -17.512821 0.388 0 255 0
0.139088 -17.55559 0.459 0 255 0
0.17282 -17.471767 0.223 0 255 0
0.161788 -17.51104 0.382 0 255 0
0.199839 -17.447374 0.356 0 255 0
0.213055 -17.414827 0.261 0 255 0
0.137727 -17.558262 0.457 0 255 0
0.21272 -17.400066 0.152 0 255 0
0.200564 -17.410707 0.089 0 255 0
0.193937 -17.458958 0.374 0 255 0
0.191281 -17.45536 0.316 0 255 0
0.243575 -17.341715 0.074 0 255 0
0.159586 -17.50655 0.323 0 255 0
0.162412 -17.487789 0.226 0 255 0
0.257546 -17.327509 0.141 0 255 0
0.178369 -17.447659 0.106 0 255 0
0.14309 -17.55875 0.526 0 255 0
0.228389 -17.397949 0.319 0 255 0
0.247978 -17.350693 0.192 0 255 0
0.14802 -17.498413 0.139 0 255 0
0.232407 -17.398874 0.38 0 255 0
0.229433 -17.378279 0.19 0 255 0
0.14494 -17.550714 0.487 0 255 0
0.129776 -17.545233 0.27 0 255 0
0.275939 -17.320045 0.292 0 255 0
0.176299 -17.484762 0.356 0 255 0
0.167877 -17.474861 0.186 0 255 0
0.251037 -17.360107 0.301 0 255 0
0.11905 -17.544256 0.139 0 255 0
0.156226 -17.477903 0.071 0 255 0
0.283407 -17.278957 0.073 0 255 0
0.163235 -17.497187 0.301 0 255 0
0.288702 -17.288389 0.21 0 255 0
0.180101 -17.455275 0.187 0 255 0
0.153667 -17.52037 0.365 0 255 0
0.25119 -17.339983 0.156 0 255 0
0.320481 -17.226019 0.108 0 255 0
0.159922 -17.521311 0.436 0 255 0
0.214231 -17.43675 0.444 0 255 0
0.270962 -17.32761 0.285 0 255 0
0.21272 -17.400066 0.159 0 255 0
0.150121 -17.516317 0.287 0 255 0
0.156272 -17.530676 0.465 0 255 0
0.180924 -17.464674 0.27 0 255 0
0.294184 -17.273226 0.163 0 255 0
0.155029 -17.517696 0.36 0 255 0
0.146505 -17.52121 0.282 0 255 0
0.234966 -17.356407 0.087 0 255 0
0.286551 -17.277193 0.093 0 255 0
0.203759 -17.402235 0.063 0 255 0
0.128834 -17.551487 0.307 0 255 0
0.353992 -17.171265 0.093 0 255 0
0.117688 -17.54693 0.14 0 255 0
0.339027 -17.198431 0.115 0 255 0
0.289525 -17.297789 0.279 0 255 0
0.210956 -17.396923 0.104 0 255 0
0.189817 -17.471449 0.414 0 255 0
0.145547 -17.529699 0.342 0 255 0
0.247893 -17.361872 0.285 0 255 0
0.247156 -17.341293 0.123 0 255 0
0.203993 -17.430412 0.282 0 255 0
0.215982 -17.38265 0.056 0 255 0
0.122914 -17.565306 0.339 0 255 0
0.327644 -17.22518 0.181 0 255 0
0.17181 -17.486965 0.326 0 255 0
0.116275 -17.556311 0.191 0 255 0
0.254368 -17.333746 0.149 0 255 0
0.315487 -17.235821 0.122 0 255 0
0.172014 -17.460133 0.133 0 255 0
0.149412 -17.550749 0.545 0 255 0
0.186219 -17.474104 0.398 0 255 0
0.142301 -17.54488 0.418 0 255 0
0.311486 -17.23266 0.052 0 255 0
0.275621 -17.303049 0.168 0 255 0
0.19249 -17.472811 0.46 0 255 0
0.266036 -17.328468 0.245 0 255 0
0.147482 -17.510483 0.217 0 255 0
0.154894 -17.535583 0.489 0 255 0
0.190844 -17.454016 0.301 0 255 0
0.315907 -17.239401 0.159 0 255 0
0.184352 -17.484377 0.455 0 255 0
0.301516 -17.250025 0.071 0 255 0
0.25119 -17.339983 0.154 0 255 0
0.122546 -17.555017 0.266 0 255 0
0.23466 -17.396656 0.379 0 255 0
0.131189 -17.535851 0.215 0 255 0
0.23029 -17.383205 0.232 0 255 0
0.236595 -17.377439 0.256 0 255 0
0.172583 -17.503071 0.454 0 255 0
0.216671 -17.409935 0.28 0 255 0
0.286801 -17.303133 0.286 0 255 0
0.175158 -17.458368 0.15 0 255 0
0.199016 -17.437977 0.271 0 255 0
0.315067 -17.232239 0.089 0 255 0
0.14474 -17.518066 0.245 0 255 0
0.17694 -17.459276 0.186 0 255 0
0.159807 -17.477482 0.113 0 255 0
0.149531 -17.535097 0.42 0 255 0
0.177428 -17.453913 0.149 0 255 0
0.148372 -17.510937 0.235 0 255 0
0.251509 -17.356979 0.278 0 255 0
0.214502 -17.400974 0.181 0 255 0
0.156187 -17.541855 0.553 0 255 0
0.145292 -17.56324 0.585 0 255 0
0.258403 -17.332436 0.18 0 255 0
0.172298 -17.481602 0.289 0 255 0
0.167457 -17.471279 0.154 0 255 0
0.283373 -17.28343 0.102 0 255 0
0.204935 -17.424158 0.238 0 255 0
0.123789 -17.567997 0.364 0 255 0
0.180368 -17.478979 0.369 0 255 0
0.272427 -17.311522 0.187 0 255 0
0.155432 -17.523514 0.408 0 255 0
0.260185 -17.333344 0.213 0 255 0
0.163388 -17.477062 0.158 0 255 0
0.289644 -17.282135 0.175 0 255 0
0.154274 -17.499355 0.22 0 255 0
0.188289 -17.437 0.147 0 255 0
0.280683 -17.284304 0.087 0 255 0
0.146289 -17.490797 0.063 0 255 0
0.114595 -17.541986 0.076 0 255 0
0.10686 -17.55937 0.115 0 255 0
0.2619 -17.343195 0.3 0 255 0
0.118999 -17.550964 0.195 0 255 0
0.183835 -17.434731 0.082 0 255 0
0.159972 -17.514603 0.392 0 255 0
0.330453 -17.208652 0.1 0 255 0
0.182825 -17.44993 0.183 0 255 0
0.160041 -17.505659 0.332 0 255 0
0.297765 -17.272806 0.201 0 255 0
0.214604 -17.38756 0.085 0 255 0
0.118176 -17.541567 0.105 0 255 0
0.368031 -17.148115 0.083 0 255 0
0.276882 -17.313791 0.255 0 255 0
0.152692 -17.531096 0.435 0 255 0
0.282295 -17.307571 0.271 0 255 0
0.280496 -17.308899 0.268 0 255 0
0.120242 -17.563944 0.299 0 255 0
0.249693 -17.360544 0.289 0 255 0
0.238093 -17.356878 0.125 0 255 0
0.146403 -17.534626 0.39 0 255 0
0.137192 -17.510853 0.105 0 255 0
0.208431 -17.434917 0.365 0 255 0
0.13524 -17.532305 0.238 0 255 0
0.113216 -17.546896 0.098 0 255 0
0.131677 -17.530489 0.185 0 255 0
0.144389 -17.505541 0.148 0 255 0
0.219326 -17.413534 0.329 0 255 0
0.335849 -17.204668 0.135 0 255 0
0.133255 -17.558229 0.405 0 255 0
0.129237 -17.557304 0.361 0 255 0
0.137239 -17.563625 0.499 0 255 0
0.223565 -17.385391 0.175 0 255 0
0.17307 -17.497707 0.414 0 255 0
0.242582 -17.354675 0.161 0 255 0
0.334572 -17.196161 0.058 0 255 0
0.20776 -17.405396 0.133 0 255 0
0.294519 -17.287987 0.265 0 255 0
0.148504 -17.55253 0.543 0 255 0
0.142908 -17.523865 0.26 0 255 0
0.348594 -17.175249 0.055 0 255 0
0.136988 -17.537685 0.298 0 255 0
0.211291 -17.411684 0.222 0 255 0
0.18363 -17.461563 0.272 0 255 0
0.214923 -17.404556 0.213 0 255 0
0.160444 -17.511477 0.372 0 255 0
0.311771 -17.254129 0.217 0 255 0
0.280229 -17.285194 0.087 0 255 0
0.116695 -17.559893 0.229 0 255 0
0.154542 -17.52306 0.401 0 255 0
0.134451 -17.518435 0.128 0 255 0
0.143056 -17.563223 0.564 0 255 0
0.161606 -17.476154 0.12 0 255 0
0.29953 -17.275949 0.236 0 255 0
0.182637 -17.474525 0.359 0 255 0
0.223633 -17.376446 0.102 0 255 0
0.318682 -17.227346 0.106 0 255 0
0.224473 -17.383608 0.173 0 255 0
0.256252 -17.321238 0.074 0 255 0
0.250584 -17.360998 0.301 0 255 0
0.160511 -17.502533 0.308 0 255 0
0.257865 -17.344505 0.264 0 255 0
0.196275 -17.445559 0.299 0 255 0
0.142016 -17.523411 0.245 0 255 0
0.19249 -17.472811 0.462 0 255 0
0.205121 -17.399561 0.066 0 255 0
0.209021 -17.41614 0.233 0 255 0
0.204832 -17.437574 0.34 0 255 0
0.205439 -17.416559 0.194 0 255 0
0.24665 -17.348892 0.164 0 255 0
0.141562 -17.524303 0.258 0 255 0
0.169222 -17.474422 0.2 0 255 0
0.251055 -17.357872 0.281 0 255 0
0.319959 -17.235853 0.173 0 255 0
0.284315 -17.277176 0.077 0 255 0
0.256049 -17.34807 0.277 0 255 0
0.136284 -17.512634 0.106 0 255 0
0.268425 -17.308361 0.117 0 255 0
0.352646 -17.171701 0.074 0 255 0
0.254368 -17.333746 0.15 0 255 0
0.129758 -17.547468 0.282 0 255 0
0.181598 -17.434713 0.052 0 255 0
0.314948 -17.247892 0.204 0 255 0
0.138618 -17.558716 0.477 0 255 0
0.327325 -17.208181 0.056 0 255 0
0.202562 -17.44203 0.354 0 255 0
0.226658 -17.390333 0.25 0 255 0
0.342676 -17.189068 0.088 0 255 0
0.245322 -17.347094 0.133 0 255 0
0.161169 -17.47481 0.115 0 255 0
0.133862 -17.537214 0.261 0 255 0
0.341264 -17.198448 0.149 0 255 0
0.255747 -17.328838 0.129 0 255 0
0.111314 -17.56164 0.185 0 255 0
0.243018 -17.356022 0.185 0 255 0
0.159352 -17.478374 0.118 0 255 0
0.270962 -17.32761 0.289 0 255 0
0.153315 -17.507845 0.264 0 255 0
0.301884 -17.260313 0.148 0 255 0
0.172298 -17.481602 0.291 0 255 0
0.205104 -17.401798 0.079 0 255 0
0.136988 -17.537685 0.294 0 255 0
0.152157 -17.483685 0.075 0 255 0
0.170096 -17.477114 0.229 0 255 0
0.15962 -17.502079 0.3 0 255 0
0.229667 -17.406456 0.391 0 255 0
0.121824 -17.532204 0.077 0 255 0
0.200191 -17.4599 0.452 0 255 0
0.196376 -17.432142 0.203 0 255 0
0.147448 -17.514956 0.258 0 255 0
0.157652 -17.525766 0.445 0 255 0
0.324618 -17.211292 0.054 0 255 0
0.299563 -17.271477 0.205 0 255 0
0.205002 -17.415213 0.174 0 255 0
0.232696 -17.360863 0.1 0 255 0
0.229081 -17.365755 0.093 0 255 0
0.127506 -17.549688 0.274 0 255 0
0.25985 -17.318583 0.094 0 255 0
0.26893 -17.300762 0.07 0 255 0
0.256656 -17.327055 0.124 0 255 0
0.119351 -17.56349 0.28 0 255 0
0.151703 -17.484577 0.079 0 255 0
0.159841 -17.473011 0.089 0 255 0
0.160023 -17.507896 0.338 0 255 0
0.257025 -17.337345 0.196 0 255 0
0.33447 -17.209578 0.153 0 255 0
0.158008 -17.478811 0.111 0 255 0
0.256065 -17.345833 0.247 0 255 0
0.259227 -17.341833 0.267 0 255 0
0.150961 -17.523479 0.358 0 255 0
0.192456 -17.477283 0.492 0 255 0
0.167741 -17.492748 0.326 0 255 0
0.171174 -17.452971 0.066 0 255 0
0.185833 -17.466051 0.329 0 255 0
0.301062 -17.250917 0.068 0 255 0
0.191888 -17.434345 0.165 0 255 0
0.160545 -17.49806 0.284 0 255 0
0.180169 -17.446331 0.124 0 255 0
0.140786 -17.567677 0.568 0 255 0
0.288736 -17.283918 0.172 0 255 0
0.366687 -17.148552 0.064 0 255 0
0.171742 -17.495909 0.393 0 255 0
0.212147 -17.416609 0.273 0 255 0
0.257076 -17.330635 0.159 0 255 0
0.217629 -17.401445 0.223 0 255 0
0.20364 -17.417887 0.184 0 255 0
0.189936 -17.455797 0.304 0 255 0
0.233451 -17.379204 0.235 0 255 0
0.337177 -17.206469 0.154 0 255 0
0.110475 -17.554478 0.121 0 255 0
0.129691 -17.556414 0.358 0 255 0
0.183682 -17.454855 0.229 0 255 0
0.197637 -17.442886 0.304 0 255 0
0.223798 -17.413567 0.389 0 255 0
0.213276 -17.385759 0.053 0 255 0
0.136802 -17.562281 0.478 0 255 0
0.117603 -17.558109 0.223 0 255 0
0.169358 -17.456535 0.077 0 255 0
0.297344 -17.269224 0.166 0 255 0
0.24934 -17.348019 0.186 0 255 0
0.183983 -17.474089 0.374 0 255 0
0.129474 -17.525999 0.123 0 255 0
0.208465 -17.430445 0.328 0 255 0
0.258722 -17.349432 0.312 0 255 0
0.162981 -17.530725 0.551 0 255 0
0.153719 -17.513662 0.314 0 255 0
0.282499 -17.280741 0.074 0 255 0
0.10955 -17.558496 0.134 0 255 0
0.224911 -17.384953 0.187 0 255 0
0.186236 -17.471869 0.384 0 255 0
0.130666 -17.545687 0.284 0 255 0
0.241067 -17.377474 0.311 0 255 0
0.215325 -17.410372 0.259 0 255 0
0.125372 -17.536255 0.158 0 255 0
0.234058 -17.358189 0.09 0 255 0
0.205508 -17.407616 0.13 0 255 0
0.163757 -17.48735 0.233 0 255 0
0.134974 -17.5086 0.055 0 255 0
0.240783 -17.356005 0.151 0 255 0
0.139361 -17.519814 0.193 0 255 0
0.145746 -17.562347 0.586 0 255 0
0.14743 -17.517191 0.269 0 255 0
0.136013 -17.54841 0.36 0 255 0
0.28006 -17.307554 0.251 0 255 0
0.21045 -17.404522 0.16 0 255 0
0.300018 -17.270586 0.201 0 255 0
0.174432 -17.495035 0.413 0 255 0
0.359456 -17.158337 0.064 0 255 0
0.144639 -17.531483 0.344 0 255 0
0.138584 -17.563189 0.513 0 255 0
0.202546 -17.444265 0.362 0 255 0
0.230137 -17.40333 0.386 0 255 0
0.281387 -17.309355 0.27 0 255 0
0.317354 -17.225548 0.065 0 255 0
0.322683 -17.230509 0.175 0 255 0
0.192541 -17.466103 0.413 0 255 0
0.16475 -17.47439 0.153 0 255 0
0.185781 -17.472759 0.379 0 255 0
0.142789 -17.539518 0.385 0 255 0
0.273771 -17.311085 0.197 0 255 0
0.326854 -17.211309 0.07 0 255 0
0.133981 -17.521561 0.143 0 255 0
0.175175 -17.456133 0.138 0 255 0
0.240379 -17.350187 0.103 0 255 0
0.28006 -17.307554 0.244 0 255 0
0.132466 -17.544359 0.295 0 255 0
0.213963 -17.413046 0.259 0 255 0
0.223361 -17.412222 0.372 0 255 0
0.273283 -17.316448 0.239 0 255 0
0.137579 -17.518906 0.17 0 255 0
0.153027 -17.545856 0.544 0 255 0
0.226136 -17.400169 0.311 0 255 0
0.158275 -17.502516 0.278 0 255 0
0.134952 -17.570316 0.51 0 255 0
0.179782 -17.438278 0.058 0 255 0
0.262019 -17.327543 0.19 0 255 0
0.275167 -17.30394 0.167 0 255 0
0.308627 -17.255894 0.195 0 255 0
0.168666 -17.488729 0.296 0 255 0
0.152895 -17.504265 0.229 0 255 0
0.146171 -17.506449 0.168 0 255 0
0.127035 -17.552814 0.289 0 255 0
0.157668 -17.523531 0.432 0 255 0
0.129072 -17.520184 0.08 0 255 0
0.176452 -17.46464 0.211 0 255 0
0.287913 -17.274519 0.091 0 255 0
0.306407 -17.253641 0.155 0 255 0
0.111332 -17.559404 0.163 0 255 0
0.244398 -17.351112 0.155 0 255 0
0.159603 -17.504314 0.31 0 255 0
0.295647 -17.257135 0.053 0 255 0
0.20132 -17.42905 0.236 0 255 0
0.118981 -17.553202 0.199 0 255 0
0.288702 -17.288389 0.209 0 255 0
0.129895 -17.529581 0.156 0 255 0
0.347653 -17.181503 0.093 0 255 0
0.145394 -17.549824 0.48 0 255 0
0.181814 -17.465128 0.284 0 255 0
0.164847 -17.520454 0.493 0 255 0
0.144639 -17.531483 0.343 0 255 0
0.36398 -17.151663 0.056 0 255 0
0.326366 -17.216673 0.114 0 255 0
0.18955 -17.447744 0.241 0 255 0
0.26481 -17.313253 0.108 0 255 0
0.226505 -17.410458 0.385 0 255 0
0.312798 -17.236694 0.097 0 255 0
0.1381 -17.509071 0.092 0 255 0
0.168497 -17.511091 0.467 0 255 0
0.151568 -17.502464 0.209 0 255 0
0.116695 -17.559893 0.229 0 255 0
0.157987 -17.540527 0.562 0 255 0
0.30138 -17.267914 0.196 0 255 0
0.287425 -17.279882 0.12 0 255 0
0.157601 -17.532475 0.504 0 255 0
0.286131 -17.273611 0.072 0 255 0
0.135961 -17.555119 0.415 0 255 0
0.344442 -17.192211 0.138 0 255 0
0.223128 -17.384045 0.158 0 255 0
0.214015 -17.406338 0.219 0 255 0
0.152509 -17.496212 0.171 0 255 0
0.154326 -17.492647 0.159 0 255 0
0.139611 -17.545755 0.396 0 255 0
0.237689 -17.351061 0.085 0 255 0
0.22365 -17.37421 0.085 0 255 0
0.169421 -17.507072 0.45 0 255 0
0.182218 -17.470943 0.327 0 255 0
0.240579 -17.382835 0.342 0 255 0
0.237015 -17.38102 0.288 0 255 0
0.193789 -17.419601 0.079 0 255 0
0.171407 -17.481148 0.28 0 255 0
0.14452 -17.547134 0.462 0 255 0
0.150103 -17.518555 0.306 0 255 0
0.296993 -17.256701 0.067 0 255 0
0.139429 -17.51087 0.127 0 255 0
0.203204 -17.416542 0.169 0 255 0
0.141358 -17.551134 0.446 0 255 0
0.216404 -17.38623 0.088 0 255 0
0.141715 -17.504179 0.106 0 255 0
0.176503 -17.457932 0.161 0 255 0
0.168564 -17.502146 0.395 0 255 0
0.138987 -17.569006 0.558 0 255 0
0.255526 -17.357904 0.331 0 255 0
0.27969 -17.297266 0.166 0 255 0
0.19456 -17.435707 0.209 0 255 0
0.162561 -17.527145 0.513 0 255 0
0.241339 -17.341698 0.054 0 255 0
0.21183 -17.399612 0.137 0 255 0
0.326837 -17.213545 0.092 0 255 0
0.210178 -17.440298 0.427 0 255 0
0.343079 -17.194885 0.145 0 255 0
0.145462 -17.54088 0.421 0 255 0
0.275973 -17.315575 0.26 0 255 0
0.267887 -17.320433 0.199 0 255 0
0.132936 -17.541231 0.277 0 255 0
0.288634 -17.297333 0.275 0 255 0
0.30555 -17.248714 0.105 0 255 0
0.138015 -17.52025 0.188 0 255 0
0.177696 -17.477617 0.328 0 255 0
0.24253 -17.361383 0.206 0 255 0
0.258234 -17.354795 0.343 0 255 0
0.287374 -17.286591 0.183 0 255 0
0.350411 -17.171684 0.056 0 255 0
0.355354 -17.168591 0.083 0 255 0
0.178182 -17.472256 0.293 0 255 0
0.227146 -17.384972 0.212 0 255 0
0.122914 -17.565306 0.343 0 255 0
0.279605 -17.308447 0.245 0 255 0
0.253512 -17.328819 0.091 0 255 0
0.247507 -17.353819 0.211 0 255 0
0.342188 -17.194431 0.133 0 255 0
0.224439 -17.388081 0.204 0 255 0
0.149009 -17.544931 0.489 0 255 0
0.217193 -17.400101 0.205 0 255 0
0.312763 -17.241167 0.134 0 255 0
0.1819 -17.453947 0.204 0 255 0
0.142148 -17.565004 0.567 0 255 0
0.226289 -17.380045 0.16 0 255 0
0.263465 -17.31369 0.108 0 255 0
0.288316 -17.280336 0.145 0 255 0
0.215024 -17.39114 0.111 0 255 0
0.191281 -17.45536 0.314 0 255 0
0.229399 -17.382751 0.214 0 255 0
0.135779 -17.520233 0.158 0 255 0
0.136433 -17.551992 0.403 0 255 0
0.190827 -17.456251 0.321 0 255 0
0.206263 -17.425957 0.27 0 255 0
0.139849 -17.51445 0.165 0 255 0
0.287896 -17.276756 0.109 0 255 0
0.242866 -17.376144 0.332 0 255 0
0.179544 -17.469582 0.285 0 255 0
0.144906 -17.555187 0.514 0 255 0
0.155318 -17.479685 0.075 0 255 0
0.12737 -17.567575 0.41 0 255 0
0.118057 -17.557219 0.218 0 255 0
0.243961 -17.349768 0.141 0 255 0
0.23799 -17.370295 0.227 0 255 0
0.235403 -17.357752 0.109 0 255 0
0.306811 -17.259459 0.204 0 255 0
0.157066 -17.485065 0.143 0 255 0
0.128295 -17.563559 0.395 0 255 0
0.167843 -17.479332 0.224 0 255 0
0.305954 -17.254532 0.157 0 255 0
0.29462 -17.27457 0.173 0 255 0
0.258908 -17.324837 0.135 0 255 0
0.164813 -17.524927 0.522 0 255 0
0.180368 -17.478979 0.37 0 255 0
0.142652 -17.557405 0.513 0 255 0
0.235772 -17.368042 0.186 0 255 0
0.211273 -17.413919 0.239 0 255 0
0.114124 -17.545115 0.092 0 255 0
0.297697 -17.28175 0.256 0 255 0
0.35448 -17.165901 0.055 0 255 0
0.153701 -17.515898 0.336 0 255 0
0.26834 -17.319542 0.195 0 255 0
0.180669 -17.498213 0.507 0 255 0
0.161619 -17.5334 0.555 0 255 0
0.154593 -17.516352 0.341 0 255 0
0.323137 -17.229616 0.172 0 255 0
0.152526 -17.493975 0.15 0 255 0
0.165687 -17.527617 0.553 0 255 0
0.140234 -17.522503 0.217 0 255 0
0.130059 -17.566702 0.43 0 255 0
0.239471 -17.351969 0.112 0 255 0
0.233956 -17.371605 0.184 0 255 0
0.208583 -17.414793 0.221 0 255 0
0.130751 -17.534506 0.2 0 255 0
0.26913 -17.33341 0.315 0 255 0
0.294167 -17.275461 0.17 0 255 0
0.191973 -17.423166 0.079 0 255 0
0.263936 -17.310562 0.085 0 255 0
0.170181 -17.465933 0.153 0 255 0
0.194998 -17.437052 0.217 0 255 0
0.301987 -17.246899 0.057 0 255 0
0.25943 -17.315001 0.065 0 255 0
0.297866 -17.25939 0.09 0 255 0
0.246515 -17.366781 0.292 0 255 0
0.227044 -17.398386 0.306 0 255 0
0.243591 -17.339478 0.058 0 255 0
0.237151 -17.363132 0.162 0 255 0
0.230171 -17.398857 0.343 0 255 0
0.23937 -17.365385 0.198 0 255 0
0.312259 -17.248766 0.186 0 255 0
0.27641 -17.316919 0.274 0 255 0
0.1782 -17.470018 0.268 0 255 0
0.260236 -17.326635 0.154 0 255 0
0.275956 -17.31781 0.276 0 255 0
0.268777 -17.320885 0.211 0 255 0
0.134231 -17.547503 0.345 0 255 0
0.118545 -17.551857 0.185 0 255 0
0.159349 -17.537855 0.564 0 255 0
0.316833 -17.235384 0.136 0 255 0
0.252132 -17.333729 0.117 0 255 0
0.23298 -17.382332 0.262 0 255 0
0.31828 -17.221531 0.056 0 255 0
0.157838 -17.501171 0.268 0 255 0
0.206835 -17.409414 0.161 0 255 0
0.274713 -17.304831 0.169 0 255 0
0.249426 -17.33684 0.108 0 255 0
0.266558 -17.318634 0.169 0 255 0
0.12885 -17.549252 0.295 0 255 0
0.13477 -17.535431 0.253 0 255 0
0.199907 -17.438431 0.286 0 255 0
0.308609 -17.258129 0.216 0 255 0
0.307685 -17.262148 0.237 0 255 0
0.164699 -17.481098 0.206 0 255 0
0.170886 -17.490984 0.348 0 255 0
0.274378 -17.29007 0.053 0 255 0
0.198528 -17.44334 0.31 0 255 0
0.175141 -17.460604 0.172 0 255 0
0.243791 -17.372128 0.313 0 255 0
0.256168 -17.332418 0.159 0 255 0
0.127692 -17.525091 0.101 0 255 0
0.177156 -17.489689 0.404 0 255 0
0.226357 -17.371101 0.1 0 255 0
0.178132 -17.478964 0.34 0 255 0
0.265599 -17.327122 0.225 0 255 0
0.360314 -17.163261 0.1 0 255 0
0.162514 -17.474373 0.123 0 255 0
0.292487 -17.261137 0.052 0 255 0
0.107331 -17.556244 0.088 0 255 0
0.224791 -17.400606 0.292 0 255 0
0.137663 -17.507725 0.089 0 255 0
0.125321 -17.542963 0.206 0 255 0
0.132652 -17.519762 0.118 0 255 0
0.136819 -17.560045 0.464 0 255 0
0.319624 -17.221094 0.07 0 255 0
0.204112 -17.414761 0.167 0 255 0
0.136802 -17.562281 0.478 0 255 0
0.204162 -17.408052 0.12 0 255 0
0.132619 -17.524235 0.153 0 255 0
0.139242 -17.535465 0.307 0 255 0
0.161907 -17.495388 0.269 0 255 0
0.346308 -17.18194 0.086 0 255 0
0.143832 -17.519848 0.24 0 255 0
0.12426 -17.564869 0.352 0 255 0
0.248347 -17.360981 0.273 0 255 0
0.333562 -17.211361 0.158 0 255 0
0.27325 -17.320921 0.267 0 255 0
0.278849 -17.290104 0.105 0 255 0
0.228559 -17.375589 0.15 0 255 0
0.252467 -17.34849 0.232 0 255 0
0.117552 -17.564817 0.279 0 255 0
0.161873 -17.499859 0.308 0 255 0
0.226976 -17.40733 0.375 0 255 0
0.275082 -17.315121 0.242 0 255 0
0.189265 -17.426275 0.082 0 255 0
0.300154 -17.252699 0.076 0 255 0
0.133391 -17.54034 0.279 0 255 0
0.156192 -17.482374 0.116 0 255 0
0.151703 -17.484577 0.077 0 255 0
0.2392 -17.387745 0.365 0 255 0
0.281523 -17.291466 0.151 0 255 0
0.237385 -17.39131 0.376 0 255 0
0.153146 -17.530205 0.43 0 255 0
0.190559 -17.432547 0.136 0 255 0
0.113636 -17.550478 0.12 0 255 0
0.284718 -17.282993 0.123 0 255 0
0.148508 -17.49305 0.095 0 255 0
0.219127 -17.380884 0.081 0 255 0
0.126496 -17.564886 0.384 0 255 0
0.32598 -17.20862 0.052 0 255 0
0.178972 -17.486124 0.398 0 255 0
0.155279 -17.543638 0.558 0 255 0
0.20927 -17.44208 0.426 0 255 0
0.283389 -17.281193 0.085 0 255 0
0.127807 -17.56892 0.419 0 255 0
-0.028641 -17.499308 0.1 0 255 0
-0.067811 -17.474859 0.125 0 255 0
-0.087851 -17.463528 0.133 0 255 0
-0.122214 -17.453875 0.135 0 255 0
-0.049185 -17.495573 0.097 0 255 0
-0.051858 -17.494211 0.099 0 255 0
-0.123474 -17.44313 0.153 0 255 0
-0.02733 -17.503342 0.093 0 255 0
-0.066534 -17.483366 0.111 0 255 0
-0.123928 -17.444023 0.151 0 255 0
-0.104394 -17.462955 0.128 0 255 0
-0.096408 -17.471512 0.118 0 255 0
-0.055893 -17.495523 0.094 0 255 0
-0.104428 -17.467426 0.12 0 255 0
-0.081228 -17.474758 0.119 0 255 0
-0.075479 -17.483299 0.107 0 255 0
-0.066517 -17.481131 0.114 0 255 0
-0.031314 -17.497946 0.101 0 255 0
-0.066568 -17.487839 0.104 0 255 0
-0.095534 -17.474203 0.112 0 255 0
-0.090154 -17.472454 0.119 0 255 0
-0.052749 -17.493757 0.099 0 255 0
-0.074604 -17.485989 0.102 0 255 0
-0.017529 -17.508337 0.09 0 255 0
-0.080773 -17.473867 0.121 0 255 0
-0.032625 -17.493912 0.108 0 255 0
-0.145749 -17.431782 0.163 0 255 0
-0.087027 -17.472925 0.119 0 255 0
-0.155181 -17.437077 0.435 0 255 0
-0.053504 -17.475416 0.326 0 255 0
-0.161452 -17.438372 0.536 0 255 0
-0.132367 -17.436356 0.214 0 255 0
-0.127997 -17.449806 0.477 0 255 0
-0.077578 -17.465395 0.32 0 255 0
-0.094122 -17.464821 0.457 0 255 0
-0.148036 -17.438473 0.396 0 255 0
-0.15202 -17.433077 0.326 0 255 0
-0.152962 -17.439329 0.48 0 255 0
-0.130199 -17.445316 0.404 0 255 0
-0.091449 -17.466183 0.496 0 255 0
-0.111437 -17.448143 0.28 0 255 0
-0.0143 -17.495392 0.4 0 255 0
-0.104831 -17.461609 0.52 0 255 0
-0.131998 -17.446644 0.43 0 255 0
-0.077664 -17.476574 0.575 0 255 0
0.081945 -17.542187 0.53 0 255 0
-0.135159 -17.450645 0.551 0 255 0
-0.065558 -17.472641 0.375 0 255 0
-0.089667 -17.467091 0.498 0 255 0
-0.122163 -17.447166 0.362 0 255 0
-0.088254 -17.45771 0.272 0 255 0
-0.008114 -17.505278 0.548 0 255 0
-0.145834 -17.442961 0.5 0 255 0
-0.070081 -17.479315 0.557 0 255 0
-0.072216 -17.465881 0.311 0 255 0
-0.00455 -17.507093 0.567 0 255 0
-0.158257 -17.429897 0.304 0 255 0
-0.074889 -17.46452 0.286 0 255 0
-0.135511 -17.43812 0.284 0 255 0
0.011068 -17.511684 0.524 0 255 0
-0.119104 -17.456581 0.549 0 255 0
-0.080688 -17.462687 0.303 0 255 0
-0.143513 -17.431799 0.204 0 255 0
-0.078469 -17.464941 0.327 0 255 0
-0.161435 -17.436134 0.48 0 255 0
-0.058481 -17.482981 0.54 0 255 0
-0.15555 -17.426788 0.214 0 255 0
-0.088305 -17.464418 0.427 0 255 0
-0.165873 -17.431629 0.423 0 255 0
-0.115001 -17.446327 0.263 0 255 0
0.11313 -17.558077 0.59 0 255 0
-0.099417 -17.455389 0.327 0 255 0
-0.153853 -17.438875 0.477 0 255 0
-0.174346 -17.428434 0.442 0 255 0
-0.073594 -17.470791 0.403 0 255 0
0.06231 -17.536671 0.589 0 255 0
-0.109655 -17.449051 0.284 0 255 0
-0.140034 -17.444796 0.488 0 255 0
-0.079361 -17.464487 0.349 0 255 0
0.048944 -17.529861 0.579 0 255 0
-0.152474 -17.433966 0.351 0 255 0
-0.143144 -17.442087 0.432 0 255 0
-0.0433 -17.486227 0.47 0 255 0
-0.174834 -17.433798 0.557 0 255 0
-0.109252 -17.454868 0.42 0 255 0
-0.028556 -17.488129 0.37 0 255 0
-0.102964 -17.451338 0.271 0 255 0
-0.064719 -17.479803 0.525 0 255 0
-0.09407 -17.458113 0.343 0 255 0
-0.115086 -17.457506 0.526 0 255 0
0.028888 -17.520763 0.56 0 255 0
-0.151532 -17.427713 0.209 0 255 0
-0.137713 -17.433632 0.195 0 255 0
-0.150204 -17.429512 0.236 0 255 0
-0.044595 -17.479956 0.331 0 255 0
-0.051807 -17.487503 0.563 0 255 0
-0.099467 -17.462097 0.483 0 255 0
-0.126584 -17.440424 0.259 0 255 0
0.094419 -17.548542 0.552 0 255 0
-0.111034 -17.45396 0.401 0 255 0
-0.138235 -17.443466 0.427 0 255 0
-0.123962 -17.448494 0.407 0 255 0
0.033377 -17.518562 0.456 0 255 0
-0.112816 -17.453053 0.395 0 255 0
-0.169471 -17.434284 0.519 0 255 0
0.11224 -17.557623 0.593 0 255 0
0.058309 -17.53351 0.558 0 255 0
0.031998 -17.523472 0.591 0 255 0
-0.156072 -17.436623 0.441 0 255 0
0.011976 -17.509901 0.479 0 255 0
0.057871 -17.532166 0.549 0 255 0
-0.001423 -17.507565 0.541 0 255 0
-0.05132 -17.482141 0.458 0 255 0
-0.088707 -17.458601 0.291 0 255 0
0.070362 -17.536285 0.508 0 255 0
-0.00186 -17.50622 0.527 0 255 0
-0.102158 -17.462971 0.499 0 255 0
-0.106125 -17.455338 0.393 0 255 0
0.009286 -17.510777 0.507 0 255 0
-0.107924 -17.456667 0.427 0 255 0
-0.119087 -17.454346 0.496 0 255 0
0.030216 -17.522562 0.586 0 255 0
-0.16093 -17.428535 0.312 0 255 0
-0.078469 -17.464941 0.307 0 255 0
0.049398 -17.528969 0.537 0 255 0
-0.075814 -17.468538 0.408 0 255 0
-0.146288 -17.443853 0.515 0 255 0
-0.022807 -17.496668 0.517 0 255 0
-0.165419 -17.430738 0.39 0 255 0
0.074364 -17.539446 0.534 0 255 0
0.019558 -17.512644 0.468 0 255 0
-0.157803 -17.429007 0.292 0 255 0
-0.152945 -17.437094 0.422 0 255 0
-0.122163 -17.447166 0.357 0 255 0
-0.099888 -17.458517 0.401 0 255 0
-0.070501 -17.475733 0.495 0 255 0
-0.118565 -17.444511 0.257 0 255 0
-0.011678 -17.503462 0.562 0 255 0
-0.099888 -17.458517 0.396 0 255 0
-0.156492 -17.433043 0.363 0 255 0
-0.120818 -17.44673 0.34 0 255 0
-0.121709 -17.446276 0.327 0 255 0
-0.123962 -17.448494 0.402 0 255 0
-0.138689 -17.444357 0.446 0 255 0
-0.118212 -17.457035 0.54 0 255 0
-0.136419 -17.439903 0.332 0 255 0
-0.14227 -17.444778 0.493 0 255 0
-0.061977 -17.472221 0.315 0 255 0
-0.124887 -17.452513 0.507 0 255 0
-0.014754 -17.496283 0.417 0 255 0
-0.098997 -17.458971 0.412 0 255 0
-0.02237 -17.498013 0.526 0 255 0
-0.142236 -17.440306 0.397 0 255 0
0.100656 -17.55172 0.56 0 255 0
-0.120398 -17.45031 0.424 0 255 0
-0.12756 -17.451151 0.499 0 255 0
-0.090558 -17.466637 0.5 0 255 0
0.100656 -17.55172 0.566 0 255 0
-0.14042 -17.436743 0.291 0 255 0
-0.175254 -17.430216 0.489 0 255 0
-0.123474 -17.44313 0.276 0 255 0
-0.111975 -17.460213 0.558 0 255 0
0.039143 -17.524866 0.548 0 255 0
-0.029447 -17.487675 0.354 0 255 0
-0.051756 -17.480795 0.424 0 255 0
-0.018755 -17.493122 0.387 0 255 0
0.081055 -17.541733 0.532 0 255 0
-0.055303 -17.476744 0.368 0 255 0
-0.094491 -17.454533 0.26 0 255 0
-0.001877 -17.508455 0.568 0 255 0
-0.126652 -17.449368 0.454 0 255 0
-0.093617 -17.457222 0.309 0 255 0
-0.13467 -17.445282 0.446 0 255 0
-0.096727 -17.454515 0.28 0 255 0
-0.147111 -17.434454 0.304 0 255 0
-0.119087 -17.454346 0.502 0 255 0
-0.01657 -17.499847 0.513 0 255 0
-0.176599 -17.430653 0.498 0 255 0
-0.124365 -17.442677 0.277 0 255 0
-0.059321 -17.475819 0.391 0 255 0
0.062764 -17.53578 0.575 0 255 0
0.005705 -17.511196 0.561 0 255 0
-0.027228 -17.489925 0.392 0 255 0
0.034688 -17.522596 0.548 0 255 0
-0.146742 -17.444744 0.536 0 255 0
-0.129257 -17.439062 0.234 0 255 0
0.010631 -17.51034 0.497 0 255 0
-0.165907 -17.436102 0.531 0 255 0
-0.120886 -17.455673 0.529 0 255 0
-0.153382 -17.435749 0.387 0 255 0
-0.063323 -17.472658 0.347 0 255 0
-0.041552 -17.491606 0.565 0 255 0
-0.097164 -17.453171 0.259 0 255 0
-0.175271 -17.432453 0.545 0 255 0
-0.104411 -17.465191 0.569 0 255 0
-0.114632 -17.456615 0.492 0 255 0
-0.134654 -17.443047 0.38 0 255 0
-0.081579 -17.462233 0.316 0 255 0
-0.110126 -17.452177 0.35 0 255 0
-0.170816 -17.434723 0.547 0 255 0
-0.123996 -17.452967 0.515 0 255 0
-0.149801 -17.435329 0.348 0 255 0
-0.12882 -17.440407 0.265 0 255 0
-0.094944 -17.455423 0.288 0 255 0
-0.158762 -17.437498 0.48 0 255 0
0.12695 -17.563995 0.595 0 255 0
-0.152457 -17.43173 0.289 0 255 0
-0.164545 -17.433428 0.458 0 255 0
-0.091415 -17.461712 0.382 0 255 0
-0.155635 -17.437967 0.463 0 255 0
0.027124 -17.51762 0.505 0 255 0
-0.165856 -17.429392 0.365 0 255 0
-0.083447 -17.472506 0.534 0 255 0
-0.087027 -17.472925 0.573 0 255 0
-0.091852 -17.460365 0.35 0 255 0
-0.144035 -17.441633 0.449 0 255 0
-0.023664 -17.491743 0.409 0 255 0
0.076599 -17.539463 0.531 0 255 0
-0.102594 -17.461626 0.499 0 255 0
0.0748 -17.540791 0.566 0 255 0
0.04227 -17.525337 0.527 0 255 0
0.044052 -17.526245 0.535 0 255 0
-0.047301 -17.483067 0.433 0 255 0
-0.145397 -17.444307 0.526 0 255 0
-0.059339 -17.478056 0.435 0 255 0
-0.093684 -17.466166 0.523 0 255 0
-0.072721 -17.473482 0.462 0 255 0
-0.137327 -17.441685 0.387 0 255 0
0.002141 -17.50938 0.562 0 255 0
-9.5e-05 -17.509363 0.572 0 255 0
-0.099484 -17.464333 0.505 0 255 0
-0.150726 -17.439346 0.46 0 255 0
-0.026774 -17.489037 0.375 0 255 0
-0.156526 -17.437513 0.475 0 255 0
-0.057993 -17.477617 0.401 0 255 0
-0.022807 -17.496668 0.516 0 255 0
-0.053992 -17.48078 0.439 0 255 0
0.022214 -17.516241 0.513 0 255 0
-0.115018 -17.448563 0.311 0 255 0
-0.03128 -17.493473 0.521 0 255 0
-0.148422 -17.43042 0.222 0 255 0
-0.027279 -17.496635 0.541 0 255 0
0.006193 -17.505833 0.427 0 255 0
0.015103 -17.510374 0.452 0 255 0
0.046726 -17.527607 0.553 0 255 0
-0.172144 -17.432922 0.507 0 255 0
0.017776 -17.511736 0.459 0 255 0
0.019524 -17.517115 0.567 0 255 0
-0.101181 -17.452246 0.27 0 255 0
-0.156441 -17.426334 0.222 0 255 0
0.027124 -17.51762 0.509 0 255 0
-0.08343 -17.470268 0.514 0 255 0
-0.092793 -17.466619 0.514 0 255 0
-0.139512 -17.434959 0.25 0 255 0
-0.15513 -17.430368 0.3 0 255 0
-0.117254 -17.448545 0.354 0 255 0
-0.01968 -17.497139 0.478 0 255 0
-0.147128 -17.436691 0.352 0 255 0
-0.124449 -17.453857 0.544 0 255 0
-0.163166 -17.428518 0.317 0 255 0
-0.021428 -17.49176 0.374 0 255 0
-0.026371 -17.494852 0.491 0 255 0
-0.000952 -17.504436 0.481 0 255 0
-0.119961 -17.451656 0.431 0 255 0
-0.142707 -17.443434 0.477 0 255 0
-0.080269 -17.466269 0.371 0 255 0
-0.118565 -17.444511 0.254 0 255 0
-0.102158 -17.462971 0.502 0 255 0
-0.183744 -17.429256 0.543 0 255 0
-0.066484 -17.47666 0.474 0 255 0
-0.08701 -17.47069 0.529 0 255 0
-0.073124 -17.467665 0.335 0 255 0
-0.047301 -17.483067 0.437 0 255 0
-0.115942 -17.452579 0.421 0 255 0
-0.096812 -17.465694 0.538 0 255 0
-0.053135 -17.485704 0.557 0 255 0
-0.146623 -17.429092 0.194 0 255 0
-0.053555 -17.482124 0.48 0 255 0
-0.140874 -17.437634 0.328 0 255 0
0.066345 -17.53536 0.539 0 255 0
-0.165873 -17.431629 0.432 0 255 0
-0.009005 -17.504824 0.564 0 255 0
0.063234 -17.532652 0.495 0 255 0
0.023979 -17.519384 0.562 0 255 0
-0.004079 -17.503965 0.501 0 255 0
-0.184635 -17.428802 0.543 0 255 0
-0.054917 -17.484797 0.532 0 255 0
0.036487 -17.521269 0.496 0 255 0
-0.039753 -17.490278 0.522 0 255 0
-0.153365 -17.433512 0.354 0 255 0
-0.16631 -17.430285 0.407 0 255 0
-0.138706 -17.446594 0.512 0 255 0
-0.127475 -17.43997 0.255 0 255 0
-0.094155 -17.469294 0.564 0 255 0
-0.056665 -17.479418 0.436 0 255 0
-0.095835 -17.454969 0.294 0 255 0
-0.121726 -17.448511 0.382 0 255 0
-0.10705 -17.459356 0.497 0 255 0
-0.119524 -17.453001 0.459 0 255 0
-0.175271 -17.432453 0.542 0 255 0
-0.115926 -17.450344 0.365 0 255 0
-0.133814 -17.450209 0.549 0 255 0
-0.114632 -17.456615 0.512 0 255 0
-0.038374 -17.485371 0.396 0 255 0
0.036453 -17.525742 0.585 0 255 0
-0.110194 -17.461121 0.55 0 255 0
0.036016 -17.524395 0.57 0 255 0
-0.179709 -17.427946 0.47 0 255 0
-0.111958 -17.457977 0.5 0 255 0
-0.132906 -17.448427 0.49 0 255 0
-0.167655 -17.430721 0.422 0 255 0
-0.106999 -17.452648 0.331 0 255 0
0.080147 -17.543514 0.57 0 255 0
-0.152979 -17.441566 0.533 0 255 0
-0.167218 -17.432066 0.449 0 255 0
-0.144892 -17.436708 0.342 0 255 0
-0.022319 -17.491306 0.389 0 255 0
-0.112362 -17.45216 0.375 0 255 0
-0.014754 -17.496283 0.427 0 255 0
-0.157434 -17.439295 0.516 0 255 0
-0.091885 -17.464838 0.48 0 255 0
-0.062011 -17.476694 0.434 0 255 0
-0.110983 -17.44725 0.251 0 255 0
-0.111925 -17.453506 0.399 0 255 0
0.071691 -17.538084 0.545 0 255 0
-0.101181 -17.452246 0.266 0 255 0
-0.177927 -17.428854 0.484 0 255 0
-0.152491 -17.436203 0.41 0 255 0
-0.106142 -17.457575 0.452 0 255 0
-0.001843 -17.503983 0.472 0 255 0
-0.074906 -17.466757 0.324 0 255 0
-0.097181 -17.455406 0.306 0 255 0
-0.062432 -17.473112 0.349 0 255 0
-0.008954 -17.498116 0.415 0 255 0
-0.082959 -17.467142 0.419 0 255 0
-0.058918 -17.481636 0.523 0 255 0
0.035596 -17.520815 0.5 0 255 0
-0.059304 -17.473583 0.321 0 255 0
-0.13025 -17.452024 0.535 0 255 0
-0.097703 -17.46524 0.516 0 255 0
-0.056245 -17.482998 0.524 0 255 0
-0.117759 -17.456144 0.518 0 255 0
-0.097164 -17.453171 0.256 0 255 0
-0.062868 -17.471767 0.322 0 255 0
-0.08247 -17.461779 0.31 0 255 0
-0.130165 -17.440845 0.282 0 255 0
-0.010316 -17.500788 0.473 0 255 0
0.01243 -17.509012 0.438 0 255 0
-0.124802 -17.441332 0.246 0 255 0
0.037815 -17.523067 0.518 0 255 0
-0.041535 -17.48937 0.511 0 255 0
-0.05179 -17.485268 0.526 0 255 0
-0.125727 -17.445351 0.341 0 255 0
0.011976 -17.509901 0.477 0 255 0
-0.040207 -17.491169 0.536 0 255 0
0.016851 -17.515753 0.566 0 255 0
-0.046847 -17.482174 0.413 0 255 0
-0.018335 -17.496702 0.469 0 255 0
-0.05179 -17.485268 0.521 0 255 0
-0.103049 -17.462517 0.517 0 255 0
-0.002768 -17.508001 0.579 0 255 0
-0.026354 -17.492617 0.455 0 255 0
-0.005827 -17.498587 0.391 0 255 0
-0.070467 -17.471262 0.381 0 255 0
-0.124382 -17.444914 0.334 0 255 0
-0.078067 -17.470757 0.467 0 255 0
-0.117254 -17.448545 0.34 0 255 0
-0.126215 -17.450714 0.48 0 255 0
-0.007643 -17.50215 0.483 0 255 0
-0.089162 -17.459492 0.315 0 255 0
-0.065627 -17.481585 0.565 0 255 0
-0.056631 -17.474945 0.338 0 255 0
-0.134654 -17.443047 0.373 0 255 0
-0.091466 -17.46842 0.519 0 255 0
-0.103468 -17.458937 0.445 0 255 0
-0.069122 -17.470825 0.352 0 255 0
-0.158257 -17.429897 0.311 0 255 0
-0.046393 -17.481283 0.371 0 255 0
0.031578 -17.51989 0.513 0 255 0
-0.019226 -17.496248 0.459 0 255 0
-0.048158 -17.47814 0.339 0 255 0
-0.125744 -17.447586 0.41 0 255 0
-0.021042 -17.499813 0.559 0 255 0
-0.15118 -17.440237 0.479 0 255 0
0.093075 -17.548979 0.575 0 255 0
-0.13109 -17.444862 0.387 0 255 0
-0.137344 -17.44392 0.43 0 255 0
-0.033516 -17.493458 0.543 0 255 0
-0.122651 -17.45253 0.476 0 255 0
-0.071375 -17.473043 0.435 0 255 0
-0.129745 -17.444426 0.376 0 255 0
0.012867 -17.510355 0.479 0 255 0
0.049416 -17.526733 0.501 0 255 0
-0.095013 -17.464367 0.492 0 255 0
0.06189 -17.533089 0.522 0 255 0
-0.042846 -17.485336 0.437 0 255 0
0.003486 -17.508944 0.537 0 255 0
-0.169874 -17.428469 0.382 0 255 0
-0.064702 -17.477568 0.477 0 255 0
0.057854 -17.534401 0.59 0 255 0
0.069455 -17.538067 0.567 0 255 0
0.010194 -17.508993 0.463 0 255 0
-0.016082 -17.494484 0.391 0 255 0
-0.074486 -17.470337 0.403 0 255 0
-0.091852 -17.460365 0.367 0 255 0
-0.089162 -17.459492 0.331 0 255 0
-0.036138 -17.485386 0.382 0 255 0
-0.113724 -17.454834 0.444 0 255 0
-0.143581 -17.440742 0.426 0 255 0
-0.027716 -17.495289 0.521 0 255 0
0.003469 -17.511179 0.586 0 255 0
-0.132384 -17.438591 0.252 0 255 0
-0.05801 -17.479855 0.465 0 255 0
-0.107016 -17.454884 0.38 0 255 0
-0.042863 -17.487572 0.49 0 255 0
-0.13958 -17.443903 0.443 0 255 0
-0.053555 -17.482124 0.458 0 255 0
-0.124382 -17.444914 0.332 0 255 0
0.091747 -17.54718 0.56 0 255 0
0.024467 -17.514023 0.458 0 255 0
-0.016116 -17.498955 0.505 0 255 0
0.031561 -17.522125 0.571 0 255 0
0.073018 -17.539883 0.561 0 255 0
-0.111488 -17.454849 0.438 0 255 0
0.03916 -17.522631 0.505 0 255 0
0.030687 -17.519436 0.508 0 255 0
0.089074 -17.545818 0.54 0 255 0
0.057417 -17.533054 0.569 0 255 0
-0.149398 -17.441145 0.473 0 255 0
-0.032171 -17.493019 0.52 0 255 0
-0.087884 -17.467999 0.475 0 255 0
-0.039282 -17.487152 0.444 0 255 0
0.026249 -17.514931 0.449 0 255 0
-0.006769 -17.504841 0.536 0 255 0
-0.027665 -17.488583 0.357 0 255 0
0.03869 -17.525757 0.567 0 255 0
-0.061574 -17.478037 0.458 0 255 0
-0.169488 -17.436522 0.56 0 255 0
-0.035752 -17.493439 0.557 0 255 0
-0.157803 -17.429007 0.285 0 255 0
0.073472 -17.538992 0.551 0 255 0
-0.117674 -17.444965 0.266 0 255 0
-0.059304 -17.473583 0.322 0 255 0
0.117149 -17.559002 0.587 0 255 0
-0.137832 -17.449284 0.56 0 255 0
0.037361 -17.523958 0.55 0 255 0
-0.062011 -17.476694 0.423 0 255 0
-0.148893 -17.433546 0.315 0 255 0
-0.086119 -17.471144 0.553 0 255 0
0.040925 -17.525774 0.549 0 255 0
0.007958 -17.508978 0.482 0 255 0
0.000359 -17.508472 0.554 0 255 0
-0.121709 -17.446276 0.344 0 255 0
-0.005407 -17.502167 0.453 0 255 0
-0.096761 -17.458988 0.373 0 255 0
0.036033 -17.52216 0.524 0 255 0
-0.102124 -17.4585 0.435 0 255 0
0.114476 -17.557638 0.575 0 255 0
0.129623 -17.565357 0.595 0 255 0
-0.039248 -17.482679 0.352 0 255 0
-0.085195 -17.467125 0.424 0 255 0
-0.062465 -17.477583 0.456 0 255 0
-0.123491 -17.445368 0.337 0 255 0
0.020903 -17.512205 0.43 0 255 0
-0.137832 -17.449284 0.545 0 255 0
-0.021445 -17.493996 0.419 0 255 0
-0.060649 -17.47402 0.35 0 255 0
-0.064247 -17.476675 0.447 0 255 0
-0.0335 -17.49122 0.479 0 255 0
-0.170782 -17.43025 0.431 0 255 0
-0.13773 -17.435867 0.258 0 255 0
-0.005407 -17.502167 0.473 0 255 0
-0.030389 -17.493927 0.516 0 255 0
0.026686 -17.516275 0.468 0 255 0
-0.074082 -17.476154 0.532 0 255 0
-0.103418 -17.452229 0.287 0 255 0
-0.03439 -17.490767 0.48 0 255 0
-0.151197 -17.442474 0.531 0 255 0
-0.160981 -17.435244 0.47 0 255 0
0.008412 -17.508085 0.465 0 255 0
-0.100745 -17.45359 0.291 0 255 0
-0.165016 -17.436556 0.533 0 255 0
0.04227 -17.525337 0.53 0 255 0
-0.02548 -17.495306 0.496 0 255 0
-0.124853 -17.44804 0.395 0 255 0
-0.110631 -17.459776 0.54 0 255 0
-0.114161 -17.453487 0.426 0 255 0
-0.037046 -17.487169 0.416 0 255 0
-0.082522 -17.468487 0.439 0 255 0
-0.115977 -17.457052 0.522 0 255 0
-0.16547 -17.437447 0.554 0 255 0
-0.038845 -17.488497 0.48 0 255 0
-0.035735 -17.491203 0.494 0 255 0
0.032923 -17.519453 0.48 0 255 0
-0.018318 -17.494467 0.417 0 255 0
-0.036172 -17.489859 0.47 0 255 0
0.08951 -17.547163 0.578 0 255 0
-0.14849 -17.439363 0.441 0 255 0
-0.055337 -17.481216 0.467 0 255 0
-0.074502 -17.472574 0.454 0 255 0
-0.0936 -17.454987 0.262 0 255 0
-0.070501 -17.475733 0.493 0 255 0
0.027998 -17.520309 0.563 0 255 0
-0.031717 -17.492128 0.482 0 255 0
-0.032137 -17.488548 0.412 0 255 0
0.010631 -17.51034 0.498 0 255 0
-0.143547 -17.43627 0.313 0 255 0
-0.007206 -17.503496 0.522 0 255 0
-0.070484 -17.473497 0.423 0 255 0
0.075692 -17.541245 0.572 0 255 0
0.02134 -17.513552 0.464 0 255 0
-0.04288 -17.489807 0.544 0 255 0
-0.118196 -17.4548 0.493 0 255 0
0.071236 -17.538975 0.559 0 255 0
-0.057119 -17.480309 0.464 0 255 0
0.069909 -17.537176 0.54 0 255 0
-0.135931 -17.43454 0.207 0 255 0
0.089528 -17.544928 0.531 0 255 0
-0.056211 -17.478525 0.412 0 255 0
0.004394 -17.507162 0.481 0 255 0
-0.064213 -17.472204 0.35 0 255 0
-0.164562 -17.435663 0.508 0 255 0
-0.013409 -17.495846 0.403 0 255 0
-0.14269 -17.441196 0.416 0 255 0
-0.037937 -17.486715 0.421 0 255 0
-0.152423 -17.427259 0.189 0 255 0
-0.106108 -17.453102 0.339 0 255 0
-0.057136 -17.482544 0.52 0 255 0
-0.109705 -17.455759 0.424 0 255 0
-0.10256 -17.457153 0.404 0 255 0
-0.131544 -17.445753 0.424 0 255 0
-0.142287 -17.447014 0.541 0 255 0
-0.111891 -17.449034 0.291 0 255 0
-0.136402 -17.437666 0.275 0 255 0
-0.128383 -17.441753 0.305 0 255 0
0.001267 -17.506689 0.501 0 255 0
0.069455 -17.538067 0.553 0 255 0
-0.003642 -17.505312 0.523 0 255 0
-0.141799 -17.44165 0.428 0 255 0
-0.123928 -17.444023 0.302 0 255 0
-0.131493 -17.439045 0.262 0 255 0
-0.032591 -17.489439 0.446 0 255 0
-0.049066 -17.479921 0.384 0 255 0
-0.01699 -17.496265 0.447 0 255 0
0.00705 -17.510759 0.532 0 255 0
-0.120432 -17.454782 0.522 0 255 0
-0.159148 -17.429443 0.318 0 255 0
-0.141816 -17.443888 0.469 0 255 0
-0.138604 -17.433178 0.203 0 255 0
-0.089667 -17.467091 0.504 0 255 0
0.035596 -17.520815 0.498 0 255 0
-0.07721 -17.475683 0.542 0 255 0
-0.01699 -17.496265 0.433 0 255 0
-0.145329 -17.435362 0.314 0 255 0
-0.154676 -17.429478 0.269 0 255 0
-0.158257 -17.429897 0.321 0 255 0
-0.016536 -17.495375 0.42 0 255 0
0.067673 -17.537159 0.546 0 255 0
-0.090994 -17.465292 0.462 0 255 0
-0.00228 -17.502638 0.443 0 255 0
-0.103066 -17.464752 0.554 0 255 0
-9.5e-05 -17.509363 0.566 0 255 0
-0.138167 -17.434523 0.218 0 255 0
-0.11907 -17.45211 0.437 0 255 0
-0.162326 -17.43568 0.494 0 255 0
-0.156055 -17.434387 0.392 0 255 0
-0.18598 -17.429241 0.555 0 255 0
-0.163234 -17.437464 0.53 0 255 0
-0.01077 -17.501678 0.495 0 255 0
-0.017427 -17.494921 0.403 0 255 0
-0.078101 -17.475229 0.555 0 255 0
-0.047738 -17.48172 0.414 0 255 0
-0.120818 -17.44673 0.327 0 255 0
-0.082051 -17.465361 0.377 0 255 0
-0.160056 -17.431227 0.354 0 255 0
0.047162 -17.528954 0.567 0 255 0
-0.099417 -17.455389 0.338 0 255 0
-0.112799 -17.450815 0.361 0 255 0
-0.060263 -17.482073 0.526 0 255 0
0.077036 -17.540808 0.555 0 255 0
-0.075427 -17.476591 0.559 0 255 0
-0.138269 -17.447939 0.533 0 255 0
-0.08516 -17.462652 0.346 0 255 0
-0.128416 -17.446224 0.389 0 255 0
-0.152003 -17.43084 0.268 0 255 0
-0.122231 -17.45611 0.553 0 255 0
-0.141765 -17.437178 0.311 0 255 0
-0.120347 -17.443602 0.264 0 255 0
-0.034793 -17.484949 0.351 0 255 0
-0.018772 -17.495358 0.442 0 255 0
-0.063776 -17.473549 0.38 0 255 0
-0.038408 -17.489841 0.504 0 255 0
-0.017915 -17.500284 0.545 0 255 0
-0.044208 -17.488008 0.505 0 255 0
0.065437 -17.537142 0.573 0 255 0
-0.138621 -17.435413 0.24 0 255 0
-0.143967 -17.43269 0.234 0 255 0
0.000393 -17.504 0.443 0 255 0
-0.064213 -17.472204 0.354 0 255 0
-0.079361 -17.464487 0.316 0 255 0
-0.078067 -17.470757 0.456 0 255 0
-0.094508 -17.456768 0.309 0 255 0
-0.033011 -17.485857 0.356 0 255 0
-0.122651 -17.45253 0.492 0 255 0
-0.030355 -17.489456 0.423 0 255 0
-0.144943 -17.443415 0.479 0 255 0
-0.166344 -17.434755 0.508 0 255 0
-0.096812 -17.465694 0.525 0 255 0
0.082819 -17.544876 0.586 0 255 0
-0.016553 -17.49761 0.464 0 255 0
-0.133729 -17.439028 0.281 0 255 0
0.01554 -17.511719 0.477 0 255 0
0.05118 -17.529877 0.554 0 255 0
0.046305 -17.524027 0.467 0 255 0
-0.155567 -17.429024 0.262 0 255 0
-0.077578 -17.465395 0.32 0 255 0
-0.018789 -17.497593 0.483 0 255 0
-0.139529 -17.437197 0.295 0 255 0
-0.151617 -17.438892 0.464 0 255 0
-0.111488 -17.454849 0.441 0 255 0
-0.156946 -17.433933 0.386 0 255 0
0.038723 -17.521286 0.482 0 255 0
0.093529 -17.548088 0.566 0 255 0
-0.022353 -17.495777 0.481 0 255 0
-0.163183 -17.430754 0.389 0 255 0
0.012833 -17.514828 0.566 0 255 0
-0.069627 -17.478424 0.539 0 255 0
-0.007189 -17.501259 0.45 0 255 0
-0.017444 -17.497156 0.461 0 255 0
-0.072266 -17.472589 0.441 0 255 0
-0.136487 -17.448847 0.531 0 255 0
-0.074956 -17.473463 0.476 0 255 0
-0.069543 -17.467245 0.3 0 255 0
0.06189 -17.533089 0.511 0 255 0
-0.051302 -17.479904 0.403 0 255 0
-0.000969 -17.506674 0.52 0 255 0
-0.074906 -17.466757 0.353 0 255 0
-0.171656 -17.427561 0.386 0 255 0
-0.042846 -17.485336 0.445 0 255 0
-0.070922 -17.472153 0.41 0 255 0
-0.066954 -17.479786 0.546 0 255 0
-0.131073 -17.442627 0.351 0 255 0
-0.02321 -17.490852 0.38 0 255 0
-0.093617 -17.457222 0.313 0 255 0
0.036487 -17.521269 0.491 0 255 0
0.10913 -17.554914 0.569 0 255 0
-0.144489 -17.442526 0.47 0 255 0
-0.050849 -17.479013 0.369 0 255 0
-0.164528 -17.431192 0.404 0 255 0
0.036924 -17.522614 0.514 0 255 0
-0.09856 -17.460316 0.424 0 255 0
-0.147531 -17.430874 0.221 0 255 0
0.014212 -17.50992 0.443 0 255 0
-0.096761 -17.458988 0.376 0 255 0
-0.080319 -17.472977 0.524 0 255 0
-0.07183 -17.473936 0.47 0 255 0
-0.11638 -17.451235 0.393 0 255 0
-0.055337 -17.481216 0.461 0 255 0
-0.04019 -17.488934 0.495 0 255 0
-0.174363 -17.43067 0.489 0 255 0
0.035579 -17.52305 0.543 0 255 0
0.042707 -17.526684 0.569 0 255 0
-0.143581 -17.440742 0.422 0 255 0
-0.122617 -17.448057 0.372 0 255 0
0.003049 -17.507599 0.513 0 255 0
-0.058027 -17.48209 0.504 0 255 0
