ply
format ascii 1.0
element vertex 1338
property double x
property double y
property double z
property uchar red
property uchar green
property uchar blue
element face 0
property list uchar int vertex_indices
end_header
4.36607 -13.046094 0.821 170 0 127
4.376139 -13.074793 0.835 170 0 127
4.434487 -13.165129 0.881 170 0 127
4.43792 -13.125351 0.862 170 0 127
4.38448 -13.036394 0.818 170 0 127
4.368374 -13.037167 0.817 170 0 127
4.436303 -13.161565 0.879 170 0 127
4.350775 -12.999019 0.798 170 0 127
4.409675 -13.134528 0.865 170 0 127
4.394011 -13.077164 0.837 170 0 127
4.38065 -13.010874 0.805 170 0 127
4.395588 -13.104904 0.85 170 0 127
4.475173 -13.166779 0.884 170 0 127
4.408453 -13.059833 0.83 170 0 127
4.41363 -13.084916 0.842 170 0 127
4.449248 -13.164793 0.881 170 0 127
4.410888 -13.092498 0.845 170 0 127
4.369044 -13.066689 0.83 170 0 127
4.405894 -13.102299 0.85 170 0 127
4.397417 -13.158586 0.875 170 0 127
4.417745 -13.131906 0.864 170 0 127
4.41847 -13.095239 0.847 170 0 127
4.436824 -13.15173 0.875 170 0 127
4.399301 -13.146077 0.87 170 0 127
4.408839 -13.067885 0.834 170 0 127
4.444288 -13.170122 0.883 170 0 127
4.368374 -13.037167 0.817 170 0 127
4.436201 -13.17498 0.885 170 0 127
4.388715 -13.067733 0.832 170 0 127
4.389182 -13.124087 0.859 170 0 127
4.44952 -13.129017 0.865 170 0 127
4.378159 -13.044396 0.821 170 0 127
4.384709 -13.124053 0.859 170 0 127
4.388095 -13.031503 0.815 170 0 127
4.407859 -13.138092 0.866 170 0 127
4.379236 -13.020254 0.81 170 0 127
4.405708 -13.126896 0.861 170 0 127
4.387383 -13.125415 0.859 170 0 127
4.433816 -13.135606 0.867 170 0 127
4.430791 -13.121719 0.86 170 0 127
4.377484 -13.074355 0.835 170 0 127
4.419776 -13.158755 0.877 170 0 127
4.360826 -13.029954 0.813 170 0 127
4.457317 -13.162171 0.881 170 0 127
4.397829 -13.04544 0.823 170 0 127
4.387069 -13.048937 0.824 170 0 127
4.413239 -13.136344 0.866 170 0 127
4.40203 -13.08125 0.84 170 0 127
4.376092 -13.022019 0.811 170 0 127
4.442391 -13.125385 0.863 170 0 127
4.412301 -13.083117 0.841 170 0 127
4.397859 -13.10045 0.848 170 0 127
4.37263 -13.006787 0.803 170 0 127
4.379623 -13.028308 0.813 170 0 127
4.394315 -13.036917 0.818 170 0 127
4.434895 -13.111464 0.856 170 0 127
4.452341 -13.169736 0.884 170 0 127
4.43225 -13.165112 0.881 170 0 127
4.408648 -13.151962 0.873 170 0 127
4.346121 -12.9641 0.781 170 0 127
4.356995 -13.004433 0.801 170 0 127
4.404078 -13.105864 0.851 170 0 127
4.457284 -13.166643 0.883 170 0 127
4.454662 -13.158572 0.879 170 0 127
4.413171 -13.145288 0.87 170 0 127
4.361586 -12.988815 0.794 170 0 127
4.353079 -12.990091 0.794 170 0 127
4.359549 -13.021446 0.809 170 0 127
4.368714 -12.992447 0.796 170 0 127
4.438356 -13.126696 0.863 170 0 127
4.399106 -13.053947 0.827 170 0 127
4.451739 -13.13127 0.866 170 0 127
4.412772 -13.07999 0.839 170 0 127
4.433079 -13.115028 0.857 170 0 127
4.441127 -13.174123 0.885 170 0 127
4.369617 -13.050145 0.823 170 0 127
4.385757 -13.044902 0.822 170 0 127
4.443834 -13.171014 0.884 170 0 127
4.412802 -13.134999 0.865 170 0 127
4.370003 -13.058199 0.827 170 0 127
4.360122 -13.004903 0.801 170 0 127
4.397519 -13.145169 0.869 170 0 127
4.359044 -13.029046 0.812 170 0 127
4.448324 -13.168811 0.883 170 0 127
4.413812 -13.119802 0.859 170 0 127
4.413387 -13.175701 0.884 170 0 127
4.382427 -13.071262 0.834 170 0 127
4.379499 -13.103441 0.848 170 0 127
4.34607 -12.970807 0.785 170 0 127
4.431546 -13.140061 0.869 170 0 127
4.407757 -13.151508 0.873 170 0 127
4.42343 -13.08991 0.845 170 0 127
4.377938 -13.073465 0.834 170 0 127
4.420502 -13.122088 0.86 170 0 127
4.395351 -13.136209 0.865 170 0 127
4.397837 -13.162167 0.877 170 0 127
4.452863 -13.159902 0.879 170 0 127
4.404511 -13.16669 0.88 170 0 127
4.358204 -13.021883 0.809 170 0 127
4.41001 -13.149289 0.872 170 0 127
4.465372 -13.161785 0.881 170 0 127
4.432926 -13.135152 0.867 170 0 127
4.452812 -13.166609 0.883 170 0 127
4.409815 -13.057159 0.829 170 0 127
4.418046 -13.151139 0.873 170 0 127
4.405037 -13.097374 0.847 170 0 127
4.387154 -13.037757 0.818 170 0 127
4.449015 -13.136617 0.869 170 0 127
4.397235 -13.1237 0.859 170 0 127
4.387807 -13.069514 0.833 170 0 127
4.442829 -13.12673 0.863 170 0 127
4.418946 -13.032631 0.816 170 0 127
4.436159 -13.062726 0.831 170 0 127
4.418679 -13.008926 0.804 170 0 127
4.453571 -13.12547 0.863 170 0 127
4.461926 -13.144317 0.873 170 0 127
4.417622 -12.971351 0.785 170 0 127
4.436834 -13.032766 0.816 170 0 127
4.417919 -13.050065 0.825 170 0 127
4.390773 -12.973383 0.786 170 0 127
4.37344 -12.958941 0.779 170 0 127
4.379423 -12.995658 0.798 170 0 127
4.428229 -12.987979 0.793 170 0 127
4.464616 -13.143442 0.872 170 0 127
4.447306 -13.067283 0.833 170 0 127
4.393929 -13.028864 0.815 170 0 127
4.356125 -12.942262 0.771 170 0 127
4.38746 -12.997508 0.798 170 0 127
4.436057 -13.076142 0.838 170 0 127
4.402793 -12.980631 0.79 170 0 127
4.404842 -13.005243 0.802 170 0 127
4.460195 -13.136701 0.869 170 0 127
4.367522 -12.97276 0.786 170 0 127
4.421585 -13.038465 0.819 170 0 127
4.444865 -13.094098 0.847 170 0 127
4.424525 -13.063532 0.832 170 0 127
4.48373 -13.158793 0.88 170 0 127
4.396993 -12.978797 0.789 170 0 127
4.409446 -13.04687 0.823 170 0 127
4.444683 -13.059213 0.829 170 0 127
4.421835 -13.064406 0.832 170 0 127
4.408224 -12.972175 0.785 170 0 127
4.48146 -13.163249 0.882 170 0 127
4.403934 -13.007026 0.803 170 0 127
4.395529 -12.994886 0.797 170 0 127
4.432225 -13.050621 0.825 170 0 127
4.432845 -13.086851 0.844 170 0 127
4.334287 -12.932257 0.766 170 0 127
4.391427 -13.005141 0.802 170 0 127
4.447101 -13.094114 0.847 170 0 127
4.467408 -13.129152 0.865 170 0 127
4.374548 -12.989808 0.795 170 0 127
4.377861 -12.965682 0.782 170 0 127
4.403629 -13.047274 0.824 170 0 127
4.346778 -12.936378 0.768 170 0 127
4.353367 -12.95208 0.776 170 0 127
4.387374 -13.008688 0.804 170 0 127
4.43478 -13.067635 0.834 170 0 127
4.452634 -13.072244 0.836 170 0 127
4.426363 -12.998251 0.798 170 0 127
4.460415 -13.107633 0.854 170 0 127
4.413468 -12.988315 0.793 170 0 127
4.413464 -13.047795 0.824 170 0 127
4.403782 -13.027149 0.814 170 0 127
4.399967 -12.999393 0.799 170 0 127
4.468736 -13.130951 0.866 170 0 127
4.450228 -13.094586 0.848 170 0 127
4.407685 -12.984244 0.791 170 0 127
4.442396 -13.065904 0.833 170 0 127
4.450954 -13.05792 0.829 170 0 127
4.479628 -13.169048 0.885 170 0 127
4.447407 -13.053867 0.827 170 0 127
4.431267 -13.059111 0.829 170 0 127
4.413401 -12.997258 0.798 170 0 127
4.415836 -13.029923 0.815 170 0 127
4.374667 -12.974155 0.787 170 0 127
4.382367 -12.961245 0.78 170 0 127
4.421585 -13.038465 0.819 170 0 127
4.395949 -12.998467 0.799 170 0 127
4.425569 -13.043861 0.822 170 0 127
4.419332 -13.040684 0.82 170 0 127
4.435136 -13.020679 0.81 170 0 127
4.469894 -13.155111 0.878 170 0 127
4.367976 -12.971869 0.786 170 0 127
4.40323 -12.981976 0.79 170 0 127
4.424479 -13.010758 0.805 170 0 127
4.385575 -13.010016 0.805 170 0 127
4.386857 -12.959043 0.779 170 0 127
4.408695 -12.969047 0.783 170 0 127
4.379457 -12.991186 0.795 170 0 127
4.387391 -13.006453 0.803 170 0 127
4.477846 -13.16814 0.885 170 0 127
4.41654 -13.054975 0.828 170 0 127
4.385109 -12.953662 0.776 170 0 127
4.395813 -13.016356 0.808 170 0 127
4.401936 -12.975704 0.787 170 0 127
4.416909 -13.065263 0.833 170 0 127
4.460666 -13.133574 0.867 170 0 127
4.468786 -13.124244 0.863 170 0 127
4.470331 -13.156456 0.879 170 0 127
4.424428 -13.017467 0.808 170 0 127
4.452413 -13.101311 0.851 170 0 127
4.416455 -13.066154 0.833 170 0 127
4.339162 -12.938107 0.769 170 0 127
4.37675 -12.994296 0.797 170 0 127
4.424245 -12.982582 0.79 170 0 127
4.370615 -12.977703 0.789 170 0 127
4.437318 -13.086885 0.844 170 0 127
4.433401 -13.072544 0.836 170 0 127
4.353418 -12.945371 0.772 170 0 127
4.40777 -12.973065 0.786 170 0 127
4.45226 -13.121435 0.861 170 0 127
3.9136 -13.147757 0.489 170 0 127
3.963671 -13.091339 0.481 170 0 127
3.859295 -13.172836 0.466 170 0 127
3.898219 -13.111862 0.444 170 0 127
3.854234 -13.191582 0.478 170 0 127
3.869907 -13.129984 0.436 170 0 127
3.810621 -13.222109 0.468 170 0 127
3.944018 -13.08806 0.461 170 0 127
3.84344 -13.19955 0.476 170 0 127
3.901008 -13.157053 0.487 170 0 127
3.89763 -13.130641 0.46 170 0 127
3.912896 -13.122707 0.466 170 0 127
3.878631 -13.15912 0.47 170 0 127
3.870883 -13.119258 0.427 170 0 127
3.897311 -13.113644 0.444 170 0 127
3.848603 -13.167388 0.451 170 0 127
3.939478 -13.09697 0.466 170 0 127
3.971422 -13.07172 0.47 170 0 127
3.828122 -13.214192 0.476 170 0 127
3.915416 -13.144193 0.488 170 0 127
3.857445 -13.180873 0.471 170 0 127
3.931492 -13.088411 0.451 170 0 127
3.871337 -13.118366 0.427 170 0 127
3.852015 -13.189329 0.474 170 0 127
3.837975 -13.212478 0.484 170 0 127
3.874476 -13.176083 0.481 170 0 127
3.921335 -13.130374 0.481 170 0 127
3.8902 -13.107777 0.434 170 0 127
3.869317 -13.148762 0.452 170 0 127
3.84008 -13.170901 0.447 170 0 127
3.945613 -13.113564 0.487 170 0 127
3.82402 -13.224447 0.482 170 0 127
3.850555 -13.145937 0.434 170 0 127
3.88704 -13.111777 0.434 170 0 127
3.83058 -13.185141 0.453 170 0 127
3.938485 -13.109932 0.476 170 0 127
3.860925 -13.193869 0.486 170 0 127
3.980736 -13.082077 0.487 170 0 127
3.948354 -13.105982 0.482 170 0 127
3.862847 -13.117408 0.418 170 0 127
3.871888 -13.16354 0.468 170 0 127
3.912123 -13.106602 0.451 170 0 127
3.932384 -13.088865 0.452 170 0 127
3.965134 -13.075251 0.468 170 0 127
3.911886 -13.137905 0.479 170 0 127
3.84803 -13.183931 0.466 170 0 127
3.844199 -13.158411 0.44 170 0 127
3.919939 -13.137519 0.487 170 0 127
3.841458 -13.165993 0.444 170 0 127
3.860305 -13.157639 0.452 170 0 127
3.959301 -13.077889 0.466 170 0 127
3.945681 -13.10462 0.478 170 0 127
3.873165 -13.172047 0.477 170 0 127
3.845057 -13.163337 0.445 170 0 127
3.839723 -13.217858 0.49 170 0 127
3.857832 -13.188926 0.479 170 0 127
3.900035 -13.108298 0.443 170 0 127
3.918276 -13.120958 0.469 170 0 127
3.864862 -13.146492 0.447 170 0 127
3.93033 -13.123734 0.482 170 0 127
3.881625 -13.117997 0.436 170 0 127
3.971724 -13.090954 0.488 170 0 127
3.968244 -13.077957 0.474 170 0 127
3.899764 -13.144074 0.474 170 0 127
3.8981 -13.127514 0.457 170 0 127
3.909212 -13.136543 0.476 170 0 127
3.852587 -13.172786 0.46 170 0 127
3.856423 -13.138826 0.433 170 0 127
3.847746 -13.162463 0.447 170 0 127
3.969573 -13.079757 0.476 170 0 127
3.91915 -13.123649 0.472 170 0 127
3.812284 -13.238668 0.486 170 0 127
3.901682 -13.127094 0.461 170 0 127
3.910978 -13.139688 0.48 170 0 127
3.843457 -13.197314 0.474 170 0 127
3.848819 -13.197802 0.479 170 0 127
3.958744 -13.092196 0.478 170 0 127
3.817245 -13.23334 0.485 170 0 127
3.870611 -13.155033 0.459 170 0 127
3.921958 -13.107122 0.46 170 0 127
3.870848 -13.123729 0.432 170 0 127
3.935307 -13.116169 0.48 170 0 127
3.797858 -13.253765 0.486 170 0 127
3.87406 -13.113021 0.424 170 0 127
3.876343 -13.16581 0.474 170 0 127
3.860623 -13.174636 0.469 170 0 127
3.90797 -13.123564 0.463 170 0 127
3.857043 -13.175056 0.466 170 0 127
3.881825 -13.150646 0.465 170 0 127
3.874884 -13.122418 0.433 170 0 127
3.956912 -13.097996 0.482 170 0 127
3.950305 -13.084529 0.464 170 0 127
3.854285 -13.184874 0.472 170 0 127
3.863619 -13.133513 0.434 170 0 127
3.863784 -13.170634 0.467 170 0 127
3.893764 -13.109592 0.438 170 0 127
3.965923 -13.089121 0.481 170 0 127
3.897363 -13.106936 0.439 170 0 127
3.862002 -13.169726 0.466 170 0 127
3.861854 -13.13037 0.429 170 0 127
3.852706 -13.157134 0.446 170 0 127
3.967285 -13.086448 0.481 170 0 127
3.920108 -13.115159 0.466 170 0 127
3.87448 -13.116602 0.428 170 0 127
3.858557 -13.152259 0.446 170 0 127
3.843728 -13.161538 0.442 170 0 127
3.884197 -13.132775 0.451 170 0 127
3.814202 -13.221689 0.472 170 0 127
3.838615 -13.186991 0.461 170 0 127
3.839523 -13.185209 0.46 170 0 127
3.838917 -13.206224 0.479 170 0 127
3.861768 -13.14155 0.439 170 0 127
3.884413 -13.163189 0.478 170 0 127
3.88169 -13.168534 0.481 170 0 127
3.923588 -13.128156 0.48 170 0 127
3.91957 -13.12723 0.476 170 0 127
3.883929 -13.10907 0.428 170 0 127
3.952105 -13.083201 0.464 170 0 127
3.823583 -13.223102 0.48 170 0 127
3.833855 -13.224969 0.491 170 0 127
3.872291 -13.169357 0.474 170 0 127
3.964579 -13.089558 0.481 170 0 127
3.924246 -13.100431 0.456 170 0 127
3.856253 -13.161185 0.452 170 0 127
3.813192 -13.236887 0.484 170 0 127
3.858926 -13.162547 0.456 170 0 127
3.950119 -13.109125 0.486 170 0 127
3.931021 -13.091538 0.453 170 0 127
3.92554 -13.106703 0.463 170 0 127
3.808334 -13.2288 0.473 170 0 127
3.880747 -13.174788 0.486 170 0 127
3.896807 -13.121243 0.451 170 0 127
3.836498 -13.171322 0.445 170 0 127
3.985326 -13.066459 0.477 170 0 127
3.85375 -13.137464 0.428 170 0 127
3.876343 -13.16581 0.474 170 0 127
3.891558 -13.164585 0.486 170 0 127
3.879402 -13.175225 0.485 170 0 127
3.88939 -13.155623 0.476 170 0 127
3.942503 -13.110857 0.481 170 0 127
3.950102 -13.111362 0.488 170 0 127
3.93176 -13.112117 0.473 170 0 127
3.875253 -13.132708 0.443 170 0 127
3.806081 -13.231019 0.473 170 0 127
3.878533 -13.113055 0.428 170 0 127
3.89511 -13.344844 0.486 170 0 127
3.895933 -13.354241 0.456 170 0 127
3.900421 -13.352039 0.474 170 0 127
3.830066 -13.311702 0.465 170 0 127
3.925403 -13.360279 0.5 170 0 127
3.929842 -13.364785 0.491 170 0 127
3.877273 -13.337999 0.471 170 0 127
3.869707 -13.333023 0.472 170 0 127
3.878146 -13.34069 0.465 170 0 127
3.858124 -13.327121 0.471 170 0 127
3.807808 -13.298117 0.465 170 0 127
3.971685 -13.390594 0.491 170 0 127
3.830503 -13.313047 0.462 170 0 127
3.984175 -13.394714 0.502 170 0 127
3.855384 -13.334702 0.434 170 0 127
3.856745 -13.33203 0.45 170 0 127
3.802966 -13.287793 0.493 170 0 127
3.957883 -13.38244 0.489 170 0 127
3.914224 -13.360194 0.475 170 0 127
3.93201 -13.373746 0.465 170 0 127
3.920932 -13.360245 0.489 170 0 127
3.95563 -13.384659 0.474 170 0 127
3.870984 -13.34153 0.444 170 0 127
3.870548 -13.340184 0.45 170 0 127
3.98774 -13.396531 0.502 170 0 127
3.891125 -13.339447 0.498 170 0 127
3.873305 -13.330367 0.493 170 0 127
3.883543 -13.336705 0.492 170 0 127
3.915552 -13.361994 0.47 170 0 127
3.823358 -13.311651 0.45 170 0 127
3.941374 -13.377395 0.47 170 0 127
3.820265 -13.306708 0.459 170 0 127
3.977502 -13.390192 0.503 170 0 127
3.955664 -13.380187 0.493 170 0 127
3.827359 -13.314813 0.444 170 0 127
3.847364 -13.330616 0.432 170 0 127
3.932481 -13.37062 0.476 170 0 127
3.826905 -13.315703 0.444 170 0 127
3.84481 -13.313602 0.492 170 0 127
3.857687 -13.325776 0.476 170 0 127
3.830974 -13.30992 0.472 170 0 127
3.884367 -13.346104 0.456 170 0 127
3.980612 -13.392899 0.5 170 0 127
3.840253 -13.324749 0.436 170 0 127
3.888873 -13.341665 0.488 170 0 127
3.9521 -13.378371 0.491 170 0 127
3.883895 -13.34923 0.447 170 0 127
3.889326 -13.340775 0.489 170 0 127
3.867522 -13.326298 0.494 170 0 127
3.836286 -13.317116 0.459 170 0 127
3.809152 -13.29768 0.471 170 0 127
3.879055 -13.338907 0.476 170 0 127
3.901733 -13.356074 0.46 170 0 127
3.998415 -13.404215 0.499 170 0 127
3.896437 -13.346642 0.484 170 0 127
3.868294 -13.342403 0.436 170 0 127
3.917754 -13.366482 0.458 170 0 127
3.884333 -13.350575 0.442 170 0 127
3.869707 -13.333023 0.476 170 0 127
3.896892 -13.345752 0.49 170 0 127
3.810078 -13.293661 0.487 170 0 127
3.908844 -13.361942 0.453 170 0 127
3.846524 -13.323455 0.459 170 0 127
3.923553 -13.368315 0.464 170 0 127
3.801588 -13.292703 0.472 170 0 127
3.912441 -13.359286 0.473 170 0 127
4.006871 -13.409645 0.499 170 0 127
3.942282 -13.375613 0.477 170 0 127
3.929808 -13.369257 0.475 170 0 127
3.89242 -13.345717 0.478 170 0 127
3.830503 -13.313047 0.461 170 0 127
3.853266 -13.319034 0.491 170 0 127
3.980612 -13.392899 0.499 170 0 127
3.83985 -13.318932 0.459 170 0 127
3.806917 -13.297663 0.465 170 0 127
3.844254 -13.32791 0.436 170 0 127
3.903498 -13.359219 0.452 170 0 127
3.922731 -13.358917 0.499 170 0 127
3.866563 -13.334788 0.462 170 0 127
3.898657 -13.348895 0.479 170 0 127
3.887561 -13.337631 0.498 170 0 127
3.982831 -13.395151 0.499 170 0 127
3.798495 -13.287759 0.485 170 0 127
3.820718 -13.305818 0.465 170 0 127
3.836723 -13.318461 0.455 170 0 127
3.83447 -13.320681 0.439 170 0 127
3.867959 -13.327643 0.489 170 0 127
4.004652 -13.407393 0.5 170 0 127
3.861739 -13.322228 0.496 170 0 127
3.920461 -13.363372 0.477 170 0 127
3.92806 -13.363877 0.49 170 0 127
3.814062 -13.299058 0.474 170 0 127
3.948535 -13.376555 0.489 170 0 127
3.885779 -13.336723 0.498 170 0 127
3.911113 -13.357488 0.477 170 0 127
3.912441 -13.359286 0.474 170 0 127
3.831848 -13.31261 0.465 170 0 127
3.902624 -13.356528 0.459 170 0 127
3.903078 -13.355638 0.463 170 0 127
3.874162 -13.335293 0.476 170 0 127
3.788256 -13.281421 0.485 170 0 127
3.943627 -13.375176 0.484 170 0 127
3.907146 -13.349854 0.496 170 0 127
3.871926 -13.335276 0.47 170 0 127
3.848777 -13.321236 0.471 170 0 127
3.941844 -13.374268 0.484 170 0 127
3.91777 -13.364245 0.466 170 0 127
4.214854 -12.935376 0.465 170 0 127
4.265913 -12.925476 0.489 170 0 127
4.221477 -12.946607 0.457 170 0 127
4.256952 -12.927645 0.485 170 0 127
4.214014 -12.928213 0.472 170 0 127
4.21381 -12.955046 0.448 170 0 127
4.19703 -12.985777 0.415 170 0 127
4.142538 -13.035453 0.354 170 0 127
4.190139 -12.950841 0.444 170 0 127
4.163876 -12.993575 0.398 170 0 127
4.237464 -12.961486 0.45 170 0 127
4.206263 -12.947832 0.452 170 0 127
4.236221 -12.948507 0.461 170 0 127
4.210463 -12.983642 0.421 170 0 127
4.193232 -12.955784 0.441 170 0 127
4.182133 -13.004 0.394 170 0 127
4.211354 -12.984097 0.421 170 0 127
4.266333 -12.929057 0.487 170 0 127
4.226152 -12.919808 0.483 170 0 127
4.190288 -12.990197 0.409 170 0 127
4.270368 -12.927747 0.489 170 0 127
4.178807 -12.97088 0.423 170 0 127
4.173223 -12.999459 0.396 170 0 127
4.213106 -12.929995 0.47 170 0 127
4.247384 -12.950828 0.462 170 0 127
4.156897 -13.029301 0.365 170 0 127
4.150591 -13.035066 0.357 170 0 127
4.159603 -13.026191 0.368 170 0 127
4.222754 -12.955113 0.45 170 0 127
4.173392 -12.977099 0.416 170 0 127
4.197416 -12.99383 0.408 170 0 127
4.255608 -12.928082 0.485 170 0 127
4.18481 -12.945881 0.447 170 0 127
4.16774 -13.014625 0.38 170 0 127
4.213793 -12.957281 0.446 170 0 127
4.214163 -12.96757 0.437 170 0 127
4.18005 -12.983858 0.412 170 0 127
4.191968 -13.004521 0.397 170 0 127
4.247974 -12.932049 0.479 170 0 127
4.256311 -12.953132 0.463 170 0 127
4.294964 -12.927934 0.497 170 0 127
4.219258 -12.944353 0.459 170 0 127
4.181611 -13.013834 0.385 170 0 127
4.199503 -12.954489 0.443 170 0 127
4.209605 -12.978716 0.425 170 0 127
4.219996 -12.964931 0.441 170 0 127
4.209003 -12.94025 0.459 170 0 127
4.182587 -13.003109 0.395 170 0 127
4.2167 -12.98682 0.42 170 0 127
4.217209 -12.919741 0.48 170 0 127
4.232942 -12.968161 0.442 170 0 127
4.170702 -12.977974 0.414 170 0 127
4.21314 -12.925523 0.474 170 0 127
4.169188 -13.000771 0.393 170 0 127
4.152072 -13.016742 0.374 170 0 127
4.190156 -12.948605 0.446 170 0 127
4.20594 -12.990316 0.414 170 0 127
4.167389 -13.002099 0.392 170 0 127
4.193856 -12.932532 0.461 170 0 127
4.204361 -12.962576 0.438 170 0 127
4.246493 -12.950374 0.461 170 0 127
4.220751 -12.983274 0.424 170 0 127
4.195179 -12.993813 0.407 170 0 127
4.238491 -12.944052 0.465 170 0 127
4.216364 -12.972059 0.433 170 0 127
4.183363 -12.959733 0.434 170 0 127
4.22709 -12.973036 0.435 170 0 127
4.251403 -12.951753 0.462 170 0 127
4.185345 -12.993291 0.405 170 0 127
4.180317 -13.007565 0.391 170 0 127
4.260499 -12.931697 0.482 170 0 127
4.159149 -13.027081 0.367 170 0 127
4.278438 -12.925125 0.494 170 0 127
4.200492 -13.001009 0.402 170 0 127
4.175913 -12.998586 0.397 170 0 127
4.151045 -13.034175 0.358 170 0 127
4.216165 -12.93941 0.463 170 0 127
4.261675 -12.95362 0.464 170 0 127
4.196041 -12.939257 0.456 170 0 127
4.241334 -12.923054 0.485 170 0 127
4.19989 -12.962543 0.436 170 0 127
4.199503 -12.954489 0.444 170 0 127
4.170282 -12.974393 0.417 170 0 127
4.212414 -12.962191 0.441 170 0 127
4.147448 -13.036831 0.354 170 0 127
4.177542 -13.019618 0.379 170 0 127
4.16458 -13.018624 0.376 170 0 127
4.219645 -12.952406 0.451 170 0 127
4.182519 -13.012053 0.387 170 0 127
4.192524 -12.990214 0.41 170 0 127
4.23676 -12.936436 0.471 170 0 127
4.196894 -13.003664 0.399 170 0 127
4.162832 -13.013245 0.38 170 0 127
4.281548 -12.927832 0.493 170 0 127
4.284153 -12.938138 0.484 170 0 127
4.208596 -12.993915 0.411 170 0 127
4.233298 -12.921204 0.484 170 0 127
4.243366 -12.949903 0.462 170 0 127
4.260953 -12.930805 0.484 170 0 127
4.181662 -13.007127 0.391 170 0 127
4.192528 -12.930734 0.463 170 0 127
4.214718 -12.953263 0.45 170 0 127
4.209979 -12.929524 0.469 170 0 127
4.167724 -13.01686 0.379 170 0 127
4.18274 -12.982985 0.413 170 0 127
4.260554 -13.101196 0.356 170 0 127
4.235623 -13.086248 0.32 170 0 127
4.209245 -13.085154 0.36 170 0 127
4.238211 -13.09879 0.385 170 0 127
4.26901 -13.106627 0.372 170 0 127
4.192349 -13.072056 0.323 170 0 127
4.273431 -13.113369 0.396 170 0 127
4.264135 -13.100777 0.349 170 0 127
4.228864 -13.092906 0.369 170 0 127
4.249425 -13.094403 0.341 170 0 127
4.33007 -13.134372 0.413 170 0 127
4.2079 -13.08559 0.367 170 0 127
4.273448 -13.111133 0.389 170 0 127
4.315796 -13.129344 0.411 170 0 127
4.223081 -13.088837 0.358 170 0 127
4.181623 -13.07108 0.333 170 0 127
4.205244 -13.081992 0.349 170 0 127
4.280173 -13.108949 0.362 170 0 127
4.262336 -13.102104 0.361 170 0 127
4.233757 -13.09652 0.376 170 0 127
4.234732 -13.085794 0.321 170 0 127
4.249391 -13.098875 0.364 170 0 127
4.170915 -13.067868 0.338 170 0 127
4.224914 -13.083036 0.323 170 0 127
4.252081 -13.098001 0.354 170 0 127
4.182951 -13.072878 0.343 170 0 127
4.309997 -13.12751 0.407 170 0 127
4.263244 -13.100323 0.347 170 0 127
4.330944 -13.137061 0.425 170 0 127
4.29532 -13.116666 0.379 170 0 127
4.182077 -13.070189 0.329 170 0 127
4.268976 -13.111099 0.393 170 0 127
4.281484 -13.112983 0.383 170 0 127
4.223569 -13.083473 0.327 170 0 127
4.310467 -13.124384 0.393 170 0 127
4.275701 -13.108914 0.37 170 0 127
4.216406 -13.084313 0.345 170 0 127
4.238665 -13.097899 0.379 170 0 127
4.198149 -13.073889 0.323 170 0 127
4.231083 -13.095159 0.373 170 0 127
4.187878 -13.072022 0.328 170 0 127
4.248079 -13.09484 0.347 170 0 127
4.245827 -13.097059 0.361 170 0 127
4.195443 -13.076999 0.341 170 0 127
4.273902 -13.110242 0.381 170 0 127
4.275281 -13.105332 0.351 170 0 127
4.214642 -13.081169 0.331 170 0 127
4.253829 -13.103381 0.379 170 0 127
4.19319 -13.079218 0.357 170 0 127
4.204841 -13.076175 0.32 170 0 127
4.217264 -13.089239 0.37 170 0 127
4.251644 -13.096657 0.348 170 0 127
4.229352 -13.087543 0.339 170 0 127
4.244919 -13.098842 0.37 170 0 127
4.176278 -13.068357 0.33 170 0 127
4.274391 -13.104879 0.352 170 0 127
4.285031 -13.117034 0.396 170 0 127
4.258739 -13.10476 0.377 170 0 127
4.203496 -13.076612 0.326 170 0 127
4.229368 -13.085306 0.325 170 0 127
4.25657 -13.095799 0.338 170 0 127
4.168679 -13.067851 0.339 170 0 127
4.283283 -13.111654 0.374 170 0 127
4.276138 -13.110259 0.377 170 0 127
4.272137 -13.107099 0.369 170 0 127
4.254334 -13.095782 0.337 170 0 127
4.210641 -13.078009 0.323 170 0 127
4.273465 -13.108896 0.375 170 0 127
4.251661 -13.09442 0.335 170 0 127
4.219533 -13.084785 0.34 170 0 127
4.266774 -13.10661 0.374 170 0 127
4.230697 -13.087106 0.333 170 0 127
4.225805 -13.08349 0.327 170 0 127
4.193644 -13.078326 0.352 170 0 127
4.281013 -13.11611 0.398 170 0 127
4.198586 -13.075234 0.33 170 0 127
4.21059 -13.084717 0.355 170 0 127
4.162896 -13.063782 0.331 170 0 127
4.304196 -13.125677 0.41 170 0 127
4.291706 -13.121558 0.408 170 0 127
4.228024 -13.085743 0.332 170 0 127
4.14726 -13.061427 0.341 170 0 127
4.293067 -13.118884 0.394 170 0 127
4.158877 -13.062858 0.329 170 0 127
4.230276 -13.083525 0.316 170 0 127
4.192299 -13.078764 0.358 170 0 127
4.239204 -13.085828 0.314 170 0 127
4.312954 -12.914653 0.725 170 0 127
4.266134 -12.896409 0.669 170 0 127
4.324957 -12.924136 0.75 170 0 127
4.264051 -12.876267 0.622 170 0 127
4.278222 -12.894711 0.668 170 0 127
4.280559 -12.881312 0.64 170 0 127
4.282591 -12.908161 0.7 170 0 127
4.304901 -12.91504 0.722 170 0 127
4.287603 -12.896124 0.675 170 0 127
4.269209 -12.903587 0.685 170 0 127
4.257274 -12.88516 0.639 170 0 127
4.322721 -12.924119 0.75 170 0 127
4.285214 -12.916231 0.72 170 0 127
4.300077 -12.90248 0.692 170 0 127
4.28804 -12.89747 0.677 170 0 127
4.298295 -12.901572 0.692 170 0 127
4.297404 -12.901118 0.689 170 0 127
4.283216 -12.884911 0.649 170 0 127
4.275061 -12.898712 0.676 170 0 127
4.295622 -12.90021 0.686 170 0 127
4.310701 -12.916872 0.729 170 0 127
4.262082 -12.899956 0.674 170 0 127
4.261378 -12.874906 0.619 170 0 127
4.263613 -12.874923 0.619 170 0 127
4.279851 -12.915743 0.715 170 0 127
4.289385 -12.897032 0.676 170 0 127
4.298244 -12.90828 0.706 170 0 127
4.27111 -12.888844 0.651 170 0 127
4.290191 -12.908666 0.702 170 0 127
4.260249 -12.905755 0.687 170 0 127
4.270152 -12.897334 0.67 170 0 127
4.311626 -12.912854 0.721 170 0 127
4.281433 -12.884003 0.644 170 0 127
4.262031 -12.906663 0.69 170 0 127
4.288426 -12.905522 0.695 170 0 127
4.283097 -12.900562 0.683 170 0 127
4.268892 -12.88659 0.646 170 0 127
4.291485 -12.914937 0.719 170 0 127
4.260906 -12.878033 0.626 170 0 127
4.288965 -12.893452 0.67 170 0 127
4.303522 -12.919948 0.734 170 0 127
4.279181 -12.886221 0.65 170 0 127
4.278222 -12.894711 0.669 170 0 127
4.288426 -12.905522 0.695 170 0 127
4.259846 -12.89994 0.673 170 0 127
4.308028 -12.91551 0.725 170 0 127
4.272002 -12.889297 0.654 170 0 127
4.311104 -12.922689 0.741 170 0 127
4.279634 -12.88533 0.648 170 0 127
4.320047 -12.922757 0.745 170 0 127
4.368668 -12.939673 0.744 170 0 127
4.297052 -12.888594 0.644 170 0 127
4.345047 -12.928761 0.74 170 0 127
4.363321 -12.936949 0.743 170 0 127
4.345064 -12.926525 0.73 170 0 127
4.318856 -12.90307 0.671 170 0 127
4.300582 -12.894881 0.663 170 0 127
4.27212 -12.873646 0.619 170 0 127
4.371323 -12.943272 0.755 170 0 127
4.406527 -12.960086 0.772 170 0 127
4.331228 -12.922842 0.737 170 0 127
4.319259 -12.908887 0.695 170 0 127
4.346006 -12.92027 0.697 170 0 127
4.329077 -12.911644 0.688 170 0 127
4.344678 -12.918472 0.694 170 0 127
4.364683 -12.934277 0.728 170 0 127
4.366448 -12.937421 0.74 170 0 127
4.395835 -12.954638 0.764 170 0 127
4.362447 -12.934259 0.734 170 0 127
4.330388 -12.91568 0.707 170 0 127
4.398962 -12.955109 0.761 170 0 127
4.346898 -12.920725 0.698 170 0 127
4.328135 -12.917899 0.718 170 0 127
4.386051 -12.947409 0.748 170 0 127
4.365507 -12.943674 0.771 170 0 127
4.392707 -12.954167 0.768 170 0 127
4.384723 -12.945609 0.744 170 0 127
4.328084 -12.924606 0.749 170 0 127
4.313964 -12.899455 0.661 170 0 127
4.318317 -12.915141 0.724 170 0 127
4.279249 -12.877277 0.623 170 0 127
4.318805 -12.909778 0.7 170 0 127
4.410527 -12.963247 0.78 170 0 127
4.364649 -12.938748 0.751 170 0 127
4.359757 -12.935133 0.74 170 0 127
4.383832 -12.945155 0.745 170 0 127
4.33259 -12.920169 0.722 170 0 127
4.359791 -12.930661 0.722 170 0 127
4.327227 -12.919681 0.731 170 0 127
4.333044 -12.919277 0.715 170 0 127
4.344576 -12.931888 0.752 170 0 127
4.360195 -12.936479 0.749 170 0 127
4.390472 -12.95415 0.771 170 0 127
4.320536 -12.917395 0.73 170 0 127
4.345972 -12.924743 0.719 170 0 127
4.312097 -12.909727 0.712 170 0 127
4.378486 -12.942431 0.742 170 0 127
4.324991 -12.919664 0.731 170 0 127
4.320116 -12.913813 0.714 170 0 127
4.366415 -12.941893 0.762 170 0 127
4.290798 -12.887651 0.649 170 0 127
4.279703 -12.876387 0.619 170 0 127
4.3473 -12.926541 0.724 170 0 127
4.361085 -12.936933 0.746 170 0 127
4.346813 -12.931905 0.75 170 0 127
4.33301 -12.92375 0.735 170 0 127
4.358866 -12.934679 0.739 170 0 127
4.337483 -12.923783 0.727 170 0 127
4.338391 -12.922002 0.717 170 0 127
4.318402 -12.903961 0.672 170 0 127
4.352612 -12.933738 0.747 170 0 127
4.403836 -12.960959 0.779 170 0 127
4.330808 -12.919261 0.719 170 0 127
4.300111 -12.898008 0.68 170 0 127
4.360228 -12.932007 0.725 170 0 127
4.377578 -12.944213 0.753 170 0 127
4.345518 -12.925633 0.724 170 0 127
4.344156 -12.928307 0.739 170 0 127
4.344628 -12.925179 0.725 170 0 127
4.340189 -12.920673 0.708 170 0 127
4.413655 -12.963717 0.774 170 0 127
4.354848 -12.933755 0.744 170 0 127
4.291706 -12.885869 0.641 170 0 127
4.313073 -12.899001 0.658 170 0 127
4.386907 -12.952333 0.77 170 0 127
4.389598 -12.951461 0.76 170 0 127
4.369576 -12.937891 0.735 170 0 127
4.330774 -12.923733 0.742 170 0 127
4.161286 -13.45241 0.059 170 0 127
4.163875 -13.464952 0.052 170 0 127
4.156344 -13.455503 0.059 170 0 127
4.157638 -13.461774 0.055 170 0 127
4.151536 -13.440707 0.062 170 0 127
4.149102 -13.408042 0.054 170 0 127
4.154379 -13.419709 0.054 170 0 127
4.169811 -13.448896 0.052 170 0 127
4.157002 -13.427779 0.054 170 0 127
4.161741 -13.451518 0.059 170 0 127
4.152682 -13.407621 0.051 170 0 127
4.157944 -13.421526 0.052 170 0 127
4.158631 -13.448812 0.06 170 0 127
4.166769 -13.437245 0.051 170 0 127
4.164011 -13.447063 0.055 170 0 127
4.150412 -13.412077 0.054 170 0 127
4.151338 -13.408059 0.052 170 0 127
3.890426 -13.019227 0.054 170 0 127
3.882372 -13.019613 0.06 170 0 127
3.867612 -13.019949 0.058 170 0 127
3.890426 -13.019227 0.054 170 0 127
3.87432 -13.02 0.061 170 0 127
4.012069 -13.137323 0.082 170 0 127
4.013567 -13.116763 0.06 170 0 127
3.935226 -13.067868 0.066 170 0 127
3.988686 -13.095107 0.056 170 0 127
4.002017 -13.106389 0.057 170 0 127
3.97875 -13.108002 0.076 170 0 127
3.991377 -13.094233 0.053 170 0 127
3.905437 -13.044833 0.063 170 0 127
3.960209 -13.076107 0.056 170 0 127
4.020576 -13.136046 0.075 170 0 127
3.966008 -13.07794 0.054 170 0 127
3.987677 -13.110306 0.072 170 0 127
3.986315 -13.112978 0.076 170 0 127
3.935176 -13.074575 0.073 170 0 127
3.924954 -13.066 0.071 170 0 127
3.949062 -13.07155 0.059 170 0 127
4.011717 -13.124799 0.07 170 0 127
4.005985 -13.114022 0.062 170 0 127
3.997932 -13.114408 0.069 170 0 127
3.94992 -13.076476 0.063 170 0 127
3.986349 -13.108506 0.072 170 0 127
3.99388 -13.117955 0.075 170 0 127
4.023232 -13.139645 0.077 170 0 127
3.911186 -13.053373 0.069 170 0 127
3.949482 -13.075131 0.063 170 0 127
3.993477 -13.112138 0.07 170 0 127
3.933847 -13.072777 0.072 170 0 127
4.019231 -13.136484 0.077 170 0 127
4.01313 -13.115418 0.059 170 0 127
3.901436 -13.041672 0.063 170 0 127
3.889399 -13.036661 0.067 170 0 127
4.020089 -13.14141 0.081 170 0 127
3.901385 -13.048379 0.07 170 0 127
4.010423 -13.118528 0.065 170 0 127
3.900948 -13.047035 0.068 170 0 127
3.976985 -13.104857 0.075 170 0 127
4.025888 -13.143243 0.079 170 0 127
4.017954 -13.127976 0.069 170 0 127
3.985054 -13.102235 0.065 170 0 127
3.951264 -13.076039 0.063 170 0 127
3.982365 -13.103108 0.068 170 0 127
4.011313 -13.118981 0.064 170 0 127
3.990032 -13.09467 0.053 170 0 127
3.911271 -13.042194 0.058 170 0 127
3.938858 -13.06074 0.056 170 0 127
3.930016 -13.047256 0.052 170 0 127
3.944221 -13.061228 0.054 170 0 127
3.948256 -13.059916 0.051 170 0 127
3.886777 -13.028591 0.061 170 0 127
3.917508 -13.045372 0.057 170 0 127
3.92198 -13.045406 0.054 170 0 127
3.921963 -13.047642 0.056 170 0 127
4.325071 -13.439342 0.672 170 0 127
4.292677 -13.406001 0.674 170 0 127
4.292659 -13.408237 0.663 170 0 127
4.322835 -13.439325 0.665 170 0 127
4.315707 -13.435693 0.65 170 0 127
4.300208 -13.41545 0.671 170 0 127
4.30199 -13.416358 0.67 170 0 127
4.300191 -13.417686 0.655 170 0 127
4.305117 -13.416829 0.681 170 0 127
4.309522 -13.425807 0.665 170 0 127
4.315707 -13.435693 0.651 170 0 127
4.299788 -13.411869 0.683 170 0 127
4.300645 -13.416795 0.665 170 0 127
4.32149 -13.439761 0.654 170 0 127
4.371976 -13.446406 0.59 170 0 127
4.367589 -13.435192 0.58 170 0 127
4.310934 -13.416426 0.623 170 0 127
4.359689 -13.415455 0.559 170 0 127
4.333578 -13.438065 0.628 170 0 127
4.360712 -13.457501 0.621 170 0 127
4.328788 -13.421034 0.607 170 0 127
4.328283 -13.428633 0.62 170 0 127
4.313119 -13.423151 0.63 170 0 127
4.359553 -13.433342 0.586 170 0 127
4.345076 -13.455146 0.638 170 0 127
4.34671 -13.416698 0.577 170 0 127
4.346727 -13.414462 0.574 170 0 127
4.305974 -13.421755 0.639 170 0 127
4.321574 -13.428582 0.628 170 0 127
4.336086 -13.402306 0.57 170 0 127
4.362867 -13.409218 0.546 170 0 127
4.345972 -13.39612 0.547 170 0 127
4.338033 -13.440334 0.624 170 0 127
4.343766 -13.451111 0.633 170 0 127
4.327409 -13.425943 0.618 170 0 127
4.346018 -13.448893 0.626 170 0 127
4.320819 -13.41024 0.601 170 0 127
4.314447 -13.424951 0.632 170 0 127
4.359537 -13.435578 0.589 170 0 127
4.363354 -13.403854 0.537 170 0 127
4.362107 -13.450356 0.609 170 0 127
4.348221 -13.453382 0.63 170 0 127
4.371153 -13.437008 0.577 170 0 127
4.372935 -13.437916 0.575 170 0 127
4.341432 -13.405029 0.567 170 0 127
4.318096 -13.415586 0.613 170 0 127
4.308647 -13.423117 0.636 170 0 127
4.356244 -13.397986 0.537 170 0 127
4.346438 -13.452473 0.632 170 0 127
4.365069 -13.413707 0.551 170 0 127
4.329679 -13.421488 0.607 170 0 127
4.358933 -13.397112 0.532 170 0 127
4.335581 -13.409904 0.581 170 0 127
4.330235 -13.40718 0.585 170 0 127
4.351284 -13.403316 0.552 170 0 127
4.342068 -13.439024 0.618 170 0 127
4.331915 -13.421504 0.604 170 0 127
4.352476 -13.423002 0.58 170 0 127
4.359336 -13.402929 0.541 170 0 127
4.335343 -13.441209 0.63 170 0 127
4.327812 -13.43176 0.625 170 0 127
4.365926 -13.418633 0.557 170 0 127
4.37058 -13.453551 0.603 170 0 127
4.364394 -13.443665 0.595 170 0 127
4.360075 -13.423508 0.571 170 0 127
4.367169 -13.431611 0.574 170 0 127
4.362243 -13.432468 0.583 170 0 127
4.350443 -13.396153 0.542 170 0 127
4.322029 -13.427691 0.626 170 0 127
4.345382 -13.414898 0.577 170 0 127
4.313573 -13.42226 0.63 170 0 127
4.339345 -13.444369 0.629 170 0 127
4.347715 -13.46098 0.642 170 0 127
4.31485 -13.430767 0.64 170 0 127
4.365892 -13.423104 0.564 170 0 127
4.362999 -13.45081 0.609 170 0 127
4.354661 -13.429728 0.586 170 0 127
4.350761 -13.41315 0.567 170 0 127
4.312211 -13.424932 0.635 170 0 127
4.349752 -13.428349 0.592 170 0 127
4.335865 -13.431374 0.615 170 0 127
4.36221 -13.43694 0.588 170 0 127
4.329997 -13.438485 0.633 170 0 127
4.325525 -13.438451 0.638 170 0 127
4.347703 -13.403735 0.558 170 0 127
4.336586 -13.454187 0.648 170 0 127
4.368196 -13.414177 0.547 170 0 127
4.314515 -13.416006 0.619 170 0 127
4.367572 -13.437428 0.581 170 0 127
4.353604 -13.392153 0.532 170 0 127
4.352726 -13.448943 0.619 170 0 127
4.372197 -13.417338 0.546 170 0 127
4.368429 -13.442354 0.589 170 0 127
4.346324 -13.408645 0.566 170 0 127
4.359184 -13.423053 0.571 170 0 127
4.359002 -13.388168 0.519 170 0 127
4.330133 -13.420596 0.604 170 0 127
3.884035 -13.036173 0.054 170 0 127
3.904597 -13.037671 0.055 170 0 127
3.869275 -13.036509 0.051 170 0 127
3.925561 -13.044986 0.051 170 0 127
3.908598 -13.040833 0.053 170 0 127
3.887651 -13.031281 0.059 170 0 127
3.876067 -13.025379 0.063 170 0 127
3.877362 -13.031651 0.057 170 0 127
3.914517 -13.027013 0.053 170 0 127
3.910464 -13.03056 0.055 170 0 127
3.916247 -13.034629 0.053 170 0 127
3.89483 -13.028205 0.059 170 0 127
3.899353 -13.021531 0.057 170 0 127
4.33301 -13.395127 0.494 170 0 127
4.31911 -13.340906 0.472 170 0 127
4.32948 -13.388839 0.495 170 0 127
4.307561 -13.330533 0.481 170 0 127
4.33343 -13.398707 0.497 170 0 127
4.324541 -13.332451 0.456 170 0 127
4.307747 -13.305936 0.46 170 0 127
4.320556 -13.327053 0.458 170 0 127
4.302771 -13.313502 0.475 170 0 127
4.340405 -13.422464 0.506 170 0 127
4.33427 -13.405869 0.502 170 0 127
4.324172 -13.322162 0.447 170 0 127
4.309831 -13.326077 0.474 170 0 127
4.31622 -13.309132 0.449 170 0 127
4.325364 -13.341848 0.461 170 0 127
4.313042 -13.315369 0.459 170 0 127
4.314807 -13.318513 0.461 170 0 127
4.324622 -13.380752 0.496 170 0 127
4.322071 -13.304256 0.436 170 0 127
4.309864 -13.321606 0.47 170 0 127
4.32017 -13.319 0.451 170 0 127
4.334405 -13.387981 0.486 170 0 127
4.336001 -13.413486 0.506 170 0 127
4.317565 -13.308695 0.446 170 0 127
4.309967 -13.308189 0.458 170 0 127
4.334002 -13.382165 0.482 170 0 127
4.321851 -13.333325 0.46 170 0 127
4.320977 -13.330635 0.46 170 0 127
4.327986 -13.349918 0.464 170 0 127
4.338202 -13.417974 0.505 170 0 127
4.318049 -13.362813 0.491 170 0 127
4.311965 -13.339511 0.482 170 0 127
4.309478 -13.313553 0.465 170 0 127
4.327748 -13.381223 0.492 170 0 127
4.32802 -13.345447 0.461 170 0 127
4.2984 -13.300052 0.47 170 0 127
4.302299 -13.316628 0.478 170 0 127
4.316391 -13.286772 0.43 170 0 127
4.305897 -13.313972 0.47 170 0 127
4.329717 -13.357534 0.469 170 0 127
4.32054 -13.329289 0.46 170 0 127
4.328809 -13.359316 0.47 170 0 127
4.318202 -13.342689 0.474 170 0 127
4.337278 -13.421992 0.464 170 0 127
4.356663 -13.401567 0.495 170 0 127
4.310174 -13.457565 0.437 170 0 127
4.330888 -13.438939 0.473 170 0 127
4.326331 -13.450086 0.476 170 0 127
4.332755 -13.428667 0.462 170 0 127
4.312881 -13.454454 0.437 170 0 127
4.344372 -13.430097 0.5 170 0 127
4.33805 -13.438098 0.493 170 0 127
4.337159 -13.437644 0.49 170 0 127
4.306156 -13.45664 0.422 170 0 127
4.341784 -13.417555 0.473 170 0 127
4.324181 -13.438888 0.449 170 0 127
4.310192 -13.455329 0.43 170 0 127
4.333544 -13.442536 0.487 170 0 127
4.31606 -13.448217 0.438 170 0 127
4.348526 -13.413134 0.486 170 0 127
4.362078 -13.395348 0.503 170 0 127
4.295329 -13.46908 0.406 170 0 127
4.359387 -13.396221 0.493 170 0 127
4.325474 -13.445159 0.465 170 0 127
4.347129 -13.420279 0.494 170 0 127
4.324668 -13.433524 0.444 170 0 127
4.348912 -13.421186 0.501 170 0 127
4.324986 -13.450521 0.472 170 0 127
4.294875 -13.469972 0.405 170 0 127
4.349433 -13.411351 0.486 170 0 127
4.301633 -13.463314 0.418 170 0 127
4.318227 -13.457178 0.461 170 0 127
4.322835 -13.439325 0.445 170 0 127
4.346307 -13.41088 0.476 170 0 127
4.339378 -13.439898 0.502 170 0 127
4.343061 -13.426062 0.49 170 0 127
4.330854 -13.443411 0.48 170 0 127
4.316883 -13.457616 0.458 170 0 127
4.325559 -13.433978 0.446 170 0 127
4.352107 -13.412714 0.497 170 0 127
4.346189 -13.426533 0.503 170 0 127
4.312007 -13.451765 0.43 170 0 127
4.355335 -13.399768 0.488 170 0 127
4.334469 -13.438519 0.485 170 0 127
4.302507 -13.466004 0.423 170 0 127
4.320531 -13.448252 0.453 170 0 127
4.312428 -13.455346 0.439 170 0 127
4.139971 -12.961193 0.029 170 0 127
4.140074 -12.947777 0.021 170 0 127
4.143166 -12.95272 0.028 170 0 127
4.146361 -12.944247 0.027 170 0 127
4.144562 -12.945575 0.025 170 0 127
4.132724 -12.973212 0.028 170 0 127
4.130891 -12.979013 0.029 170 0 127
3.946538 -13.109546 0.029 170 0 127
3.952338 -13.111378 0.03 170 0 127
3.951799 -13.123449 0.026 170 0 127
3.895369 -13.016134 0.011 170 0 127
3.935884 -13.275833 0.029 170 0 127
3.935447 -13.274488 0.028 170 0 127
3.936304 -13.279414 0.031 170 0 127
3.938574 -13.274959 0.03 170 0 127
4.06433 -13.02815 0.029 170 0 127
4.116113 -12.981585 0.024 170 0 127
4.117594 -12.963259 0.016 170 0 127
4.117055 -12.97533 0.022 170 0 127
4.115205 -12.983366 0.025 170 0 127
4.117947 -12.975785 0.022 170 0 127
4.116045 -12.990528 0.029 170 0 127
4.214323 -13.535549 0.021 170 0 127
4.217938 -13.530657 0.018 170 0 127
4.2251 -13.529817 0.025 170 0 127
4.215248 -13.531531 0.017 170 0 127
4.230934 -13.527178 0.028 170 0 127
4.235491 -13.516031 0.018 170 0 127
4.223721 -13.534726 0.03 170 0 127
3.929175 -13.040093 0.03 170 0 127
4.139585 -13.188828 0.021 170 0 127
4.144643 -12.993876 0.018 170 0 127
4.146331 -13.124927 0.025 170 0 127
4.142301 -13.066756 0.018 170 0 127
4.140688 -13.043488 0.015 170 0 127
4.138347 -13.116368 0.016 170 0 127
4.14771 -13.120018 0.026 170 0 127
4.136377 -13.140057 0.014 170 0 127
4.13942 -13.151708 0.019 170 0 127
4.138206 -13.193737 0.018 170 0 127
4.137323 -13.074321 0.012 170 0 127
4.146645 -13.201405 0.03 170 0 127
4.136916 -13.127986 0.015 170 0 127
4.145831 -13.073044 0.022 170 0 127
4.139526 -13.078811 0.015 170 0 127
4.14454 -13.007292 0.017 170 0 127
4.135147 -13.184322 0.015 170 0 127
4.147213 -13.008655 0.021 170 0 127
4.145097 -12.992985 0.018 170 0 127
4.137887 -13.176741 0.017 170 0 127
4.139997 -13.075684 0.016 170 0 127
4.144257 -12.985824 0.017 170 0 127
4.137676 -13.086846 0.013 170 0 127
4.148822 -13.091404 0.028 170 0 127
4.142903 -13.105222 0.02 170 0 127
4.137103 -13.10339 0.012 170 0 127
4.144702 -13.103894 0.022 170 0 127
4.144295 -13.157558 0.024 170 0 127
4.145338 -13.137889 0.025 170 0 127
4.138889 -13.044817 0.013 170 0 127
4.142475 -12.984916 0.015 170 0 127
4.140557 -13.001895 0.013 170 0 127
4.139763 -13.047506 0.014 170 0 127
4.140735 -13.096261 0.017 170 0 127
4.146955 -13.101675 0.025 170 0 127
4.149263 -13.033267 0.024 170 0 127
4.148954 -13.132997 0.028 170 0 127
4.135974 -13.134239 0.013 170 0 127
4.147405 -13.160266 0.028 170 0 127
4.13345 -13.172235 0.012 170 0 127
4.146017 -13.048449 0.022 170 0 127
4.140078 -13.123984 0.018 170 0 127
4.145907 -13.180827 0.028 170 0 127
4.144341 -12.974643 0.017 170 0 127
4.140832 -13.142326 0.019 170 0 127
4.142758 -13.006384 0.016 170 0 127
4.151732 -13.061461 0.029 170 0 127
4.142339 -13.002803 0.015 170 0 127
4.146862 -12.996129 0.021 170 0 127
4.138783 -13.117713 0.015 170 0 127
4.144583 -13.119546 0.023 170 0 127
4.139466 -13.20448 0.021 170 0 127
4.148567 -13.124943 0.028 170 0 127
4.144791 -13.033233 0.02 170 0 127
4.146667 -13.139688 0.027 170 0 127
4.140557 -13.001895 0.029 170 0 127
4.139921 -12.967901 0.018 170 0 127
4.141198 -12.976408 0.02 170 0 127
4.132185 -12.985284 0.028 170 0 127
4.136675 -12.983082 0.025 170 0 127
4.141787 -12.957629 0.014 170 0 127
4.141702 -12.968809 0.017 170 0 127
4.138002 -13.22057 0.02 170 0 127
4.276787 -13.201498 0.011 170 0 127
4.260647 -13.206742 0.017 170 0 127
4.207386 -13.212152 0.013 170 0 127
4.26643 -13.210811 0.025 170 0 127
4.234184 -13.216827 0.028 170 0 127
4.206444 -13.218406 0.024 170 0 127
4.263337 -13.205868 0.015 170 0 127
4.204662 -13.217498 0.022 170 0 127
4.265068 -13.213484 0.029 170 0 127
4.24096 -13.207934 0.015 170 0 127
4.248526 -13.212912 0.025 170 0 127
4.2244 -13.209598 0.013 170 0 127
4.210917 -13.21844 0.025 170 0 127
4.251198 -13.214273 0.027 170 0 127
4.244082 -13.503574 0.016 170 0 127
4.158453 -13.354445 0.031 170 0 127
4.164168 -13.367459 0.031 170 0 127
4.165916 -13.372839 0.031 170 0 127
4.204174 -13.458549 0.031 170 0 127
4.183516 -13.410987 0.031 170 0 127
4.175598 -13.393484 0.031 170 0 127
4.152721 -13.343669 0.031 170 0 127
4.149484 -13.239887 0.012 170 0 127
4.1474 -13.219747 0.013 170 0 127
4.144693 -13.222857 0.012 170 0 127
4.148592 -13.239433 0.012 170 0 127
3.853742 -13.020738 0.017 170 0 127
3.853742 -13.020738 0.013 170 0 127
3.892661 -13.019244 0.03 170 0 127
3.936053 -13.017785 0.021 170 0 127
3.880137 -13.019596 0.026 170 0 127
3.872083 -13.019982 0.026 170 0 127
3.882372 -13.019613 0.03 170 0 127
3.889081 -13.019665 0.013 170 0 127
3.894897 -13.01926 0.015 170 0 127
3.91324 -13.018506 0.012 170 0 127
3.905632 -13.136963 0.012 170 0 127
3.898487 -13.135568 0.011 170 0 127
3.855621 -13.06771 0.03 170 0 127
3.90217 -13.121731 0.018 170 0 127
3.91999 -13.130811 0.019 170 0 127
3.874934 -13.11571 0.014 170 0 127
3.875388 -13.114819 0.014 170 0 127
3.892925 -13.102429 0.024 170 0 127
3.903146 -13.111005 0.023 170 0 127
3.899497 -13.120369 0.018 170 0 127
3.859118 -13.078471 0.026 170 0 127
3.913753 -13.127633 0.018 170 0 127
3.931708 -13.118825 0.026 170 0 127
3.917805 -13.124086 0.021 170 0 127
3.930398 -13.11479 0.027 170 0 127
3.901062 -13.090863 0.03 170 0 127
3.932196 -13.113461 0.028 170 0 127
3.923588 -13.128156 0.021 170 0 127
3.914779 -13.110199 0.026 170 0 127
3.955749 -13.133319 0.025 170 0 127
3.931255 -13.119716 0.025 170 0 127
3.953581 -13.124357 0.028 170 0 127
3.926923 -13.042313 0.028 170 0 127
3.912179 -13.040412 0.028 170 0 127
3.908598 -13.040833 0.028 170 0 127
4.349884 -13.469942 0.466 170 0 127
4.327519 -13.529253 0.432 170 0 127
4.310357 -13.49245 0.418 170 0 127
4.313166 -13.475924 0.424 170 0 127
4.324397 -13.469301 0.438 170 0 127
4.30555 -13.477654 0.416 170 0 127
4.331605 -13.521235 0.438 170 0 127
4.308609 -13.48707 0.417 170 0 127
4.338937 -13.498034 0.45 170 0 127
4.325419 -13.511348 0.433 170 0 127
4.335084 -13.534229 0.44 170 0 127
4.313013 -13.496048 0.421 170 0 127
4.327943 -13.473352 0.442 170 0 127
4.339946 -13.482836 0.453 170 0 127
4.330294 -13.517199 0.437 170 0 127
4.293814 -13.491877 0.399 170 0 127
4.311787 -13.480833 0.421 170 0 127
4.337575 -13.500708 0.448 170 0 127
4.305567 -13.475419 0.415 170 0 127
4.325118 -13.492114 0.436 170 0 127
4.347643 -13.529406 0.492 170 0 127
4.371353 -13.469658 0.564 170 0 127
4.351665 -13.47085 0.474 170 0 127
4.367046 -13.506744 0.565 170 0 127
4.379337 -13.478215 0.604 170 0 127
4.37722 -13.462546 0.586 170 0 127
4.352523 -13.475776 0.482 170 0 127
4.365837 -13.489293 0.549 170 0 127
4.354809 -13.469085 0.488 170 0 127
4.372778 -13.517521 0.597 170 0 127
4.377302 -13.510847 0.614 170 0 127
4.364339 -13.509854 0.555 170 0 127
4.359766 -13.523236 0.543 170 0 127
4.356608 -13.467757 0.495 170 0 127
4.362392 -13.471826 0.524 170 0 127
4.373117 -13.472801 0.573 170 0 127
4.372646 -13.475928 0.574 170 0 127
4.3557 -13.469539 0.493 170 0 127
4.379775 -13.479561 0.607 170 0 127
4.381875 -13.497465 0.628 170 0 127
4.38011 -13.494321 0.615 170 0 127
4.357041 -13.528583 0.533 170 0 127
4.364208 -13.468262 0.53 170 0 127
4.381875 -13.497465 0.627 170 0 127
4.373589 -13.469674 0.574 170 0 127
4.347983 -13.484686 0.467 170 0 127
4.36851 -13.490655 0.565 170 0 127
4.352806 -13.497245 0.497 170 0 127
4.38028 -13.471961 0.608 170 0 127
4.359264 -13.471354 0.512 170 0 127
4.337286 -13.538718 0.446 170 0 127
4.377556 -13.477307 0.598 170 0 127
4.368056 -13.491547 0.563 170 0 127
4.355247 -13.470429 0.493 170 0 127
4.381942 -13.488522 0.621 170 0 127
4.375031 -13.515303 0.604 170 0 127
4.359753 -13.465991 0.509 170 0 127
4.369418 -13.488873 0.567 170 0 127
4.363231 -13.478988 0.535 170 0 127
4.351258 -13.524513 0.504 170 0 127
4.372192 -13.476819 0.571 170 0 127
4.372176 -13.479055 0.575 170 0 127
4.377522 -13.481779 0.597 170 0 127
4.382515 -13.471978 0.616 170 0 127
4.348839 -13.489612 0.472 170 0 127
4.340515 -13.525774 0.455 170 0 127
4.35876 -13.478953 0.513 170 0 127
4.378294 -13.497885 0.61 170 0 127
4.353176 -13.507533 0.501 170 0 127
4.376847 -13.511739 0.611 170 0 127
4.378379 -13.486706 0.606 170 0 127
4.349056 -13.520024 0.493 170 0 127
4.361399 -13.484787 0.526 170 0 127
4.370105 -13.516159 0.583 170 0 127
4.365955 -13.473641 0.545 170 0 127
4.354168 -13.494572 0.501 170 0 127
4.373453 -13.487562 0.582 170 0 127
4.366779 -13.48304 0.55 170 0 127
4.354287 -13.478919 0.492 170 0 127
4.363617 -13.487041 0.538 170 0 127
4.370512 -13.462495 0.557 170 0 127
4.375201 -13.492943 0.596 170 0 127
4.367534 -13.501381 0.566 170 0 127
4.367852 -13.518379 0.574 170 0 127
4.359583 -13.488351 0.521 170 0 127
4.278968 -13.503392 0.307 170 0 127
4.280313 -13.502955 0.315 170 0 127
4.252153 -13.500953 0.064 170 0 127
4.255632 -13.513948 0.064 170 0 127
4.253866 -13.510805 0.059 170 0 127
4.28907 -13.527619 0.293 170 0 127
4.306941 -13.529991 0.367 170 0 127
4.305999 -13.536245 0.344 170 0 127
4.314388 -13.55062 0.348 170 0 127
4.308689 -13.535371 0.363 170 0 127
4.324745 -13.541307 0.423 170 0 127
4.317078 -13.549746 0.361 170 0 127
4.29198 -13.497677 0.386 170 0 127
4.29773 -13.506219 0.392 170 0 127
4.327855 -13.544014 0.426 170 0 127
4.312691 -13.538531 0.373 170 0 127
4.320641 -13.551561 0.375 170 0 127
4.294047 -13.520054 0.336 170 0 127
4.31723 -13.529622 0.42 170 0 127
4.290232 -13.492297 0.395 170 0 127
4.325635 -13.541761 0.423 170 0 127
4.322457 -13.547998 0.392 170 0 127
4.319886 -13.53322 0.422 170 0 127
4.253515 -13.49828 0.057 170 0 127
4.318843 -13.55289 0.37 170 0 127
4.33093 -13.551192 0.426 170 0 127
4.290665 -13.553123 0.302 170 0 127
4.287101 -13.551308 0.307 170 0 127
4.327804 -13.550722 0.414 170 0 127
4.289808 -13.548197 0.354 170 0 127
4.315262 -13.553309 0.357 170 0 127
4.2831 -13.548146 0.342 170 0 127
4.285302 -13.552635 0.3 170 0 127
4.31168 -13.55373 0.345 170 0 127
4.306445 -13.418629 0.681 170 0 127
4.322852 -13.437089 0.675 170 0 127
4.324635 -13.437997 0.678 170 0 127
4.306462 -13.416391 0.689 170 0 127
4.315321 -13.42764 0.678 170 0 127
4.306899 -13.417737 0.688 170 0 127
4.302898 -13.414576 0.683 170 0 127
4.362022 -13.461536 0.626 170 0 127
4.372749 -13.462513 0.613 170 0 127
4.361904 -13.477188 0.649 170 0 127
