ply
format ascii 1.0
element vertex 1303
property double x
property double y
property double z
property uchar red
property uchar green
property uchar blue
element face 0
property list uchar int vertex_indices
end_header
2.363729 -18.244659 0.439 170 84 255
2.470773 -18.224005 0.43 170 84 255
2.369742 -18.100698 0.455 170 84 255
2.434293 -18.198683 0.437 170 84 255
2.474359 -18.164104 0.437 170 84 255
2.563867 -18.155838 0.428 170 84 255
2.434454 -18.295286 0.426 170 84 255
2.518828 -18.138502 0.435 170 84 255
2.529202 -18.126953 0.435 170 84 255
2.360726 -18.169056 0.448 170 84 255
2.435977 -18.153526 0.442 170 84 255
2.520088 -18.149246 0.434 170 84 255
2.536025 -18.170834 0.429 170 84 255
2.464366 -18.243187 0.429 170 84 255
2.4456 -18.299843 0.425 170 84 255
2.42963 -18.282726 0.428 170 84 255
2.440373 -18.281466 0.427 170 84 255
2.415428 -18.209274 0.438 170 84 255
2.431217 -18.191504 0.438 170 84 255
2.417152 -18.100163 0.45 170 84 255
2.595875 -18.181128 0.422 170 84 255
2.430534 -18.104738 0.448 170 84 255
2.458155 -18.118811 0.443 170 84 255
2.379046 -18.230017 0.439 170 84 255
2.372605 -18.253672 0.437 170 84 255
2.512069 -18.145161 0.435 170 84 255
2.495607 -18.192888 0.431 170 84 255
2.523847 -18.243193 0.423 170 84 255
2.36445 -18.267473 0.437 170 84 255
2.464447 -18.291489 0.424 170 84 255
2.39539 -18.197941 0.441 170 84 255
2.391792 -18.200596 0.441 170 84 255
2.54014 -18.217823 0.424 170 84 255
2.437522 -18.18574 0.438 170 84 255
2.354696 -18.079563 0.459 170 84 255
2.513813 -18.21002 0.427 170 84 255
2.379161 -18.273846 0.434 170 84 255
2.518659 -18.160862 0.432 170 84 255
2.410766 -18.293318 0.429 170 84 255
2.547965 -18.12978 0.433 170 84 255
2.443262 -18.077553 0.45 170 84 255
2.378846 -18.197369 0.443 170 84 255
2.428311 -18.161966 0.442 170 84 255
2.432218 -18.295267 0.427 170 84 255
2.462907 -18.199795 0.434 170 84 255
2.411652 -18.117563 0.448 170 84 255
2.554083 -18.148609 0.43 170 84 255
2.546632 -18.187462 0.427 170 84 255
2.375961 -18.341801 0.427 170 84 255
2.490533 -18.154388 0.436 170 84 255
2.469216 -18.134548 0.44 170 84 255
2.394613 -18.241316 0.436 170 84 255
2.553815 -18.124903 0.433 170 84 255
2.443135 -18.212168 0.435 170 84 255
2.369508 -18.072521 0.458 170 84 255
2.637201 -18.15729 0.42 170 84 255
2.369372 -18.326097 0.43 170 84 255
2.362448 -18.059944 0.46 170 84 255
2.399955 -18.067833 0.455 170 84 255
2.381129 -18.250158 0.437 170 84 255
2.389717 -18.061495 0.457 170 84 255
2.405844 -18.234694 0.436 170 84 255
2.419947 -18.262081 0.431 170 84 255
2.458957 -18.189926 0.435 170 84 255
2.416336 -18.207493 0.438 170 84 255
2.419171 -18.069767 0.453 170 84 255
2.489989 -18.225941 0.428 170 84 255
2.519931 -18.228849 0.425 170 84 255
2.396191 -18.269056 0.433 170 84 255
2.379521 -18.16741 0.446 170 84 255
2.445995 -18.188932 0.437 170 84 255
2.542562 -18.193243 0.426 170 84 255
2.482064 -18.091711 0.444 170 84 255
2.461337 -18.288782 0.424 170 84 255
2.418284 -18.245522 0.433 170 84 255
2.41783 -18.246412 0.433 170 84 255
2.476832 -18.132816 0.44 170 84 255
2.432909 -18.263073 0.43 170 84 255
2.366062 -18.290741 0.434 170 84 255
2.373187 -18.118166 0.452 170 84 255
2.399255 -18.21899 0.438 170 84 255
2.524204 -18.196236 0.428 170 84 255
2.578105 -18.165339 0.426 170 84 255
2.601356 -18.165962 0.423 170 84 255
2.481142 -18.271936 0.424 170 84 255
2.417143 -18.219126 0.436 170 84 255
2.407418 -18.086226 0.452 170 84 255
2.504092 -18.253328 0.424 170 84 255
2.440266 -18.118675 0.445 170 84 255
2.37213 -18.080591 0.457 170 84 255
2.423363 -18.224539 0.435 170 84 255
2.507397 -18.112476 0.439 170 84 255
2.511093 -18.155886 0.434 170 84 255
2.630543 -18.15053 0.422 170 84 255
2.466187 -18.180143 0.436 170 84 255
2.481669 -18.202621 0.432 170 84 255
2.513177 -18.176027 0.431 170 84 255
2.404948 -18.29372 0.43 170 84 255
2.360335 -18.220484 0.442 170 84 255
2.538392 -18.212442 0.425 170 84 255
2.440411 -18.217512 0.434 170 84 255
2.489569 -18.222359 0.429 170 84 255
2.400146 -18.219444 0.438 170 84 255
2.398627 -18.301722 0.429 170 84 255
2.416765 -18.09211 0.451 170 84 255
2.403001 -18.255692 0.434 170 84 255
2.43753 -18.302465 0.425 170 84 255
2.483884 -18.264355 0.425 170 84 255
2.419633 -18.185602 0.44 170 84 255
2.487189 -18.123505 0.44 170 84 255
2.513198 -18.114309 0.438 170 84 255
2.536177 -18.150709 0.432 170 84 255
2.3918 -18.317322 0.428 170 84 255
2.387014 -18.24081 0.437 170 84 255
2.423308 -18.290728 0.428 170 84 255
2.436724 -18.290831 0.427 170 84 255
2.41099 -18.204767 0.439 170 84 255
2.380687 -18.308294 0.43 170 84 255
2.46407 -18.164473 0.438 170 84 255
2.507185 -18.25827 0.423 170 84 255
2.474346 -18.106859 0.443 170 84 255
2.406625 -18.131836 0.447 170 84 255
2.542398 -18.156122 0.43 170 84 255
2.405382 -18.118858 0.449 170 84 255
2.504924 -18.143764 0.436 170 84 255
2.401342 -18.179649 0.443 170 84 255
2.515697 -18.197512 0.429 170 84 255
2.446228 -18.21711 0.434 170 84 255
2.365273 -18.276871 0.436 170 84 255
2.369338 -18.330568 0.429 170 84 255
2.399742 -18.213627 0.439 170 84 255
2.534187 -18.236115 0.422 170 84 255
2.458774 -18.155041 0.439 170 84 255
2.468214 -18.266472 0.426 170 84 255
2.453411 -18.154554 0.44 170 84 255
2.590363 -18.141281 0.427 170 84 255
2.397528 -18.151894 0.446 170 84 255
2.581602 -18.176098 0.424 170 84 255
2.471346 -18.207462 0.432 170 84 255
2.552245 -18.21389 0.423 170 84 255
2.585369 -18.151083 0.427 170 84 255
2.362465 -18.057709 0.46 170 84 255
2.447212 -18.087421 0.448 170 84 255
2.520491 -18.155062 0.433 170 84 255
2.386038 -18.251537 0.436 170 84 255
2.600012 -18.166399 0.423 170 84 255
2.480896 -18.186516 0.433 170 84 255
2.380361 -18.17457 0.445 170 84 255
2.544854 -18.127071 0.433 170 84 255
2.428849 -18.149895 0.443 170 84 255
2.376844 -18.225529 0.44 170 84 255
2.446508 -18.298061 0.425 170 84 255
2.417474 -18.293367 0.428 170 84 255
2.38659 -18.061024 0.457 170 84 255
2.498284 -18.134769 0.437 170 84 255
2.369622 -18.352039 0.427 170 84 255
2.386229 -18.167459 0.446 170 84 255
2.462241 -18.110792 0.444 170 84 255
2.381168 -18.186205 0.444 170 84 255
2.437373 -18.146381 0.443 170 84 255
2.440063 -18.145508 0.442 170 84 255
2.391775 -18.202833 0.441 170 84 255
2.442707 -18.09186 0.448 170 84 255
2.381078 -18.256866 0.436 170 84 255
2.384413 -18.171024 0.445 170 84 255
2.427567 -18.200869 0.437 170 84 255
2.380972 -18.329763 0.428 170 84 255
2.40993 -18.226673 0.436 170 84 255
2.469861 -18.285267 0.424 170 84 255
2.531251 -18.151567 0.432 170 84 255
2.496833 -18.208103 0.429 170 84 255
2.461502 -18.090214 0.446 170 84 255
2.455448 -18.121922 0.443 170 84 255
2.492055 -18.248318 0.425 170 84 255
2.596481 -18.16011 0.424 170 84 255
2.494432 -18.170965 0.434 170 84 255
2.447272 -18.197441 0.436 170 84 255
2.641791 -18.141672 0.422 170 84 255
2.367459 -18.283596 0.435 170 84 255
2.383908 -18.178623 0.445 170 84 255
2.408721 -18.209223 0.438 170 84 255
2.40256 -18.313828 0.428 170 84 255
2.381218 -18.179497 0.445 170 84 255
2.459915 -18.181437 0.436 170 84 255
2.416027 -18.071533 0.453 170 84 255
2.426396 -18.119465 0.447 170 84 255
2.39539 -18.197941 0.441 170 84 255
2.449728 -18.16839 0.439 170 84 255
2.365554 -18.122133 0.453 170 84 255
2.459631 -18.159967 0.439 170 84 255
2.385232 -18.239902 0.438 170 84 255
2.553458 -18.17186 0.428 170 84 255
2.558724 -18.126284 0.432 170 84 255
2.568101 -18.187176 0.424 170 84 255
2.557294 -18.137899 0.431 170 84 255
2.461663 -18.186815 0.435 170 84 255
2.395997 -18.176926 0.444 170 84 255
2.424339 -18.213814 0.436 170 84 255
2.506804 -18.190737 0.43 170 84 255
2.594818 -18.143551 0.426 170 84 255
2.467031 -18.127823 0.442 170 84 255
2.49777 -18.26133 0.423 170 84 255
2.567209 -18.186722 0.424 170 84 255
2.364331 -18.283125 0.435 170 84 255
2.509392 -18.203279 0.429 170 84 255
2.648011 -18.147085 0.42 170 84 255
2.51921 -18.206038 0.427 170 84 255
2.503308 -18.179977 0.432 170 84 255
2.455354 -18.252064 0.429 170 84 255
2.390163 -18.179565 0.444 170 84 255
2.363785 -18.178471 0.447 170 84 255
2.506765 -18.25469 0.423 170 84 255
2.441421 -18.202314 0.436 170 84 255
2.390998 -18.246208 0.436 170 84 255
2.427771 -18.174036 0.44 170 84 255
2.634947 -18.15951 0.42 170 84 255
2.551188 -18.176315 0.427 170 84 255
2.471062 -18.185993 0.435 170 84 255
2.395649 -18.104919 0.451 170 84 255
2.362787 -18.250914 0.439 170 84 255
2.578775 -18.19486 0.422 170 84 255
2.595607 -18.157421 0.425 170 84 255
2.486752 -18.122158 0.44 170 84 255
2.507389 -18.231438 0.426 170 84 255
2.628694 -18.158567 0.421 170 84 255
2.446593 -18.28688 0.426 170 84 255
2.491322 -18.168259 0.435 170 84 255
2.487634 -18.241575 0.427 170 84 255
2.406425 -18.099188 0.451 170 84 255
2.400816 -18.248966 0.435 170 84 255
2.438947 -18.233603 0.433 170 84 255
2.458588 -18.179638 0.437 170 84 255
2.596749 -18.183817 0.422 170 84 255
2.381023 -18.323055 0.429 170 84 255
2.563662 -18.182671 0.425 170 84 255
2.391664 -18.099524 0.452 170 84 255
2.562386 -18.174164 0.426 170 84 255
2.54527 -18.190134 0.426 170 84 255
2.40609 -18.084427 0.453 170 84 255
2.535138 -18.110899 0.436 170 84 255
2.592379 -18.170366 0.424 170 84 255
2.40228 -18.232876 0.437 170 84 255
2.461197 -18.130463 0.442 170 84 255
2.468117 -18.220407 0.431 170 84 255
2.397112 -18.32452 0.427 170 84 255
2.440135 -18.077082 0.45 170 84 255
2.523092 -18.22485 0.425 170 84 255
2.389806 -18.226521 0.439 170 84 255
2.504538 -18.135712 0.437 170 84 255
2.403417 -18.318752 0.427 170 84 255
2.444662 -18.246614 0.431 170 84 255
2.522325 -18.149263 0.433 170 84 255
2.451896 -18.177351 0.437 170 84 255
2.404525 -18.113932 0.45 170 84 255
2.522035 -18.187275 0.429 170 84 255
2.428467 -18.318048 0.424 170 84 255
2.387171 -18.161205 0.446 170 84 255
2.468037 -18.172106 0.436 170 84 255
2.420902 -18.313072 0.426 170 84 255
2.592112 -18.146662 0.426 170 84 255
2.570846 -18.120113 0.431 170 84 255
2.35288 -18.083128 0.459 170 84 255
2.352528 -18.070602 0.46 170 84 255
2.413562 -18.219545 0.437 170 84 255
2.553624 -18.208981 0.423 170 84 255
2.55082 -18.166027 0.429 170 84 255
2.388859 -18.292255 0.431 170 84 255
2.403039 -18.191738 0.441 170 84 255
2.549253 -18.195532 0.425 170 84 255
2.544837 -18.129309 0.433 170 84 255
2.512841 -18.161266 0.433 170 84 255
2.442397 -18.191589 0.437 170 84 255
2.500066 -18.135677 0.437 170 84 255
2.381303 -18.168318 0.446 170 84 255
2.528913 -18.164965 0.431 170 84 255
2.51879 -18.202456 0.428 170 84 255
2.569666 -18.157673 0.427 170 84 255
2.361926 -18.06978 0.459 170 84 255
2.500363 -18.21439 0.428 170 84 255
2.395236 -18.218065 0.439 170 84 255
2.481682 -18.259867 0.425 170 84 255
2.525243 -18.236048 0.423 170 84 255
2.433118 -18.17676 0.44 170 84 255
2.510686 -18.209549 0.428 170 84 255
2.535808 -18.140421 0.433 170 84 255
2.463484 -18.123772 0.442 170 84 255
2.468473 -18.17345 0.436 170 84 255
2.424686 -18.28582 0.428 170 84 255
2.371791 -18.361 0.426 170 84 255
2.474676 -18.181101 0.435 170 84 255
2.52268 -18.102306 0.438 170 84 255
2.48455 -18.11767 0.441 170 84 255
2.387158 -18.10396 0.452 170 84 255
2.460705 -18.195307 0.435 170 84 255
2.3549 -18.052732 0.462 170 84 255
2.410774 -18.174355 0.442 170 84 255
2.406625 -18.131836 0.447 170 84 255
2.462406 -18.147913 0.44 170 84 255
2.430003 -18.233534 0.434 170 84 255
2.37112 -18.095789 0.455 170 84 255
2.444008 -18.214857 0.434 170 84 255
2.494432 -18.170965 0.434 170 84 255
2.442719 -18.149105 0.442 170 84 255
2.404915 -18.298191 0.429 170 84 255
2.436448 -18.1504 0.442 170 84 255
2.507996 -18.210424 0.428 170 84 255
2.398657 -18.121042 0.449 170 84 255
2.371074 -18.278704 0.435 170 84 255
2.377438 -18.147268 0.449 170 84 255
2.457031 -18.090181 0.447 170 84 255
2.414581 -18.085386 0.452 170 84 255
2.454773 -18.15188 0.44 170 84 255
2.460683 -18.257023 0.428 170 84 255
2.428311 -18.161966 0.442 170 84 255
2.510482 -18.236382 0.425 170 84 255
2.499829 -18.166981 0.434 170 84 255
2.387531 -18.290457 0.432 170 84 255
2.501662 -18.16118 0.434 170 84 255
2.531956 -18.176617 0.429 170 84 255
2.479522 -18.131943 0.44 170 84 255
2.435121 -18.1486 0.442 170 84 255
2.493664 -18.095379 0.442 170 84 255
2.441514 -18.307861 0.424 170 84 255
2.401558 -18.210062 0.439 170 84 255
2.399742 -18.213627 0.439 170 84 255
2.409603 -18.092951 0.451 170 84 255
2.357433 -18.131464 0.453 170 84 255
2.210793 -18.419258 0.433 170 84 255
2.308957 -18.449074 0.368 170 84 255
2.258993 -18.432594 0.401 170 84 255
2.213955 -18.415257 0.431 170 84 255
2.226798 -18.431902 0.422 170 84 255
2.248114 -18.451742 0.408 170 84 255
2.20639 -18.41028 0.437 170 84 255
2.20992 -18.416569 0.434 170 84 255
2.2211 -18.416653 0.426 170 84 255
2.259464 -18.429468 0.401 170 84 255
2.283907 -18.449778 0.384 170 84 255
2.315648 -18.451361 0.363 170 84 255
2.306705 -18.451292 0.369 170 84 255
2.276728 -18.452854 0.389 170 84 255
2.21698 -18.429144 0.429 170 84 255
2.235708 -18.436441 0.416 170 84 255
2.212644 -18.411222 0.432 170 84 255
2.236162 -18.435551 0.416 170 84 255
2.255815 -18.438831 0.403 170 84 255
2.261547 -18.449608 0.399 170 84 255
2.231724 -18.431046 0.419 170 84 255
2.268306 -18.442951 0.395 170 84 255
2.286597 -18.448904 0.382 170 84 255
2.23917 -18.451674 0.414 170 84 255
2.21219 -18.412113 0.433 170 84 255
2.257648 -18.433031 0.402 170 84 255
2.222292 -18.43634 0.425 170 84 255
2.38137 -18.395061 0.431 170 84 255
2.367819 -18.412848 0.432 170 84 255
2.400269 -18.379999 0.432 170 84 255
2.454284 -18.392931 0.441 170 84 255
2.305597 -18.420425 0.424 170 84 255
2.435993 -18.386978 0.438 170 84 255
2.364289 -18.406559 0.431 170 84 255
2.376797 -18.408443 0.433 170 84 255
2.391745 -18.383512 0.431 170 84 255
2.395258 -18.392036 0.433 170 84 255
2.377654 -18.413368 0.433 170 84 255
2.425217 -18.39271 0.437 170 84 255
2.416392 -18.376991 0.434 170 84 255
2.316408 -18.410221 0.424 170 84 255
2.416392 -18.376991 0.434 170 84 255
2.439609 -18.382086 0.438 170 84 255
2.479369 -18.387756 0.444 170 84 255
2.259833 -18.439756 0.421 170 84 255
2.387273 -18.383478 0.431 170 84 255
2.347763 -18.403749 0.428 170 84 255
2.379941 -18.406679 0.433 170 84 255
2.391273 -18.386639 0.432 170 84 255
2.341492 -18.405045 0.427 170 84 255
2.348619 -18.408676 0.429 170 84 255
2.482059 -18.386881 0.444 170 84 255
2.382159 -18.408932 0.433 170 84 255
2.274696 -18.426004 0.421 170 84 255
2.413515 -18.40246 0.437 170 84 255
2.366593 -18.397633 0.43 170 84 255
2.379219 -18.383863 0.43 170 84 255
2.353092 -18.40871 0.429 170 84 255
2.424814 -18.386894 0.436 170 84 255
2.387693 -18.38706 0.431 170 84 255
2.328479 -18.410761 0.426 170 84 255
2.427538 -18.381548 0.436 170 84 255
2.337962 -18.398756 0.426 170 84 255
2.366797 -18.3708 0.426 170 84 255
2.393828 -18.403652 0.434 170 84 255
2.288061 -18.432814 0.424 170 84 255
2.349999 -18.403769 0.428 170 84 255
2.459716 -18.384476 0.441 170 84 255
2.391138 -18.404528 0.434 170 84 255
2.387744 -18.380352 0.43 170 84 255
2.286716 -18.43325 0.423 170 84 255
2.357717 -18.38862 0.427 170 84 255
2.327538 -18.417013 0.427 170 84 255
2.438263 -18.382524 0.438 170 84 255
2.397511 -18.389816 0.433 170 84 255
2.348132 -18.41404 0.429 170 84 255
2.391189 -18.39782 0.433 170 84 255
2.31143 -18.417786 0.425 170 84 255
2.435993 -18.386978 0.438 170 84 255
2.45252 -18.389788 0.44 170 84 255
2.401478 -18.397449 0.434 170 84 255
2.297005 -18.432882 0.425 170 84 255
2.44319 -18.381666 0.438 170 84 255
2.37162 -18.38336 0.429 170 84 255
2.378884 -18.369102 0.428 170 84 255
2.30689 -18.426697 0.425 170 84 255
2.348098 -18.418512 0.43 170 84 255
2.414173 -18.374739 0.433 170 84 255
2.30911 -18.428949 0.426 170 84 255
2.422107 -18.390003 0.436 170 84 255
2.394906 -18.379511 0.431 170 84 255
2.303713 -18.432934 0.426 170 84 255
2.326697 -18.409851 0.426 170 84 255
2.302521 -18.413246 0.423 170 84 255
2.362155 -18.393127 0.428 170 84 255
2.391376 -18.373222 0.43 170 84 255
2.429104 -18.352043 0.431 170 84 255
2.466229 -18.292397 0.424 170 84 255
2.636713 -18.162653 0.421 170 84 255
2.535311 -18.264746 0.427 170 84 255
2.586104 -18.231142 0.427 170 84 255
2.519994 -18.279387 0.428 170 84 255
2.458141 -18.297255 0.424 170 84 255
2.455384 -18.307072 0.426 170 84 255
2.616487 -18.175917 0.421 170 84 255
2.462041 -18.313831 0.428 170 84 255
2.494168 -18.323467 0.434 170 84 255
2.480735 -18.325602 0.432 170 84 255
2.414847 -18.344778 0.428 170 84 255
2.531964 -18.293343 0.433 170 84 255
2.549436 -18.230417 0.423 170 84 255
2.476989 -18.2889 0.425 170 84 255
2.465134 -18.318773 0.429 170 84 255
2.54572 -18.248724 0.426 170 84 255
2.477303 -18.365379 0.44 170 84 255
2.633989 -18.167999 0.421 170 84 255
2.499281 -18.298014 0.429 170 84 255
2.404104 -18.346039 0.427 170 84 255
2.454238 -18.340158 0.432 170 84 255
2.542456 -18.266142 0.429 170 84 255
2.470697 -18.351912 0.436 170 84 255
2.421237 -18.327833 0.425 170 84 255
2.447008 -18.349943 0.433 170 84 255
2.48539 -18.360519 0.44 170 84 255
2.594173 -18.228519 0.428 170 84 255
2.448672 -18.366503 0.436 170 84 255
2.620369 -18.194729 0.425 170 84 255
2.572149 -18.243111 0.428 170 84 255
2.564783 -18.270782 0.432 170 84 255
2.432451 -18.323446 0.426 170 84 255
2.440084 -18.319479 0.426 170 84 255
2.568669 -18.230114 0.425 170 84 255
2.57847 -18.235109 0.427 170 84 255
2.545113 -18.269739 0.43 170 84 255
2.446453 -18.36425 0.435 170 84 255
2.572466 -18.260109 0.431 170 84 255
2.50335 -18.292231 0.429 170 84 255
2.493175 -18.33643 0.436 170 84 255
2.470981 -18.373381 0.44 170 84 255
2.435896 -18.340914 0.43 170 84 255
2.486717 -18.36232 0.44 170 84 255
2.501199 -18.281034 0.426 170 84 255
2.393764 -18.353117 0.427 170 84 255
2.439982 -18.332895 0.429 170 84 255
2.476598 -18.340328 0.434 170 84 255
2.53383 -18.283072 0.431 170 84 255
2.41562 -18.360884 0.431 170 84 255
2.493277 -18.323013 0.433 170 84 255
2.443394 -18.354836 0.433 170 84 255
2.491767 -18.286329 0.426 170 84 255
2.602345 -18.212481 0.426 170 84 255
2.411669 -18.351015 0.428 170 84 255
2.556428 -18.251936 0.428 170 84 255
2.475555 -18.359999 0.438 170 84 255
2.488674 -18.281387 0.425 170 84 255
2.450844 -18.315983 0.427 170 84 255
2.549936 -18.282297 0.433 170 84 255
2.471388 -18.319717 0.43 170 84 255
2.426261 -18.373041 0.435 170 84 255
2.57472 -18.257889 0.431 170 84 255
2.529409 -18.276327 0.429 170 84 255
2.437407 -18.377598 0.437 170 84 255
2.492726 -18.27784 0.425 170 84 255
2.488029 -18.366354 0.441 170 84 255
2.459788 -18.31605 0.428 170 84 255
2.524721 -18.245882 0.423 170 84 255
2.501283 -18.269854 0.424 170 84 255
2.502993 -18.339188 0.438 170 84 255
2.439392 -18.351675 0.432 170 84 255
2.558851 -18.227358 0.423 170 84 255
2.490905 -18.340885 0.436 170 84 255
2.509282 -18.335657 0.438 170 84 255
2.54883 -18.251431 0.427 170 84 255
2.542456 -18.266142 0.429 170 84 255
2.497685 -18.272511 0.424 170 84 255
2.528315 -18.302706 0.434 170 84 255
2.484265 -18.33189 0.434 170 84 255
2.496136 -18.299778 0.429 170 84 255
2.477621 -18.382376 0.443 170 84 255
2.477324 -18.303661 0.428 170 84 255
2.492636 -18.348499 0.438 170 84 255
2.507754 -18.301208 0.431 170 84 255
2.578805 -18.24987 0.43 170 84 255
2.507063 -18.333403 0.437 170 84 255
2.408661 -18.334892 0.425 170 84 255
2.55757 -18.278332 0.433 170 84 255
2.493833 -18.308706 0.431 170 84 255
2.510966 -18.290499 0.429 170 84 255
2.408525 -18.352781 0.428 170 84 255
2.472377 -18.366236 0.439 170 84 255
2.5532 -18.264881 0.43 170 84 255
2.495547 -18.318558 0.433 170 84 255
2.436856 -18.332424 0.428 170 84 255
2.453835 -18.334341 0.431 170 84 255
2.498203 -18.322155 0.434 170 84 255
2.527611 -18.277657 0.429 170 84 255
2.48018 -18.339909 0.435 170 84 255
2.527174 -18.276312 0.429 170 84 255
2.478075 -18.381485 0.443 170 84 255
2.493459 -18.357899 0.44 170 84 255
2.469453 -18.338932 0.433 170 84 255
2.549096 -18.275137 0.431 170 84 255
2.478966 -18.381939 0.443 170 84 255
2.519235 -18.320528 0.436 170 84 255
2.42596 -18.353807 0.431 170 84 255
2.496705 -18.342716 0.438 170 84 255
2.48637 -18.290314 0.426 170 84 255
2.562546 -18.270767 0.432 170 84 255
2.613258 -18.188862 0.423 170 84 255
2.570031 -18.227442 0.425 170 84 255
2.602782 -18.213827 0.426 170 84 255
2.385207 -18.361101 0.427 170 84 255
2.482403 -18.282681 0.424 170 84 255
2.527288 -18.320141 0.437 170 84 255
2.526754 -18.27273 0.428 170 84 255
2.578941 -18.231981 0.427 170 84 255
2.453245 -18.353121 0.434 170 84 255
2.585819 -18.209673 0.423 170 84 255
2.545918 -18.281374 0.432 170 84 255
2.53583 -18.314392 0.437 170 84 255
2.498157 -18.269382 0.424 170 84 255
2.485359 -18.305511 0.429 170 84 255
2.518315 -18.265064 0.425 170 84 255
2.594427 -18.194981 0.422 170 84 255
2.546304 -18.289427 0.434 170 84 255
2.518798 -18.319181 0.436 170 84 255
2.387409 -18.365591 0.428 170 84 255
2.454459 -18.31109 0.426 170 84 255
2.500184 -18.355713 0.44 170 84 255
2.528752 -18.304052 0.434 170 84 255
2.4572 -18.303509 0.425 170 84 255
2.41688 -18.371628 0.433 170 84 255
2.454544 -18.29991 0.424 170 84 255
2.543165 -18.23171 0.422 170 84 255
2.585615 -18.236506 0.428 170 84 255
2.495012 -18.271149 0.424 170 84 255
2.489056 -18.348921 0.438 170 84 255
2.474579 -18.370724 0.44 170 84 255
2.452439 -18.341486 0.432 170 84 255
2.562415 -18.229174 0.424 170 84 255
2.466526 -18.371111 0.439 170 84 255
2.471269 -18.335369 0.433 170 84 255
2.484464 -18.364538 0.44 170 84 255
2.496489 -18.312304 0.432 170 84 255
2.502051 -18.34544 0.439 170 84 255
2.46451 -18.342026 0.434 170 84 255
2.398708 -18.350023 0.427 170 84 255
2.550828 -18.282753 0.433 170 84 255
2.519808 -18.303984 0.433 170 84 255
2.544239 -18.26705 0.429 170 84 255
2.434903 -18.353876 0.432 170 84 255
2.561491 -18.233191 0.425 170 84 255
2.46547 -18.333534 0.432 170 84 255
2.468884 -18.295994 0.425 170 84 255
2.493328 -18.316305 0.432 170 84 255
2.568079 -18.248894 0.428 170 84 255
2.587953 -18.223106 0.426 170 84 255
2.540051 -18.288485 0.432 170 84 255
2.579782 -18.239143 0.428 170 84 255
2.518628 -18.341541 0.44 170 84 255
2.52218 -18.286112 0.43 170 84 255
2.494622 -18.322577 0.433 170 84 255
2.551031 -18.25592 0.428 170 84 255
2.412696 -18.333582 0.425 170 84 255
2.416476 -18.36581 0.432 170 84 255
2.433626 -18.345369 0.43 170 84 255
2.344012 -18.426531 0.429 170 84 255
2.434865 -18.41783 0.432 170 84 255
2.43915 -18.442459 0.422 170 84 255
2.516672 -18.422476 0.43 170 84 255
2.295978 -18.450317 0.419 170 84 255
2.379249 -18.438873 0.424 170 84 255
2.513176 -18.411715 0.434 170 84 255
2.561745 -18.435339 0.425 170 84 255
2.399946 -18.422483 0.431 170 84 255
2.554129 -18.437071 0.424 170 84 255
2.483552 -18.4258 0.429 170 84 255
2.488746 -18.448648 0.42 170 84 255
2.488699 -18.395876 0.441 170 84 255
2.520538 -18.443523 0.422 170 84 255
2.508233 -18.414808 0.433 170 84 255
2.43604 -18.439753 0.423 170 84 255
2.484261 -18.391371 0.443 170 84 255
2.45356 -18.4296 0.428 170 84 255
2.534645 -18.41143 0.435 170 84 255
2.512774 -18.405897 0.437 170 84 255
2.446414 -18.428202 0.428 170 84 255
2.372121 -18.435242 0.425 170 84 255
2.562653 -18.433558 0.426 170 84 255
2.381502 -18.436653 0.425 170 84 255
2.508904 -18.44433 0.421 170 84 255
2.456822 -18.412182 0.435 170 84 255
2.421381 -18.426672 0.429 170 84 255
2.47757 -18.389084 0.444 170 84 255
2.348751 -18.45027 0.419 170 84 255
2.48241 -18.399406 0.44 170 84 255
2.459597 -18.400127 0.439 170 84 255
2.284883 -18.439051 0.424 170 84 255
2.317549 -18.436617 0.425 170 84 255
2.431115 -18.440609 0.423 170 84 255
2.424996 -18.42178 0.431 170 84 255
2.552028 -18.419165 0.432 170 84 255
2.344313 -18.445765 0.421 170 84 255
2.416909 -18.426638 0.429 170 84 255
2.455125 -18.400093 0.439 170 84 255
2.444547 -18.438475 0.424 170 84 255
2.498432 -18.409815 0.436 170 84 255
2.426375 -18.41687 0.433 170 84 255
2.41326 -18.436001 0.425 170 84 255
2.498971 -18.397743 0.44 170 84 255
2.40746 -18.434168 0.426 170 84 255
2.397943 -18.450644 0.419 170 84 255
2.480612 -18.400734 0.439 170 84 255
2.570739 -18.428699 0.427 170 84 255
2.407897 -18.435513 0.425 170 84 255
2.363597 -18.438755 0.424 170 84 255
2.482428 -18.397171 0.441 170 84 255
2.288817 -18.451157 0.419 170 84 255
2.393976 -18.44301 0.422 170 84 255
2.319263 -18.446468 0.421 170 84 255
2.44423 -18.421478 0.431 170 84 255
2.502989 -18.398668 0.44 170 84 255
2.487116 -18.427618 0.428 170 84 255
2.455223 -18.446159 0.421 170 84 255
2.305359 -18.451729 0.419 170 84 255
2.50139 -18.432646 0.426 170 84 255
2.501593 -18.405813 0.437 170 84 255
2.444666 -18.422823 0.43 170 84 255
2.582692 -18.444891 0.421 170 84 255
2.521479 -18.437269 0.424 170 84 255
2.500583 -18.421011 0.431 170 84 255
2.463797 -18.435938 0.425 170 84 255
2.273619 -18.450146 0.419 170 84 255
2.520101 -18.442179 0.422 170 84 255
2.571495 -18.447041 0.42 170 84 255
2.475011 -18.431551 0.427 170 84 255
2.423146 -18.429815 0.427 170 84 255
2.44717 -18.446545 0.421 170 84 255
2.385168 -18.425055 0.43 170 84 255
2.445273 -18.401808 0.439 170 84 255
2.475028 -18.429314 0.428 170 84 255
2.377013 -18.438856 0.424 170 84 255
2.483064 -18.431164 0.427 170 84 255
2.471078 -18.419445 0.432 170 84 255
2.292028 -18.440447 0.423 170 84 255
2.429333 -18.439701 0.423 170 84 255
2.361294 -18.447681 0.42 170 84 255
2.384193 -18.43578 0.425 170 84 255
2.546899 -18.446854 0.42 170 84 255
2.497405 -18.427248 0.428 170 84 255
2.55406 -18.446014 0.42 170 84 255
2.423935 -18.443686 0.422 170 84 255
2.559929 -18.438904 0.424 170 84 255
2.369028 -18.430298 0.427 170 84 255
2.498212 -18.438883 0.424 170 84 255
2.565224 -18.448336 0.42 170 84 255
2.473195 -18.435114 0.425 170 84 255
2.361798 -18.440083 0.423 170 84 255
2.42049 -18.426218 0.429 170 84 255
2.459343 -18.433668 0.426 170 84 255
2.382949 -18.422802 0.43 170 84 255
2.414504 -18.44898 0.42 170 84 255
2.491033 -18.441957 0.422 170 84 255
2.455158 -18.395622 0.441 170 84 255
2.513227 -18.405006 0.437 170 84 255
2.37888 -18.428585 0.428 170 84 255
2.493676 -18.388311 0.444 170 84 255
2.547336 -18.4482 0.42 170 84 255
2.2907 -18.438648 0.424 170 84 255
2.441675 -18.404463 0.438 170 84 255
2.370759 -18.437914 0.424 170 84 255
2.515242 -18.434092 0.426 170 84 255
2.508704 -18.41168 0.435 170 84 255
2.503069 -18.446968 0.42 170 84 255
2.455342 -18.430508 0.427 170 84 255
2.44448 -18.447418 0.42 170 84 255
2.334898 -18.448824 0.42 170 84 255
2.449137 -18.422857 0.43 170 84 255
2.463746 -18.442646 0.422 170 84 255
2.456987 -18.449303 0.42 170 84 255
2.253477 -18.45223 0.419 170 84 255
2.47076 -18.402449 0.438 170 84 255
2.387455 -18.418364 0.432 170 84 255
2.41612 -18.412767 0.434 170 84 255
2.418793 -18.414129 0.434 170 84 255
2.343036 -18.437258 0.425 170 84 255
2.580893 -18.446218 0.421 170 84 255
2.302788 -18.436951 0.425 170 84 255
2.4834 -18.445925 0.421 170 84 255
2.552011 -18.421402 0.43 170 84 255
2.516388 -18.401007 0.439 170 84 255
2.54473 -18.437893 0.424 170 84 255
2.467713 -18.450279 0.419 170 84 255
2.40309 -18.420717 0.431 170 84 255
2.434076 -18.403959 0.438 170 84 255
2.472826 -18.424826 0.429 170 84 255
2.466589 -18.421648 0.431 170 84 255
2.470001 -18.443588 0.422 170 84 255
2.414792 -18.410967 0.435 170 84 255
2.394426 -18.5016 0.381 170 84 255
2.336477 -18.476564 0.384 170 84 255
2.27661 -18.468506 0.411 170 84 255
2.316943 -18.457632 0.371 170 84 255
2.399755 -18.506559 0.383 170 84 255
2.476063 -18.528606 0.365 170 84 255
2.253006 -18.455357 0.408 170 84 255
2.364081 -18.492872 0.389 170 84 255
2.30936 -18.454891 0.372 170 84 255
2.300399 -18.457058 0.38 170 84 255
2.5848 -18.579521 0.366 170 84 255
2.4011 -18.506124 0.382 170 84 255
2.460377 -18.532959 0.381 170 84 255
2.36361 -18.496 0.392 170 84 255
2.413155 -18.508898 0.378 170 84 255
2.366401 -18.481709 0.371 170 84 255
2.51172 -18.544531 0.363 170 84 255
2.287857 -18.459646 0.392 170 84 255
2.324037 -18.465734 0.376 170 84 255
2.417122 -18.516531 0.386 170 84 255
2.441297 -18.513138 0.366 170 84 255
2.273936 -18.467144 0.411 170 84 255
2.48314 -18.538946 0.374 170 84 255
2.299003 -18.464203 0.391 170 84 255
2.40522 -18.493631 0.362 170 84 255
2.477409 -18.52817 0.364 170 84 255
2.420821 -18.50046 0.363 170 84 255
2.374824 -18.491611 0.38 170 84 255
2.374739 -18.502792 0.396 170 84 255
2.547378 -18.560453 0.363 170 84 255
2.559381 -18.569937 0.368 170 84 255
2.311461 -18.472795 0.394 170 84 255
2.495178 -18.543957 0.374 170 84 255
2.278913 -18.459579 0.397 170 84 255
2.32545 -18.456354 0.363 170 84 255
2.37084 -18.486216 0.374 170 84 255
2.480451 -18.53982 0.378 170 84 255
2.332845 -18.48369 0.396 170 84 255
2.313832 -18.454924 0.369 170 84 255
2.38782 -18.488132 0.366 170 84 255
2.612001 -18.590014 0.362 170 84 255
2.277972 -18.465832 0.407 170 84 255
2.494707 -18.547083 0.378 170 84 255
2.521959 -18.550869 0.367 170 84 255
2.345404 -18.478867 0.38 170 84 255
2.479593 -18.534895 0.371 170 84 255
2.337333 -18.481489 0.389 170 84 255
2.426553 -18.511236 0.373 170 84 255
2.324473 -18.467081 0.379 170 84 255
2.298147 -18.459278 0.385 170 84 255
2.35386 -18.484299 0.383 170 84 255
2.354381 -18.474463 0.37 170 84 255
2.413557 -18.514715 0.386 170 84 255
2.331215 -18.46266 0.367 170 84 255
2.361861 -18.49062 0.387 170 84 255
2.349472 -18.473083 0.37 170 84 255
2.319565 -18.4657 0.379 170 84 255
2.510376 -18.544968 0.365 170 84 255
2.542889 -18.562656 0.369 170 84 255
2.324542 -18.458136 0.366 170 84 255
2.421258 -18.501804 0.364 170 84 255
2.27888 -18.46405 0.403 170 84 255
2.392661 -18.498457 0.377 170 84 255
2.412212 -18.515152 0.388 170 84 255
2.460377 -18.532959 0.382 170 84 255
2.463521 -18.531195 0.377 170 84 255
2.297221 -18.463295 0.391 170 84 255
2.324491 -18.464844 0.375 170 84 255
2.316336 -18.478647 0.4 170 84 255
2.36198 -18.474968 0.366 170 84 255
2.294935 -18.469986 0.401 170 84 255
2.341403 -18.475706 0.379 170 84 255
2.405504 -18.5151 0.391 170 84 255
2.289657 -18.458319 0.389 170 84 255
2.339705 -18.463617 0.364 170 84 255
2.301693 -18.463329 0.388 170 84 255
2.522833 -18.553558 0.369 170 84 255
2.419811 -18.515657 0.384 170 84 255
2.327651 -18.460844 0.368 170 84 255
2.399738 -18.508797 0.388 170 84 255
2.268153 -18.463074 0.409 170 84 255
2.351556 -18.493225 0.396 170 84 255
2.425174 -18.516146 0.381 170 84 255
2.504593 -18.540899 0.364 170 84 255
2.327028 -18.484095 0.4 170 84 255
2.376185 -18.488939 0.375 170 84 255
2.323179 -18.46081 0.371 170 84 255
2.310535 -18.476812 0.4 170 84 255
2.347538 -18.4923 0.397 170 84 255
2.344127 -18.47036 0.37 170 84 255
2.371663 -18.495613 0.387 170 84 255
2.318758 -18.454067 0.364 170 84 255
2.340109 -18.469435 0.371 170 84 255
2.521016 -18.557123 0.375 170 84 255
2.425208 -18.511673 0.375 170 84 255
2.378019 -18.483139 0.365 170 84 255
2.47154 -18.53528 0.377 170 84 255
2.360046 -18.494183 0.393 170 84 255
2.290598 -18.452065 0.38 170 84 255
2.26237 -18.459005 0.408 170 84 255
2.319076 -18.471064 0.387 170 84 255
2.325432 -18.45859 0.366 170 84 255
2.526867 -18.552248 0.365 170 84 255
2.465371 -18.523159 0.364 170 84 255
2.327617 -18.465315 0.374 170 84 255
2.345739 -18.493628 0.4 170 84 255
2.418046 -18.512514 0.38 170 84 255
2.277551 -18.462252 0.402 170 84 255
2.303072 -18.45842 0.38 170 84 255
2.4301 -18.515287 0.376 170 84 255
2.392678 -18.49622 0.374 170 84 255
2.586048 -18.53302 0.386 170 84 255
2.499739 -18.47333 0.41 170 84 255
2.435281 -18.48089 0.407 170 84 255
2.337016 -18.464493 0.414 170 84 255
2.614315 -18.462124 0.414 170 84 255
2.613639 -18.492085 0.402 170 84 255
2.317397 -18.456739 0.417 170 84 255
2.54025 -18.556822 0.376 170 84 255
2.351374 -18.45834 0.416 170 84 255
2.591161 -18.507566 0.396 170 84 255
2.450144 -18.46714 0.412 170 84 255
2.445302 -18.456816 0.416 170 84 255
2.520517 -18.505241 0.397 170 84 255
2.491193 -18.538561 0.383 170 84 255
2.430724 -18.492037 0.402 170 84 255
2.431886 -18.456715 0.417 170 84 255
2.43363 -18.521576 0.39 170 84 255
2.50831 -18.522591 0.39 170 84 255
2.430622 -18.505453 0.397 170 84 255
2.563205 -18.478731 0.407 170 84 255
2.600711 -18.48662 0.404 170 84 255
2.255696 -18.454483 0.417 170 84 255
2.415814 -18.453014 0.418 170 84 255
2.369716 -18.457584 0.416 170 84 255
2.429935 -18.478167 0.408 170 84 255
2.562763 -18.536867 0.384 170 84 255
2.57561 -18.494032 0.401 170 84 255
2.368621 -18.483963 0.406 170 84 255
2.49385 -18.542158 0.382 170 84 255
2.561214 -18.564137 0.373 170 84 255
2.266388 -18.45993 0.415 170 84 255
2.429646 -18.51618 0.393 170 84 255
2.50424 -18.528374 0.388 170 84 255
2.418585 -18.500443 0.399 170 84 255
2.568533 -18.483692 0.406 170 84 255
2.456028 -18.457792 0.416 170 84 255
2.614407 -18.567671 0.372 170 84 255
2.472419 -18.478489 0.408 170 84 255
2.401133 -18.501652 0.398 170 84 255
2.604406 -18.530027 0.387 170 84 255
2.538171 -18.4772 0.408 170 84 255
2.435786 -18.473291 0.41 170 84 255
2.527024 -18.472643 0.41 170 84 255
2.503604 -18.494379 0.401 170 84 255
2.52097 -18.504351 0.397 170 84 255
2.573387 -18.55126 0.378 170 84 255
2.479326 -18.511189 0.394 170 84 255
2.525136 -18.544632 0.381 170 84 255
2.474451 -18.505339 0.397 170 84 255
2.494897 -18.463007 0.414 170 84 255
2.469962 -18.507542 0.396 170 84 255
2.539652 -18.458874 0.415 170 84 255
2.466619 -18.476658 0.408 170 84 255
2.586264 -18.563433 0.373 170 84 255
2.45384 -18.510548 0.395 170 84 255
2.544841 -18.541204 0.382 170 84 255
2.298028 -18.47493 0.409 170 84 255
2.525692 -18.530325 0.387 170 84 255
2.543377 -18.557293 0.376 170 84 255
2.373211 -18.468344 0.412 170 84 255
2.56258 -18.501982 0.398 170 84 255
2.403154 -18.471254 0.411 170 84 255
2.387786 -18.492605 0.402 170 84 255
2.284243 -18.464539 0.414 170 84 255
2.37042 -18.482635 0.406 170 84 255
2.563921 -18.561026 0.374 170 84 255
2.551884 -18.556015 0.376 170 84 255
2.45389 -18.503841 0.397 170 84 255
2.402365 -18.457384 0.416 170 84 255
2.549398 -18.530058 0.387 170 84 255
2.494121 -18.506382 0.396 170 84 255
2.539813 -18.555477 0.377 170 84 255
2.534654 -18.528156 0.388 170 84 255
2.523286 -18.552668 0.378 170 84 255
2.524908 -18.456974 0.416 170 84 255
2.3911 -18.468481 0.412 170 84 255
2.400782 -18.489126 0.404 170 84 255
2.600779 -18.477674 0.408 170 84 255
2.479194 -18.469597 0.411 170 84 255
2.581648 -18.46456 0.413 170 84 255
2.456733 -18.482841 0.406 170 84 255
2.439906 -18.4608 0.415 170 84 255
2.59691 -18.516108 0.392 170 84 255
2.40581 -18.474854 0.409 170 84 255
2.584924 -18.504389 0.397 170 84 255
2.386679 -18.461739 0.415 170 84 255
2.600774 -18.537157 0.384 170 84 255
2.340007 -18.482851 0.406 170 84 255
2.420201 -18.464228 0.414 170 84 255
2.592408 -18.461065 0.414 170 84 255
2.527899 -18.475332 0.409 170 84 255
2.442524 -18.528351 0.388 170 84 255
2.554022 -18.509968 0.395 170 84 255
2.385618 -18.483644 0.406 170 84 255
2.519863 -18.473482 0.41 170 84 255
2.381366 -18.454542 0.417 170 84 255
2.245391 -18.457088 0.417 170 84 255
2.618158 -18.544891 0.381 170 84 255
2.608985 -18.457165 0.416 170 84 255
2.576798 -18.573198 0.37 170 84 255
2.611852 -18.550657 0.379 170 84 255
2.577931 -18.482868 0.406 170 84 255
2.599714 -18.559061 0.375 170 84 255
2.61481 -18.573488 0.369 170 84 255
2.548188 -18.512608 0.394 170 84 255
2.554408 -18.518021 0.392 170 84 255
2.317664 -18.480444 0.407 170 84 255
2.455978 -18.4645 0.413 170 84 255
2.346647 -18.491846 0.402 170 84 255
2.547654 -18.465197 0.413 170 84 255
2.406917 -18.50572 0.397 170 84 255
2.515476 -18.462269 0.414 170 84 255
2.526651 -18.521835 0.39 170 84 255
2.591432 -18.47179 0.41 170 84 255
2.349002 -18.476212 0.409 170 84 255
2.527763 -18.493221 0.402 170 84 255
2.350062 -18.454306 0.418 170 84 255
2.480994 -18.468269 0.412 170 84 255
2.396208 -18.502508 0.398 170 84 255
2.589934 -18.492352 0.402 170 84 255
2.48432 -18.501389 0.399 170 84 255
2.541735 -18.479015 0.408 170 84 255
2.509875 -18.493086 0.402 170 84 255
2.513655 -18.525314 0.389 170 84 255
2.513235 -18.521734 0.39 170 84 255
2.548439 -18.538548 0.383 170 84 255
2.41245 -18.483849 0.406 170 84 255
2.2946 -18.455227 0.418 170 84 255
2.280678 -18.462723 0.414 170 84 255
2.512583 -18.489975 0.403 170 84 255
2.293691 -18.457008 0.417 170 84 255
2.461473 -18.506582 0.397 170 84 255
2.411694 -18.465506 0.413 170 84 255
2.307091 -18.459345 0.415 170 84 255
2.537314 -18.472275 0.41 170 84 255
2.281115 -18.464067 0.414 170 84 255
2.506731 -18.49485 0.401 170 84 255
2.527894 -18.534813 0.385 170 84 255
2.478134 -18.491503 0.402 170 84 255
2.581478 -18.486919 0.404 170 84 255
2.498513 -18.458115 0.416 170 84 255
2.58015 -18.485121 0.405 170 84 255
2.561758 -18.492584 0.402 170 84 255
2.616342 -18.548454 0.38 170 84 255
2.442091 -18.467525 0.412 170 84 255
2.401151 -18.499414 0.399 170 84 255
2.435548 -18.504597 0.397 170 84 255
2.341284 -18.491358 0.403 170 84 255
2.490722 -18.541687 0.382 170 84 255
2.360533 -18.488821 0.404 170 84 255
2.550997 -18.49608 0.4 170 84 255
2.544188 -18.509445 0.395 170 84 255
2.474417 -18.509811 0.395 170 84 255
2.598925 -18.545193 0.381 170 84 255
2.549601 -18.503225 0.398 170 84 255
2.35445 -18.465519 0.413 170 84 255
2.308787 -18.471434 0.411 170 84 255
2.608094 -18.456711 0.416 170 84 255
2.486777 -18.472338 0.41 170 84 255
2.600978 -18.510324 0.394 170 84 255
2.612761 -18.548874 0.379 170 84 255
2.603261 -18.563114 0.374 170 84 255
2.607466 -18.539442 0.383 170 84 255
2.544438 -18.535387 0.385 170 84 255
2.431853 -18.461187 0.415 170 84 255
2.509018 -18.488159 0.404 170 84 255
2.340864 -18.487778 0.404 170 84 255
2.51228 -18.470741 0.411 170 84 255
2.562479 -18.515398 0.393 170 84 255
2.461035 -18.505238 0.397 170 84 255
2.592238 -18.483423 0.406 170 84 255
2.419697 -18.471828 0.41 170 84 255
2.59113 -18.452557 0.418 170 84 255
2.60503 -18.506777 0.396 170 84 255
2.596154 -18.497766 0.4 170 84 255
2.591224 -18.558104 0.376 170 84 255
2.45848 -18.488222 0.404 170 84 255
2.282897 -18.464975 0.413 170 84 255
2.519438 -18.529383 0.387 170 84 255
2.568716 -18.518576 0.391 170 84 255
2.530618 -18.529469 0.387 170 84 255
2.505403 -18.493052 0.402 170 84 255
2.41082 -18.462816 0.414 170 84 255
2.363814 -18.469168 0.412 170 84 255
2.531004 -18.537521 0.384 170 84 255
2.563399 -18.570862 0.371 170 84 255
2.58553 -18.483374 0.405 170 84 255
2.569861 -18.485491 0.405 170 84 255
2.472754 -18.49325 0.402 170 84 255
2.604008 -18.464731 0.413 170 84 255
2.518497 -18.535637 0.385 170 84 255
2.433664 -18.517103 0.392 170 84 255
2.467561 -18.470402 0.411 170 84 255
2.479161 -18.474068 0.41 170 84 255
2.5588 -18.469753 0.411 170 84 255
2.494575 -18.505491 0.397 170 84 255
2.583175 -18.499008 0.399 170 84 255
2.513235 -18.521734 0.39 170 84 255
2.619163 -18.589174 0.363 170 84 255
2.353354 -18.491898 0.403 170 84 255
2.370755 -18.497396 0.4 170 84 255
2.563356 -18.458607 0.415 170 84 255
2.413205 -18.50219 0.398 170 84 255
2.296314 -18.465076 0.413 170 84 255
2.351607 -18.486517 0.405 170 84 255
2.492072 -18.48177 0.406 170 84 255
2.543245 -18.515699 0.393 170 84 255
2.543916 -18.545221 0.381 170 84 255
2.415844 -18.508024 0.396 170 84 255
2.448828 -18.522585 0.39 170 84 255
2.446393 -18.48992 0.403 170 84 255
2.443538 -18.453672 0.418 170 84 255
2.377178 -18.475977 0.409 170 84 255
2.568024 -18.550772 0.378 170 84 255
2.294515 -18.466406 0.413 170 84 255
2.414418 -18.460159 0.415 170 84 255
2.602336 -18.567133 0.372 170 84 255
2.523223 -18.502131 0.398 170 84 255
2.60562 -18.487997 0.404 170 84 255
2.608561 -18.513065 0.394 170 84 255
2.45557 -18.518166 0.392 170 84 255
2.490494 -18.454029 0.417 170 84 255
2.493769 -18.493856 0.401 170 84 255
2.508984 -18.492632 0.402 170 84 255
2.547327 -18.567162 0.372 170 84 255
2.534853 -18.560806 0.374 170 84 255
2.465724 -18.535685 0.385 170 84 255
2.467056 -18.478001 0.408 170 84 255
2.477947 -18.516098 0.393 170 84 255
2.273113 -18.457745 0.416 170 84 255
2.530992 -18.480276 0.407 170 84 255
2.376657 -18.485813 0.405 170 84 255
2.412818 -18.494137 0.402 170 84 255
2.563619 -18.541794 0.382 170 84 255
2.581979 -18.538801 0.383 170 84 255
2.418839 -18.466902 0.413 170 84 255
2.600461 -18.460678 0.415 170 84 255
2.341436 -18.471235 0.411 170 84 255
2.427783 -18.46697 0.412 170 84 255
2.573845 -18.490887 0.403 170 84 255
2.616359 -18.546219 0.38 170 84 255
2.502963 -18.519865 0.391 170 84 255
2.547688 -18.460724 0.415 170 84 255
2.373699 -18.462982 0.414 170 84 255
2.588538 -18.499496 0.399 170 84 255
2.566077 -18.512743 0.394 170 84 255
2.454247 -18.456884 0.416 170 84 255
2.48592 -18.467411 0.412 170 84 255
2.612154 -18.569889 0.371 170 84 255
2.345335 -18.48781 0.404 170 84 255
2.531212 -18.451208 0.418 170 84 255
2.579446 -18.460072 0.415 170 84 255
2.589866 -18.501295 0.398 170 84 255
2.535226 -18.511614 0.394 170 84 255
2.490977 -18.508146 0.396 170 84 255
2.618107 -18.5516 0.378 170 84 255
2.516617 -18.488665 0.404 170 84 255
2.417057 -18.465994 0.413 170 84 255
2.401957 -18.511049 0.395 170 84 255
2.347169 -18.482012 0.407 170 84 255
2.378978 -18.474649 0.409 170 84 255
2.617352 -18.533257 0.385 170 84 255
2.523843 -18.538361 0.384 170 84 255
2.400328 -18.490017 0.403 170 84 255
2.509205 -18.463564 0.413 170 84 255
2.608022 -18.525135 0.389 170 84 255
2.309798 -18.456236 0.417 170 84 255
2.583141 -18.503481 0.398 170 84 255
2.443317 -18.48274 0.406 170 84 255
2.52047 -18.452467 0.418 170 84 255
2.563064 -18.556101 0.376 170 84 255
2.444882 -18.453236 0.418 170 84 255
2.492173 -18.468353 0.412 170 84 255
2.424958 -18.485733 0.405 170 84 255
2.541934 -18.511665 0.394 170 84 255
2.601602 -18.487074 0.404 170 84 255
2.543398 -18.495575 0.401 170 84 255
2.31247 -18.457598 0.416 170 84 255
2.383098 -18.462158 0.414 170 84 255
2.531175 -18.515162 0.393 170 84 255
2.587961 -18.575521 0.369 170 84 255
2.60192 -18.50407 0.397 170 84 255
2.545283 -18.483068 0.406 170 84 255
2.488809 -18.499186 0.399 170 84 255
2.571622 -18.548115 0.379 170 84 255
2.549216 -18.495173 0.401 170 84 255
2.47956 -18.539366 0.383 170 84 255
2.442039 -18.474234 0.409 170 84 255
2.400986 -18.462294 0.414 170 84 255
2.568231 -18.464458 0.413 170 84 255
2.602675 -18.522411 0.39 170 84 255
2.528569 -18.504854 0.397 170 84 255
2.4644 -18.474403 0.409 170 84 255
2.610809 -18.570328 0.37 170 84 255
2.396076 -18.460915 0.415 170 84 255
2.619248 -18.577993 0.367 170 84 255
2.544221 -18.504974 0.397 170 84 255
2.542838 -18.333675 0.436 170 84 255
2.593774 -18.398909 0.424 170 84 255
2.613983 -18.387882 0.421 170 84 255
2.575398 -18.404137 0.428 170 84 255
2.579216 -18.372414 0.428 170 84 255
2.579272 -18.306225 0.43 170 84 255
2.629797 -18.248915 0.422 170 84 255
2.6161 -18.403551 0.42 170 84 255
2.550874 -18.335526 0.435 170 84 255
2.557748 -18.372698 0.432 170 84 255
2.60918 -18.313606 0.424 170 84 255
2.5497 -18.313602 0.436 170 84 255
2.566896 -18.345934 0.431 170 84 255
2.547039 -18.369486 0.435 170 84 255
2.617759 -18.243904 0.424 170 84 255
2.580078 -18.317858 0.43 170 84 255
2.589188 -18.355047 0.427 170 84 255
2.582378 -18.368412 0.428 170 84 255
2.528209 -18.375605 0.438 170 84 255
2.598658 -18.285799 0.427 170 84 255
2.590596 -18.405146 0.425 170 84 255
2.636157 -18.17696 0.423 170 84 255
2.628668 -18.279766 0.421 170 84 255
2.585675 -18.346523 0.428 170 84 255
2.559449 -18.325304 0.433 170 84 255
2.601441 -18.390471 0.423 170 84 255
2.570294 -18.310627 0.432 170 84 255
2.596939 -18.335428 0.426 170 84 255
2.540933 -18.407902 0.434 170 84 255
2.626067 -18.209978 0.424 170 84 255
2.540916 -18.410137 0.434 170 84 255
2.511598 -18.383974 0.441 170 84 255
2.590044 -18.359972 0.426 170 84 255
2.533084 -18.381454 0.437 170 84 255
2.566806 -18.416595 0.429 170 84 255
2.575852 -18.403246 0.428 170 84 255
2.567328 -18.406759 0.429 170 84 255
2.615889 -18.313658 0.423 170 84 255
2.553416 -18.295294 0.435 170 84 255
2.607929 -18.41959 0.421 170 84 255
2.563115 -18.313704 0.433 170 84 255
2.500366 -18.390598 0.443 170 84 255
2.597504 -18.437847 0.423 170 84 255
2.637871 -18.186811 0.422 170 84 255
2.618591 -18.370029 0.42 170 84 255
2.600206 -18.25853 0.427 170 84 255
2.553458 -18.407549 0.432 170 84 255
2.561765 -18.373623 0.431 170 84 255
2.52599 -18.37335 0.439 170 84 255
2.584852 -18.337126 0.428 170 84 255
2.556857 -18.372244 0.432 170 84 255
2.55387 -18.294403 0.435 170 84 255
2.561804 -18.309669 0.433 170 84 255
2.577155 -18.290556 0.431 170 84 255
2.600737 -18.365421 0.424 170 84 255
2.576323 -18.40012 0.428 170 84 255
2.625154 -18.271242 0.422 170 84 255
2.584694 -18.416731 0.426 170 84 255
2.643148 -18.198481 0.421 170 84 255
2.547153 -18.413315 0.433 170 84 255
2.576509 -18.375523 0.428 170 84 255
2.603478 -18.35784 0.424 170 84 255
2.641532 -18.234694 0.42 170 84 255
2.637922 -18.180105 0.422 170 84 255
2.556993 -18.354355 0.433 170 84 255
2.608768 -18.426752 0.421 170 84 255
2.636539 -18.244493 0.421 170 84 255
2.589934 -18.256662 0.429 170 84 255
2.623322 -18.27704 0.422 170 84 255
2.575619 -18.375069 0.429 170 84 255
2.591322 -18.368479 0.426 170 84 255
2.599977 -18.406561 0.423 170 84 255
2.603893 -18.4209 0.422 170 84 255
2.573909 -18.305737 0.431 170 84 255
2.601102 -18.43519 0.422 170 84 255
2.559687 -18.294001 0.434 170 84 255
2.581609 -18.292824 0.43 170 84 255
2.648596 -18.187788 0.42 170 84 255
2.59943 -18.301905 0.426 170 84 255
2.594453 -18.309469 0.427 170 84 255
2.594576 -18.234337 0.429 170 84 255
2.589921 -18.435106 0.424 170 84 255
2.541141 -18.321587 0.437 170 84 255
2.626873 -18.221613 0.423 170 84 255
2.580608 -18.424749 0.426 170 84 255
2.585776 -18.333107 0.428 170 84 255
2.604449 -18.406593 0.422 170 84 255
2.592242 -18.423943 0.424 170 84 255
2.536109 -18.395342 0.436 170 84 255
2.597796 -18.340353 0.425 170 84 255
2.642139 -18.213678 0.42 170 84 255
2.52683 -18.380512 0.438 170 84 255
2.591143 -18.274113 0.429 170 84 255
2.632402 -18.259222 0.421 170 84 255
2.578534 -18.285646 0.431 170 84 255
2.610347 -18.218803 0.427 170 84 255
2.608697 -18.259489 0.426 170 84 255
2.619783 -18.389715 0.42 170 84 255
2.606359 -18.272888 0.426 170 84 255
2.586951 -18.35503 0.427 170 84 255
2.605328 -18.349802 0.424 170 84 255
2.629644 -18.269039 0.421 170 84 255
2.626801 -18.290037 0.421 170 84 255
2.520627 -18.372862 0.44 170 84 255
2.614043 -18.262213 0.424 170 84 255
2.572072 -18.371017 0.429 170 84 255
2.544149 -18.337711 0.436 170 84 255
2.612698 -18.26265 0.425 170 84 255
2.553967 -18.340469 0.434 170 84 255
2.648262 -18.173027 0.42 170 84 255
2.627556 -18.30838 0.42 170 84 255
2.633611 -18.276672 0.42 170 84 255
2.524815 -18.351427 0.439 170 84 255
2.549291 -18.367266 0.434 170 84 255
2.579828 -18.291916 0.43 170 84 255
2.61644 -18.358831 0.421 170 84 255
2.563233 -18.298052 0.433 170 84 255
2.533504 -18.385036 0.437 170 84 255
2.594975 -18.299635 0.427 170 84 255
2.603914 -18.359184 0.424 170 84 255
2.560552 -18.415653 0.43 170 84 255
2.62605 -18.212214 0.424 170 84 255
2.609816 -18.347601 0.423 170 84 255
2.584376 -18.399733 0.426 170 84 255
2.559835 -18.333357 0.433 170 84 255
2.609906 -18.276939 0.425 170 84 255
2.568571 -18.419739 0.429 170 84 255
2.532948 -18.399343 0.436 170 84 255
2.60013 -18.386435 0.424 170 84 255
2.643501 -18.211004 0.42 170 84 255
2.532176 -18.383236 0.437 170 84 255
2.631506 -18.318249 0.419 170 84 255
2.590753 -18.325542 0.427 170 84 255
2.613814 -18.410242 0.42 170 84 255
2.595629 -18.331392 0.426 170 84 255
2.595645 -18.329157 0.426 170 84 255
2.613614 -18.377594 0.421 170 84 255
2.569483 -18.358475 0.43 170 84 255
2.611832 -18.376686 0.422 170 84 255
2.59158 -18.275459 0.428 170 84 255
2.625023 -18.229649 0.423 170 84 255
2.585475 -18.313873 0.429 170 84 255
2.556356 -18.320362 0.434 170 84 255
2.558342 -18.294437 0.434 170 84 255
2.634222 -18.196177 0.422 170 84 255
2.597262 -18.292944 0.427 170 84 255
2.56684 -18.412123 0.429 170 84 255
2.5982 -18.34617 0.425 170 84 255
2.603147 -18.283596 0.426 170 84 255
2.622295 -18.294476 0.422 170 84 255
2.596405 -18.288017 0.427 170 84 255
2.553382 -18.299767 0.435 170 84 255
2.599494 -18.352442 0.425 170 84 255
2.532914 -18.403814 0.436 170 84 255
2.604895 -18.288977 0.425 170 84 255
2.631647 -18.240879 0.422 170 84 255
2.559818 -18.335592 0.433 170 84 255
2.610547 -18.251453 0.425 170 84 255
2.614191 -18.301569 0.423 170 84 255
2.587859 -18.353249 0.427 170 84 255
2.572645 -18.354473 0.43 170 84 255
2.520928 -18.392096 0.439 170 84 255
2.611171 -18.228201 0.426 170 84 255
2.559059 -18.376732 0.432 170 84 255
2.563183 -18.30476 0.433 170 84 255
2.599803 -18.252712 0.427 170 84 255
2.586837 -18.311201 0.428 170 84 255
2.528492 -18.397074 0.437 170 84 255
2.643938 -18.212351 0.42 170 84 255
