ply
format ascii 1.0
element vertex 1338
property double x
property double y
property double z
property uchar red
property uchar green
property uchar blue
element face 0
property list uchar int vertex_indices
end_header
4.871349 -11.997158 2.095 170 255 0
4.984944 -12.05616 2.007 170 255 0
4.650817 -11.885914 1.927 170 255 0
4.506491 -11.810131 2.016 170 255 0
4.896281 -12.012106 1.951 170 255 0
4.663291 -11.892269 1.933 170 255 0
4.988054 -12.058867 1.975 170 255 0
4.816544 -11.970356 1.941 170 255 0
4.790704 -11.957191 2.0 170 255 0
4.761739 -11.943553 1.864 170 255 0
4.444557 -11.779696 1.868 170 255 0
4.832145 -11.977182 2.118 170 255 0
4.548351 -11.833705 1.814 170 255 0
4.864204 -11.995762 1.867 170 255 0
4.522075 -11.819194 1.917 170 255 0
4.558136 -11.840935 1.676 170 255 0
4.795597 -11.960805 1.826 170 255 0
4.438337 -11.774282 2.102 170 255 0
4.718516 -11.922653 1.666 170 255 0
4.878006 -12.003917 1.832 170 255 0
4.432974 -11.773795 1.924 170 255 0
4.895843 -12.010761 2.049 170 255 0
4.573283 -11.848653 1.681 170 255 0
4.694913 -11.909504 1.769 170 255 0
4.53053 -11.824625 1.881 170 255 0
4.670402 -11.898137 1.649 170 255 0
4.387096 -11.749297 2.001 170 255 0
4.560808 -11.842297 1.674 170 255 0
4.977362 -12.053418 1.952 170 255 0
4.45925 -11.788305 1.83 170 255 0
4.471271 -11.795552 1.713 170 255 0
4.921683 -12.023927 2.044 170 255 0
5.033059 -12.080676 2.046 170 255 0
4.400007 -11.756997 1.909 170 255 0
4.716298 -11.9204 1.771 170 255 0
4.506928 -11.811476 1.936 170 255 0
4.769321 -11.946295 1.987 170 255 0
4.685129 -11.902274 2.071 170 255 0
4.43521 -11.773812 2.017 170 255 0
4.867785 -11.995342 2.088 170 255 0
4.331853 -11.721149 1.985 170 255 0
4.409825 -11.759755 2.081 170 255 0
4.726099 -11.925393 1.768 170 255 0
4.997418 -12.062516 2.017 170 255 0
5.085628 -12.107461 2.076 170 255 0
4.369275 -11.740216 2.015 170 255 0
4.65438 -11.88773 1.893 170 255 0
4.864642 -11.997108 1.817 170 255 0
4.525639 -11.82101 1.91 170 255 0
4.762193 -11.942662 1.976 170 255 0
4.737245 -11.929951 1.897 170 255 0
4.592884 -11.85864 1.605 170 255 0
4.777794 -11.94949 2.087 170 255 0
4.527404 -11.824154 1.684 170 255 0
4.695821 -11.907722 2.031 170 255 0
4.559934 -11.839606 1.827 170 255 0
4.867332 -11.996233 1.957 170 255 0
4.954196 -12.041615 1.939 170 255 0
4.528295 -11.824608 1.722 170 255 0
4.834818 -11.978544 2.08 170 255 0
4.627651 -11.87411 1.895 170 255 0
4.589337 -11.854589 1.868 170 255 0
4.635233 -11.876851 2.035 170 255 0
4.777322 -11.952616 1.764 170 255 0
4.59243 -11.859531 1.565 170 255 0
4.903409 -12.015738 1.942 170 255 0
4.51762 -11.816924 1.988 170 255 0
4.538987 -11.830055 1.702 170 255 0
5.082954 -12.106099 2.098 170 255 0
4.616068 -11.868208 1.902 170 255 0
4.744356 -11.935819 1.689 170 255 0
4.811181 -11.969868 1.773 170 255 0
4.357255 -11.732969 2.104 170 255 0
4.624069 -11.87453 1.671 170 255 0
4.887824 -12.006675 1.968 170 255 0
4.539878 -11.830509 1.749 170 255 0
4.743465 -11.935365 1.711 170 255 0
4.739918 -11.931313 1.98 170 255 0
5.022804 -12.076572 1.997 170 255 0
4.908755 -12.018461 1.894 170 255 0
4.92481 -12.024398 2.109 170 255 0
4.700276 -11.909992 2.018 170 255 0
4.957323 -12.042087 2.034 170 255 0
4.614285 -11.8673 1.904 170 255 0
4.788922 -11.956283 1.922 170 255 0
4.562624 -11.838733 2.038 170 255 0
4.835692 -11.981235 1.818 170 255 0
4.85084 -11.988953 1.877 170 255 0
4.908772 -12.016226 2.095 170 255 0
4.92792 -12.027104 2.066 170 255 0
4.698948 -11.908194 2.105 170 255 0
4.484216 -11.798781 2.098 170 255 0
4.800506 -11.962184 2.009 170 255 0
4.54166 -11.831417 1.706 170 255 0
4.466833 -11.791046 1.939 170 255 0
4.490453 -11.80196 1.998 170 255 0
4.780887 -11.954432 1.756 170 255 0
4.64189 -11.88361 1.646 170 255 0
4.590683 -11.854151 2.016 170 255 0
4.655692 -11.891765 1.591 170 255 0
4.706933 -11.916751 1.734 170 255 0
4.901627 -12.01483 1.907 170 255 0
4.472616 -11.795115 1.81 170 255 0
4.672217 -11.894573 2.11 170 255 0
4.567953 -11.843693 1.886 170 255 0
4.468161 -11.792846 1.816 170 255 0
5.085628 -12.107461 2.106 170 255 0
4.448122 -11.781512 1.963 170 255 0
4.639234 -11.880013 1.892 170 255 0
4.994745 -12.061154 2.025 170 255 0
4.302904 -11.705276 2.104 170 255 0
4.926575 -12.027541 1.953 170 255 0
4.262809 -11.684847 2.118 170 255 0
4.832145 -11.977182 2.096 170 255 0
4.766648 -11.944933 1.902 170 255 0
4.49489 -11.806465 1.834 170 255 0
4.359475 -11.735223 1.936 170 255 0
4.362585 -11.737929 1.928 170 255 0
4.718516 -11.922653 1.739 170 255 0
4.555916 -11.838681 1.796 170 255 0
4.706496 -11.915405 1.829 170 255 0
4.400898 -11.757451 1.944 170 255 0
4.465925 -11.792829 1.734 170 255 0
4.657054 -11.889091 1.869 170 255 0
4.518964 -11.816487 2.013 170 255 0
4.521621 -11.820086 1.82 170 255 0
4.569282 -11.845491 1.792 170 255 0
4.893171 -12.009399 2.004 170 255 0
4.422282 -11.768347 1.911 170 255 0
4.419155 -11.767876 1.835 170 255 0
4.633434 -11.878179 1.763 170 255 0
4.845057 -11.984884 2.027 170 255 0
4.639688 -11.879121 2.015 170 255 0
4.935938 -12.031191 1.999 170 255 0
4.463706 -11.790576 1.817 170 255 0
4.623213 -11.869604 2.082 170 255 0
4.687365 -11.902291 2.118 170 255 0
4.612941 -11.867737 1.814 170 255 0
5.023258 -12.075682 2.061 170 255 0
4.674403 -11.901299 1.619 170 255 0
4.870005 -11.997596 2.016 170 255 0
4.720315 -11.921325 1.978 170 255 0
4.393787 -11.751583 2.093 170 255 0
4.768867 -11.947186 1.789 170 255 0
4.498018 -11.806936 1.949 170 255 0
4.774667 -11.949018 1.972 170 255 0
4.62987 -11.876363 1.803 170 255 0
4.955541 -12.041179 1.999 170 255 0
4.723425 -11.924031 1.762 170 255 0
4.912336 -12.018042 2.086 170 255 0
4.452123 -11.784674 1.777 170 255 0
4.591994 -11.858187 1.645 170 255 0
4.497127 -11.806482 1.898 170 255 0
4.430755 -11.771543 2.06 170 255 0
4.593338 -11.857749 1.715 170 255 0
4.374622 -11.742941 1.993 170 255 0
4.880243 -12.003934 1.918 170 255 0
4.700696 -11.913573 1.712 170 255 0
4.537659 -11.828257 1.85 170 255 0
4.632122 -11.874144 2.071 170 255 0
4.424518 -11.768364 2.047 170 255 0
4.850402 -11.987608 1.998 170 255 0
4.522966 -11.819648 1.904 170 255 0
4.68333 -11.903602 1.789 170 255 0
4.411153 -11.761555 1.983 170 255 0
4.665056 -11.895413 1.714 170 255 0
4.382641 -11.747026 1.973 170 255 0
4.453467 -11.784237 1.914 170 255 0
4.589791 -11.853697 1.984 170 255 0
4.40268 -11.758359 1.931 170 255 0
4.898954 -12.013468 1.917 170 255 0
4.783577 -11.953558 1.909 170 255 0
4.587084 -11.856808 1.529 170 255 0
4.687365 -11.902291 2.107 170 255 0
4.467269 -11.792392 1.852 170 255 0
4.94574 -12.036184 2.012 170 255 0
4.734135 -11.927243 2.049 170 255 0
4.571971 -11.844617 1.941 170 255 0
4.527858 -11.823263 1.796 170 255 0
4.860657 -11.99171 2.094 170 255 0
4.632122 -11.874144 2.11 170 255 0
4.796505 -11.959023 2.036 170 255 0
4.46996 -11.791518 2.069 170 255 0
4.453905 -11.785582 1.762 170 255 0
4.558169 -11.836463 2.062 170 255 0
4.562624 -11.838733 2.11 170 255 0
4.539424 -11.831401 1.655 170 255 0
4.53586 -11.829585 1.61 170 255 0
4.681985 -11.904039 1.708 170 255 0
4.312706 -11.71027 2.041 170 255 0
4.450811 -11.780639 2.115 170 255 0
4.404915 -11.758376 1.981 170 255 0
4.491781 -11.803758 1.986 170 255 0
4.882479 -12.003951 2.02 170 255 0
4.607612 -11.862777 2.015 170 255 0
4.401789 -11.757905 1.875 170 255 0
4.823672 -11.973988 1.964 170 255 0
4.868223 -11.996688 1.949 170 255 0
4.353692 -11.731153 2.052 170 255 0
4.978707 -12.052982 2.006 170 255 0
4.612503 -11.866392 1.877 170 255 0
4.569736 -11.844601 1.882 170 255 0
4.818309 -11.9735 1.803 170 255 0
4.510929 -11.814637 1.827 170 255 0
4.390659 -11.751113 1.956 170 255 0
4.494908 -11.80423 2.106 170 255 0
4.92212 -12.025271 1.93 170 255 0
4.784014 -11.954903 1.899 170 255 0
4.528732 -11.825953 1.602 170 255 0
4.805415 -11.963563 2.087 170 255 0
4.739464 -11.932203 1.797 170 255 0
4.553243 -11.837319 1.721 170 255 0
5.010784 -12.069326 2.069 170 255 0
4.652582 -11.889058 1.639 170 255 0
4.572408 -11.845963 1.881 170 255 0
4.94574 -12.036184 2.017 170 255 0
4.790251 -11.95808 1.886 170 255 0
4.758175 -11.941737 1.858 170 255 0
4.941722 -12.035259 1.907 170 255 0
4.763974 -11.94357 1.927 170 255 0
4.598667 -11.862709 1.532 170 255 0
4.467269 -11.792392 1.859 170 255 0
4.845947 -11.985337 2.044 170 255 0
4.759066 -11.942191 1.871 170 255 0
4.571534 -11.843272 2.081 170 255 0
4.656583 -11.89222 1.614 170 255 0
4.588447 -11.854135 1.91 170 255 0
5.074935 -12.102014 2.073 170 255 0
4.57108 -11.844163 2.019 170 255 0
4.505129 -11.812804 1.696 170 255 0
4.809853 -11.968068 1.866 170 255 0
4.387096 -11.749297 1.968 170 255 0
4.329635 -11.718896 2.042 170 255 0
4.628996 -11.873672 2.024 170 255 0
4.494017 -11.803776 1.998 170 255 0
4.328743 -11.718442 2.099 170 255 0
4.633417 -11.880415 1.601 170 255 0
4.367948 -11.738418 2.071 170 255 0
4.587555 -11.853681 1.896 170 255 0
4.75641 -11.938593 2.115 170 255 0
4.860203 -11.992601 1.978 170 255 0
4.970688 -12.048897 2.063 170 255 0
4.861548 -11.992165 2.108 170 255 0
4.410699 -11.762445 1.949 170 255 0
4.422299 -11.76611 2.087 170 255 0
4.53322 -11.82375 2.091 170 255 0
4.848183 -11.985354 2.053 170 255 0
4.539441 -11.829165 1.887 170 255 0
4.800488 -11.96442 1.754 170 255 0
4.610705 -11.867721 1.704 170 255 0
4.602249 -11.862288 1.751 170 255 0
4.509601 -11.812838 1.952 170 255 0
4.569718 -11.846836 1.575 170 255 0
4.502456 -11.811441 1.668 170 255 0
4.963997 -12.046609 1.989 170 255 0
4.876678 -12.002118 1.888 170 255 0
4.585336 -11.851427 1.936 170 255 0
4.800052 -11.963075 1.842 170 255 0
4.80987 -11.965833 2.087 170 255 0
4.645925 -11.882298 2.001 170 255 0
4.302904 -11.705276 2.117 170 255 0
4.361256 -11.736131 2.039 170 255 0
4.389769 -11.750659 2.056 170 255 0
4.512257 -11.816436 1.75 170 255 0
4.801834 -11.963983 1.846 170 255 0
4.706967 -11.912279 2.106 170 255 0
4.574207 -11.844635 2.051 170 255 0
4.703824 -11.914043 1.818 170 255 0
4.44945 -11.783312 1.826 170 255 0
4.64278 -11.884064 1.712 170 255 0
4.41159 -11.762898 1.88 170 255 0
4.970234 -12.049787 1.992 170 255 0
4.380422 -11.744773 2.06 170 255 0
4.378623 -11.746101 1.92 170 255 0
4.611629 -11.863702 2.107 170 255 0
4.480651 -11.796966 2.023 170 255 0
4.877132 -12.001227 2.013 170 255 0
4.530094 -11.823279 2.015 170 255 0
4.769303 -11.94853 1.726 170 255 0
4.624541 -11.871403 2.048 170 255 0
4.572862 -11.845071 1.976 170 255 0
4.907427 -12.016663 1.99 170 255 0
4.387096 -11.749297 2.032 170 255 0
4.612032 -11.869519 1.587 170 255 0
4.448575 -11.780622 2.022 170 255 0
4.693148 -11.90636 2.056 170 255 0
4.779122 -11.951288 1.908 170 255 0
4.52342 -11.818757 2.119 170 255 0
4.469069 -11.791064 2.02 170 255 0
4.485527 -11.802815 1.714 170 255 0
4.740792 -11.934003 1.704 170 255 0
4.778668 -11.952179 1.877 170 255 0
4.702058 -11.9109 2.072 170 255 0
4.759974 -11.940409 2.081 170 255 0
4.906535 -12.016209 2.002 170 255 0
4.71808 -11.921308 1.789 170 255 0
4.803616 -11.96489 1.89 170 255 0
4.748391 -11.934507 2.073 170 255 0
4.448558 -11.782858 1.805 170 255 0
4.440539 -11.778772 1.772 170 255 0
4.41739 -11.764732 2.069 170 255 0
4.837474 -11.982142 1.835 170 255 0
4.539895 -11.828274 1.956 170 255 0
4.919901 -12.023019 2.017 170 255 0
4.587975 -11.857262 1.528 170 255 0
4.560371 -11.840951 1.748 170 255 0
4.301122 -11.704369 2.075 170 255 0
4.886043 -12.005767 1.976 170 255 0
4.795159 -11.95946 1.987 170 255 0
5.022366 -12.075228 2.064 170 255 0
4.572408 -11.845963 1.85 170 255 0
4.789377 -11.955391 2.067 170 255 0
4.397788 -11.754745 2.0 170 255 0
4.692257 -11.905906 2.056 170 255 0
4.803633 -11.962655 2.039 170 255 0
4.86555 -11.995325 1.995 170 255 0
4.859766 -11.991257 2.112 170 255 0
4.933266 -12.029829 2.085 170 255 0
4.965779 -12.047517 1.943 170 255 0
4.73099 -11.929008 1.682 170 255 0
4.853966 -11.989424 2.036 170 255 0
4.747483 -11.93629 1.818 170 255 0
4.706933 -11.916751 1.738 170 255 0
4.548805 -11.832813 1.912 170 255 0
4.466379 -11.791938 1.843 170 255 0
4.859766 -11.991257 2.087 170 255 0
4.905191 -12.016645 1.878 170 255 0
4.512711 -11.815545 1.869 170 255 0
4.935938 -12.031191 2.085 170 255 0
4.776886 -11.951271 1.8 170 255 0
4.738135 -11.930405 1.91 170 255 0
4.358147 -11.733423 2.091 170 255 0
4.880243 -12.003934 1.877 170 255 0
4.824109 -11.975332 1.89 170 255 0
4.602686 -11.863634 1.635 170 255 0
4.632997 -11.876834 1.926 170 255 0
4.347455 -11.727976 2.057 170 255 0
4.652145 -11.887712 1.805 170 255 0
4.759974 -11.940409 2.108 170 255 0
4.63878 -11.880902 1.776 170 255 0
4.679328 -11.900441 1.877 170 255 0
4.501127 -11.809643 1.811 170 255 0
4.843274 -11.983975 2.041 170 255 0
4.89006 -12.006692 2.103 170 255 0
4.68333 -11.903602 1.808 170 255 0
4.793832 -11.957661 2.034 170 255 0
4.557698 -11.839589 1.758 170 255 0
4.420954 -11.766548 2.063 170 255 0
4.457485 -11.785162 2.048 170 255 0
4.912772 -12.019387 1.968 170 255 0
4.630306 -11.877707 1.678 170 255 0
4.59512 -11.858657 1.734 170 255 0
4.588447 -11.854135 1.882 170 255 0
4.837037 -11.980798 1.943 170 255 0
4.715406 -11.919946 1.861 170 255 0
4.490453 -11.80196 2.011 170 255 0
4.626288 -11.876783 1.585 170 255 0
5.043751 -12.086123 2.1 170 255 0
4.443213 -11.780134 1.786 170 255 0
4.968015 -12.047534 2.003 170 255 0
5.039296 -12.083854 2.075 170 255 0
4.754156 -11.940812 1.762 170 255 0
4.778668 -11.952179 1.796 170 255 0
4.913227 -12.018496 2.099 170 255 0
4.810761 -11.966287 2.069 170 255 0
4.485544 -11.80058 1.95 170 255 0
4.464177 -11.787449 2.111 170 255 0
4.746155 -11.934491 1.929 170 255 0
4.633451 -11.875943 2.044 170 255 0
4.659273 -11.891344 1.772 170 255 0
4.527858 -11.823263 1.868 170 255 0
4.47929 -11.799638 1.755 170 255 0
4.397788 -11.754745 2.026 170 255 0
4.449466 -11.781075 2.015 170 255 0
4.697603 -11.90863 1.994 170 255 0
4.659273 -11.891344 1.815 170 255 0
5.000982 -12.064332 2.097 170 255 0
4.483762 -11.799672 1.95 170 255 0
4.910554 -12.017134 2.105 170 255 0
4.628524 -11.8768 1.711 170 255 0
4.769321 -11.946295 2.006 170 255 0
4.405807 -11.75883 2.048 170 255 0
4.601829 -11.858708 2.105 170 255 0
4.68644 -11.906309 1.729 170 255 0
4.340326 -11.724343 2.12 170 255 0
4.550149 -11.832376 2.036 170 255 0
4.62054 -11.868242 2.058 170 255 0
4.450357 -11.78153 1.987 170 255 0
4.376858 -11.742957 2.111 170 255 0
4.760848 -11.943099 1.828 170 255 0
4.544786 -11.831889 1.889 170 255 0
4.512727 -11.81331 2.097 170 255 0
4.468161 -11.792846 1.836 170 255 0
4.442775 -11.778789 1.928 170 255 0
4.378623 -11.746101 1.917 170 255 0
4.569298 -11.843255 2.0 170 255 0
4.635216 -11.879086 1.822 170 255 0
4.54746 -11.833251 1.81 170 255 0
4.574173 -11.849107 1.612 170 255 0
4.592464 -11.855059 1.993 170 255 0
4.324288 -11.716172 2.073 170 255 0
4.835255 -11.97989 1.939 170 255 0
4.617378 -11.872243 1.594 170 255 0
4.3372 -11.723873 2.01 170 255 0
4.617396 -11.870007 1.816 170 255 0
4.779576 -11.950397 2.104 170 255 0
4.740355 -11.932657 1.818 170 255 0
4.541206 -11.832309 1.583 170 255 0
4.58579 -11.850536 2.043 170 255 0
4.699822 -11.910883 1.868 170 255 0
4.9043 -12.016191 1.868 170 255 0
4.495362 -11.803338 2.114 170 255 0
4.996528 -12.062062 2.093 170 255 0
4.653036 -11.888166 1.807 170 255 0
4.645908 -11.884534 1.818 170 255 0
4.781341 -11.953541 1.885 170 255 0
4.622287 -11.873622 1.646 170 255 0
4.779122 -11.951288 1.961 170 255 0
4.678892 -11.899096 2.002 170 255 0
4.862876 -11.993963 1.991 170 255 0
4.365711 -11.7384 2.022 170 255 0
4.724771 -11.923595 1.902 170 255 0
4.766648 -11.944933 1.921 170 255 0
4.800069 -11.960838 2.045 170 255 0
4.634325 -11.878633 1.735 170 255 0
4.682876 -11.904493 1.74 170 255 0
4.617832 -11.871352 1.695 170 255 0
4.81387 -11.968994 2.019 170 255 0
4.686457 -11.904074 1.954 170 255 0
4.683784 -11.902711 1.884 170 255 0
4.79205 -11.956753 2.057 170 255 0
4.571937 -11.84909 1.506 170 255 0
4.554571 -11.839119 1.588 170 255 0
4.583538 -11.852755 1.78 170 255 0
4.462361 -11.791013 1.745 170 255 0
4.446794 -11.779715 1.997 170 255 0
4.512274 -11.814199 2.003 170 255 0
4.65929 -11.889109 1.971 170 255 0
4.634761 -11.879978 1.687 170 255 0
4.951523 -12.040254 1.922 170 255 0
4.812526 -11.969431 1.85 170 255 0
4.625432 -11.871857 1.985 170 255 0
4.921229 -12.024817 1.902 170 255 0
4.718534 -11.920417 1.936 170 255 0
4.895843 -12.010761 1.96 170 255 0
4.767992 -11.944495 2.073 170 255 0
4.646816 -11.882752 1.998 170 255 0
4.690021 -11.90589 1.956 170 255 0
4.641453 -11.882264 1.832 170 255 0
4.465051 -11.790138 1.935 170 255 0
4.725207 -11.924939 1.797 170 255 0
4.616522 -11.867317 2.052 170 255 0
4.899845 -12.013922 1.868 170 255 0
4.386642 -11.750187 1.947 170 255 0
4.577283 -11.851813 1.529 170 255 0
4.869551 -11.998487 1.938 170 255 0
4.668637 -11.894994 1.896 170 255 0
4.566171 -11.842785 1.817 170 255 0
4.963997 -12.046609 1.951 170 255 0
4.769303 -11.94853 1.773 170 255 0
4.444557 -11.779696 1.882 170 255 0
4.536767 -11.827803 1.805 170 255 0
4.615614 -11.869099 1.735 170 255 0
4.943521 -12.033932 2.108 170 255 0
4.371495 -11.742469 1.909 170 255 0
4.806289 -11.966252 1.864 170 255 0
4.578645 -11.84914 1.856 170 255 0
4.635687 -11.87596 2.113 170 255 0
4.744356 -11.935819 1.709 170 255 0
4.976925 -12.052074 2.042 170 255 0
4.518074 -11.816033 2.092 170 255 0
4.583538 -11.852755 1.797 170 255 0
4.886934 -12.006222 1.975 170 255 0
5.049988 -12.089301 2.087 170 255 0
4.528312 -11.822371 1.986 170 255 0
4.708732 -11.915423 1.937 170 255 0
4.626323 -11.872311 1.95 170 255 0
4.840601 -11.982614 2.01 170 255 0
4.800052 -11.963075 1.821 170 255 0
5.062899 -12.097002 2.032 170 255 0
4.568373 -11.847274 1.569 170 255 0
4.553226 -11.839556 1.534 170 255 0
4.541206 -11.832309 1.637 170 255 0
4.583554 -11.850519 1.989 170 255 0
4.73057 -11.925427 2.059 170 255 0
4.610268 -11.866375 1.739 170 255 0
4.45836 -11.787852 1.781 170 255 0
4.751047 -11.938106 1.87 170 255 0
4.856185 -11.991676 1.886 170 255 0
5.066917 -12.097927 2.054 170 255 0
4.495798 -11.804684 2.033 170 255 0
4.440103 -11.777427 1.953 170 255 0
4.778668 -11.952179 1.855 170 255 0
4.805398 -11.965798 1.844 170 255 0
4.55326 -11.835084 1.972 170 255 0
4.846838 -11.985792 2.03 170 255 0
4.622742 -11.87273 1.734 170 255 0
4.532296 -11.827769 1.632 170 255 0
4.669511 -11.897683 1.735 170 255 0
4.393787 -11.751583 2.107 170 255 0
4.743028 -11.934019 1.823 170 255 0
4.94885 -12.038891 1.93 170 255 0
4.707404 -11.913624 2.015 170 255 0
4.863314 -11.995308 1.842 170 255 0
4.459704 -11.787415 1.956 170 255 0
4.565263 -11.844566 1.658 170 255 0
4.631198 -11.878161 1.706 170 255 0
4.49669 -11.805138 2.052 170 255 0
4.4998 -11.807844 1.898 170 255 0
4.388878 -11.750205 2.004 170 255 0
4.454813 -11.7838 1.982 170 255 0
4.339872 -11.725235 1.975 170 255 0
4.600013 -11.862272 1.638 170 255 0
4.626306 -11.874546 1.796 170 255 0
4.587119 -11.852335 2.004 170 255 0
4.559934 -11.839606 1.878 170 255 0
4.510492 -11.813292 1.96 170 255 0
4.576409 -11.849123 1.781 170 255 0
4.906973 -12.017553 1.897 170 255 0
4.632543 -11.877725 1.762 170 255 0
4.704731 -11.912262 2.064 170 255 0
4.798287 -11.95993 2.081 170 255 0
4.392896 -11.751129 2.107 170 255 0
4.819671 -11.970827 2.039 170 255 0
5.007219 -12.06751 2.111 170 255 0
4.539424 -11.831401 1.632 170 255 0
4.378185 -11.744757 2.002 170 255 0
4.77734 -11.95038 1.904 170 255 0
4.785342 -11.956702 1.758 170 255 0
4.46105 -11.786978 2.06 170 255 0
4.423627 -11.767911 1.97 170 255 0
4.465067 -11.787903 2.107 170 255 0
4.458814 -11.786961 1.961 170 255 0
4.98138 -12.054344 2.01 170 255 0
4.950195 -12.038455 2.0 170 255 0
4.534112 -11.824205 2.039 170 255 0
4.442338 -11.777444 2.073 170 255 0
4.837928 -11.981252 1.936 170 255 0
4.758192 -11.939501 2.063 170 255 0
4.655709 -11.889528 1.753 170 255 0
4.740826 -11.929531 2.115 170 255 0
4.620976 -11.869587 2.006 170 255 0
4.368385 -11.739763 2.0 170 255 0
4.630761 -11.876817 1.808 170 255 0
4.855295 -11.991222 1.845 170 255 0
4.757284 -11.941283 1.887 170 255 0
4.408934 -11.759301 2.111 170 255 0
4.668637 -11.894994 1.897 170 255 0
4.788014 -11.958064 1.753 170 255 0
4.580428 -11.850049 1.82 170 255 0
4.344327 -11.727505 1.963 170 255 0
4.68333 -11.903602 1.769 170 255 0
4.870005 -11.997596 2.034 170 255 0
4.855311 -11.988986 2.06 170 255 0
4.831691 -11.978074 1.966 170 255 0
4.875788 -12.001664 1.939 170 255 0
4.465034 -11.792375 1.714 170 255 0
4.919447 -12.02391 1.929 170 255 0
4.685566 -11.90362 1.908 170 255 0
4.909209 -12.017571 1.98 170 255 0
4.489091 -11.804632 1.745 170 255 0
4.429864 -11.771089 2.046 170 255 0
4.959996 -12.043448 2.053 170 255 0
4.936393 -12.030299 2.112 170 255 0
4.716298 -11.9204 1.859 170 255 0
4.900298 -12.013031 2.072 170 255 0
4.433865 -11.774248 1.903 170 255 0
4.867769 -11.997579 1.93 170 255 0
4.384877 -11.747044 2.099 170 255 0
5.010784 -12.069326 2.023 170 255 0
4.576427 -11.846888 2.034 170 255 0
4.352347 -11.731591 1.995 170 255 0
4.670873 -11.89501 2.049 170 255 0
4.516712 -11.818706 1.723 170 255 0
4.747937 -11.935399 1.894 170 255 0
4.346563 -11.727522 2.058 170 255 0
4.830346 -11.97851 1.922 170 255 0
4.930593 -12.028467 2.051 170 255 0
4.55326 -11.835084 1.987 170 255 0
4.471742 -11.792426 2.07 170 255 0
4.39377 -11.753819 1.918 170 255 0
4.407135 -11.760629 1.903 170 255 0
4.605358 -11.864996 1.668 170 255 0
4.555933 -11.836445 1.945 170 255 0
4.518964 -11.816487 2.099 170 255 0
4.392441 -11.752021 2.038 170 255 0
4.35191 -11.730246 2.054 170 255 0
4.784467 -11.954012 1.955 170 255 0
4.68602 -11.902728 1.975 170 255 0
4.397788 -11.754745 2.063 170 255 0
4.547023 -11.831905 1.981 170 255 0
5.016129 -12.07205 2.102 170 255 0
4.759066 -11.942191 1.786 170 255 0
5.025931 -12.077044 2.023 170 255 0
4.818309 -11.9735 1.774 170 255 0
4.797833 -11.960822 1.94 170 255 0
4.788469 -11.957172 1.893 170 255 0
4.363038 -11.737039 1.976 170 255 0
4.95776 -12.043431 1.987 170 255 0
4.302013 -11.704823 2.069 170 255 0
4.632106 -11.87638 1.882 170 255 0
4.511383 -11.813746 1.995 170 255 0
4.983599 -12.056597 1.975 170 255 0
4.650363 -11.886805 1.797 170 255 0
4.526967 -11.822809 1.853 170 255 0
4.672655 -11.895918 2.063 170 255 0
4.461924 -11.789668 1.773 170 255 0
4.349236 -11.728884 2.108 170 255 0
4.518056 -11.818269 1.839 170 255 0
4.951086 -12.038909 2.011 170 255 0
4.458814 -11.786961 1.909 170 255 0
4.647707 -11.883206 2.038 170 255 0
4.601357 -11.861835 1.816 170 255 0
4.745247 -11.936273 1.73 170 255 0
4.686911 -11.903182 1.989 170 255 0
4.549662 -11.83774 1.546 170 255 0
4.567062 -11.843239 1.884 170 255 0
4.967561 -12.048425 1.981 170 255 0
4.603594 -11.861853 1.905 170 255 0
4.547897 -11.834596 1.715 170 255 0
4.542097 -11.832763 1.646 170 255 0
4.755518 -11.938139 2.08 170 255 0
4.637889 -11.880448 1.812 170 255 0
4.770649 -11.948093 1.88 170 255 0
4.540315 -11.831855 1.571 170 255 0
4.761755 -11.941317 2.096 170 255 0
4.454359 -11.784691 1.87 170 255 0
4.600013 -11.862272 1.609 170 255 0
4.304686 -11.706184 2.063 170 255 0
4.754174 -11.938577 2.005 170 255 0
4.716314 -11.918163 2.067 170 255 0
4.339872 -11.725235 1.986 170 255 0
4.379514 -11.746555 1.934 170 255 0
4.673966 -11.899954 1.654 170 255 0
4.569718 -11.846836 1.64 170 255 0
4.802288 -11.963092 1.973 170 255 0
4.542568 -11.829636 1.959 170 255 0
4.652162 -11.885476 1.995 170 255 0
4.610268 -11.866375 1.803 170 255 0
4.659743 -11.888218 2.107 170 255 0
4.518948 -11.818724 1.801 170 255 0
4.788922 -11.956283 1.935 170 255 0
4.337654 -11.722982 2.041 170 255 0
4.570626 -11.845055 1.875 170 255 0
4.909646 -12.018916 1.907 170 255 0
4.588901 -11.853243 2.025 170 255 0
4.624069 -11.87453 1.635 170 255 0
4.498001 -11.809172 1.736 170 255 0
4.434773 -11.772467 2.105 170 255 0
4.558606 -11.837808 1.926 170 255 0
5.004547 -12.066148 2.035 170 255 0
4.466395 -11.789701 2.072 170 255 0
4.700713 -11.911337 1.902 170 255 0
4.383969 -11.748825 1.897 170 255 0
4.629852 -11.878599 1.561 170 255 0
4.474835 -11.797368 1.706 170 255 0
4.743936 -11.932238 2.035 170 255 0
4.626323 -11.872311 1.986 170 255 0
4.575099 -11.845089 2.087 170 255 0
4.956869 -12.042977 1.948 170 255 0
4.433428 -11.772904 1.994 170 255 0
4.90119 -12.013485 2.056 170 255 0
4.584428 -11.853209 1.714 170 255 0
4.512727 -11.81331 2.106 170 255 0
4.534549 -11.82555 1.955 170 255 0
4.44945 -11.783312 1.845 170 255 0
4.759957 -11.942645 1.849 170 255 0
4.615177 -11.867754 1.847 170 255 0
4.647253 -11.884098 1.934 170 255 0
4.420063 -11.766094 2.004 170 255 0
5.019694 -12.073866 2.117 170 255 0
4.439649 -11.778318 1.838 170 255 0
4.383095 -11.746136 2.092 170 255 0
4.761301 -11.942208 1.945 170 255 0
4.703386 -11.912699 1.922 170 255 0
4.572408 -11.845963 1.856 170 255 0
4.730554 -11.927664 1.795 170 255 0
4.665072 -11.893177 1.87 170 255 0
5.062462 -12.095657 2.071 170 255 0
4.917682 -12.020765 2.107 170 255 0
4.40848 -11.760193 1.958 170 255 0
4.911445 -12.017588 2.117 170 255 0
4.9992 -12.063424 2.023 170 255 0
4.356801 -11.733861 2.035 170 255 0
4.87535 -12.000319 2.061 170 255 0
4.858875 -11.990802 2.108 170 255 0
4.591557 -11.856841 1.746 170 255 0
4.78314 -11.952213 2.066 170 255 0
4.409354 -11.762882 1.825 170 255 0
4.779559 -11.952633 1.846 170 255 0
4.498472 -11.806046 2.085 170 255 0
4.509164 -11.811494 2.021 170 255 0
4.507819 -11.81193 1.995 170 255 0
4.568828 -11.846383 1.624 170 255 0
4.836583 -11.981688 1.872 170 255 0
4.74481 -11.934927 1.88 170 255 0
4.735445 -11.931278 1.676 170 255 0
4.843257 -11.986212 1.812 170 255 0
4.627213 -11.872765 1.987 170 255 0
4.394661 -11.754273 1.922 170 255 0
4.837474 -11.982142 1.828 170 255 0
4.718987 -11.919526 2.005 170 255 0
4.881587 -12.003497 1.982 170 255 0
4.585773 -11.852773 1.924 170 255 0
4.704714 -11.914497 1.842 170 255 0
4.747045 -11.934945 1.914 170 255 0
4.80718 -11.966706 1.82 170 255 0
4.757284 -11.941283 1.846 170 255 0
4.529203 -11.822825 1.941 170 255 0
4.947522 -12.037092 2.082 170 255 0
4.562153 -11.841859 1.699 170 255 0
4.785796 -11.955811 1.839 170 255 0
4.78936 -11.957627 1.835 170 255 0
4.444994 -11.781042 1.758 170 255 0
4.720299 -11.923561 1.687 170 255 0
4.871787 -11.998504 1.946 170 255 0
4.95776 -12.043431 1.952 170 255 0
4.86555 -11.995325 2.044 170 255 0
4.58532 -11.853663 1.793 170 255 0
4.73948 -11.929968 2.0 170 255 0
4.91099 -12.018479 1.975 170 255 0
4.453905 -11.785582 1.759 170 255 0
4.895407 -12.009416 2.087 170 255 0
4.848166 -11.98759 1.842 170 255 0
4.44723 -11.781058 1.97 170 255 0
4.758629 -11.940846 1.928 170 255 0
4.587101 -11.854571 1.78 170 255 0
4.673075 -11.899499 1.681 170 255 0
4.438774 -11.775628 1.992 170 255 0
4.987617 -12.057522 2.089 170 255 0
4.651708 -11.886368 1.884 170 255 0
4.557261 -11.838245 1.848 170 255 0
4.737245 -11.929951 1.971 170 255 0
4.407588 -11.759738 1.961 170 255 0
4.686474 -11.901837 2.099 170 255 0
4.502019 -11.810098 1.879 170 255 0
4.614706 -11.870882 1.552 170 255 0
4.595574 -11.857766 1.917 170 255 0
4.900298 -12.013031 1.989 170 255 0
4.486434 -11.801034 1.976 170 255 0
4.359475 -11.735223 1.984 170 255 0
4.870879 -12.000285 1.829 170 255 0
4.686911 -11.903182 2.04 170 255 0
4.640142 -11.87823 2.098 170 255 0
4.852622 -11.989861 1.929 170 255 0
4.331417 -11.719804 2.088 170 255 0
4.80718 -11.966706 1.86 170 255 0
4.822764 -11.97577 1.787 170 255 0
4.521604 -11.822321 1.6 170 255 0
4.553714 -11.834193 2.069 170 255 0
4.608486 -11.865467 1.773 170 255 0
4.489108 -11.802396 1.922 170 255 0
4.573283 -11.848653 1.589 170 255 0
5.022804 -12.076572 2.002 170 255 0
4.814308 -11.970339 1.913 170 255 0
4.838366 -11.982596 1.88 170 255 0
4.431646 -11.771996 2.057 170 255 0
4.605376 -11.862761 1.84 170 255 0
4.78714 -11.955375 1.941 170 255 0
4.805415 -11.963563 2.059 170 255 0
5.025931 -12.077044 2.042 170 255 0
4.321161 -11.715701 2.007 170 255 0
4.643688 -11.882281 1.852 170 255 0
4.434302 -11.775594 1.795 170 255 0
4.606686 -11.866796 1.552 170 255 0
4.904753 -12.015301 2.046 170 255 0
4.771993 -11.947657 2.012 170 255 0
4.707824 -11.917205 1.695 170 255 0
4.508272 -11.811039 2.114 170 255 0
4.307359 -11.707546 2.067 170 255 0
4.831675 -11.980309 1.791 170 255 0
4.567516 -11.842347 1.986 170 255 0
4.413372 -11.763807 1.897 170 255 0
4.529657 -11.821935 2.035 170 255 0
4.658382 -11.89089 1.842 170 255 0
4.382641 -11.747026 1.979 170 255 0
4.959542 -12.044339 1.963 170 255 0
4.37284 -11.742033 1.945 170 255 0
4.743044 -11.931784 2.087 170 255 0
4.427191 -11.769727 1.997 170 255 0
4.674874 -11.898171 1.901 170 255 0
4.581336 -11.848267 2.088 170 255 0
4.533204 -11.825987 1.817 170 255 0
4.640125 -11.880466 1.941 170 255 0
4.962669 -12.04481 2.068 170 255 0
4.816998 -11.969464 2.119 170 255 0
4.569718 -11.846836 1.685 170 255 0
4.354129 -11.732499 1.988 170 255 0
4.49758 -11.805592 2.102 170 255 0
4.9101 -12.018025 2.036 170 255 0
4.551041 -11.832831 2.047 170 255 0
4.369275 -11.740216 1.964 170 255 0
4.678892 -11.899096 1.996 170 255 0
4.4882 -11.804178 1.688 170 255 0
4.49711 -11.808718 1.697 170 255 0
4.285975 -11.696651 2.107 170 255 0
4.940393 -12.033461 2.018 170 255 0
4.451685 -11.783328 1.93 170 255 0
4.44723 -11.781058 1.918 170 255 0
4.57061 -11.847291 1.659 170 255 0
4.77823 -11.950834 1.96 170 255 0
4.642814 -11.879592 2.092 170 255 0
4.903426 -12.013502 2.079 170 255 0
4.687331 -11.906763 1.722 170 255 0
4.477508 -11.79873 1.709 170 255 0
4.518074 -11.816033 2.102 170 255 0
4.589321 -11.856824 1.693 170 255 0
4.604013 -11.865434 1.561 170 255 0
4.841475 -11.985304 1.814 170 255 0
4.75641 -11.938593 2.108 170 255 0
4.507382 -11.810586 2.035 170 255 0
4.558606 -11.837808 1.991 170 255 0
4.627197 -11.875001 1.769 170 255 0
4.698477 -11.91132 1.798 170 255 0
4.661072 -11.890017 1.996 170 255 0
4.518964 -11.816487 2.035 170 255 0
4.628979 -11.875909 1.75 170 255 0
4.775104 -11.950363 1.877 170 255 0
4.868205 -11.998923 1.827 170 255 0
4.509584 -11.815074 1.73 170 255 0
4.296667 -11.702098 2.09 170 255 0
4.569752 -11.842364 2.083 170 255 0
4.890498 -12.008038 2.029 170 255 0
4.596902 -11.859565 1.738 170 255 0
4.737681 -11.931295 1.847 170 255 0
4.890498 -12.008038 2.004 170 255 0
4.545661 -11.834579 1.665 170 255 0
4.98138 -12.054344 2.111 170 255 0
4.4263 -11.769272 2.033 170 255 0
4.616085 -11.865973 2.088 170 255 0
4.476197 -11.794696 2.031 170 255 0
4.618304 -11.868225 2.032 170 255 0
4.970234 -12.049787 1.946 170 255 0
4.540315 -11.831855 1.654 170 255 0
4.46147 -11.790558 1.727 170 255 0
4.509584 -11.815074 1.712 170 255 0
4.359038 -11.733878 2.059 170 255 0
4.640108 -11.882702 1.623 170 255 0
4.480197 -11.797856 1.913 170 255 0
5.064243 -12.096565 2.109 170 255 0
4.516275 -11.817361 1.846 170 255 0
4.549679 -11.835504 1.707 170 255 0
4.780904 -11.952196 1.989 170 255 0
4.716314 -11.918163 2.015 170 255 0
4.541677 -11.829182 1.925 170 255 0
4.714952 -11.920836 1.658 170 255 0
4.821436 -11.97397 1.911 170 255 0
5.022366 -12.075228 2.109 170 255 0
4.835709 -11.978998 2.093 170 255 0
4.812963 -11.970776 1.785 170 255 0
4.788906 -11.958518 1.782 170 255 0
4.374622 -11.742941 1.982 170 255 0
4.975143 -12.051167 2.015 170 255 0
4.671747 -11.8977 1.784 170 255 0
4.504255 -11.810114 1.96 170 255 0
4.572862 -11.845071 1.947 170 255 0
4.498909 -11.80739 1.986 170 255 0
5.026822 -12.077497 2.023 170 255 0
4.72699 -11.925848 1.816 170 255 0
4.51762 -11.816924 2.008 170 255 0
4.47929 -11.799638 1.746 170 255 0
4.564373 -11.844112 1.672 170 255 0
4.68022 -11.900895 1.86 170 255 0
4.371948 -11.741579 1.964 170 255 0
4.39377 -11.753819 1.857 170 255 0
4.412935 -11.762463 2.022 170 255 0
4.758629 -11.940846 1.954 170 255 0
4.691786 -11.909033 1.645 170 255 0
4.554605 -11.834647 2.05 170 255 0
4.854403 -11.990768 1.87 170 255 0
4.976471 -12.052965 1.944 170 255 0
4.609831 -11.86503 1.892 170 255 0
4.377732 -11.745647 1.929 170 255 0
4.705622 -11.912716 2.095 170 255 0
4.696241 -11.911304 1.684 170 255 0
4.465941 -11.790592 1.969 170 255 0
4.884715 -12.003968 2.111 170 255 0
4.911428 -12.019824 1.904 170 255 0
4.559917 -11.841843 1.599 170 255 0
4.843728 -11.983084 2.109 170 255 0
4.404025 -11.757922 2.028 170 255 0
4.49711 -11.808718 1.727 170 255 0
4.393333 -11.752475 2.064 170 255 0
4.554605 -11.834647 2.057 170 255 0
4.658853 -11.887764 2.094 170 255 0
4.735463 -11.929043 1.964 170 255 0
4.698023 -11.912211 1.643 170 255 0
4.492235 -11.802868 2.012 170 255 0
4.465925 -11.792829 1.742 170 255 0
4.768867 -11.947186 1.822 170 255 0
4.57999 -11.848703 1.96 170 255 0
5.011674 -12.069779 2.111 170 255 0
4.806289 -11.966252 1.825 170 255 0
4.894499 -12.011198 1.923 170 255 0
4.632089 -11.878616 1.617 170 255 0
4.486418 -11.80327 1.687 170 255 0
4.489561 -11.801505 2.106 170 255 0
4.77734 -11.95038 1.987 170 255 0
4.605358 -11.864996 1.613 170 255 0
4.6508 -11.88815 1.665 170 255 0
4.897189 -12.010324 2.077 170 255 0
4.437429 -11.776065 1.866 170 255 0
4.558572 -11.842279 1.558 170 255 0
4.514039 -11.817344 1.669 170 255 0
4.796488 -11.961259 1.854 170 255 0
4.756847 -11.939939 1.923 170 255 0
4.581756 -11.851847 1.757 170 255 0
4.665527 -11.892286 2.0 170 255 0
4.662417 -11.88958 2.086 170 255 0
4.467723 -11.7915 1.923 170 255 0
4.706513 -11.91317 1.988 170 255 0
4.690475 -11.904998 2.049 170 255 0
4.610285 -11.864139 1.974 170 255 0
4.543912 -11.829199 2.115 170 255 0
4.583538 -11.852755 1.732 170 255 0
4.807633 -11.965816 2.025 170 255 0
4.471724 -11.794662 1.859 170 255 0
4.511383 -11.813746 2.003 170 255 0
4.622759 -11.870495 1.96 170 255 0
4.955541 -12.041179 2.05 170 255 0
4.620522 -11.870478 1.882 170 255 0
4.55679 -11.841372 1.539 170 255 0
4.531438 -11.822843 2.041 170 255 0
4.609813 -11.867266 1.647 170 255 0
4.623633 -11.873184 1.773 170 255 0
4.796488 -11.961259 1.842 170 255 0
4.604485 -11.862307 1.902 170 255 0
4.82811 -11.978494 1.809 170 255 0
4.339872 -11.725235 1.964 170 255 0
4.376858 -11.742957 2.105 170 255 0
4.83971 -11.98216 1.968 170 255 0
4.333199 -11.720712 2.049 170 255 0
4.81878 -11.970372 2.101 170 255 0
4.657945 -11.889545 1.919 170 255 0
4.442775 -11.778789 1.863 170 255 0
4.583974 -11.8541 1.634 170 255 0
4.709186 -11.914532 2.088 170 255 0
4.756847 -11.939939 2.005 170 255 0
4.956432 -12.041633 2.098 170 255 0
4.793815 -11.959897 1.837 170 255 0
4.681111 -11.90135 1.919 170 255 0
4.689584 -11.904544 2.062 170 255 0
4.764866 -11.944025 1.972 170 255 0
4.70337 -11.914935 1.725 170 255 0
4.58041 -11.852284 1.598 170 255 0
4.412027 -11.764244 1.826 170 255 0
4.747045 -11.934945 1.89 170 255 0
4.803633 -11.962655 2.106 170 255 0
4.669965 -11.896792 1.742 170 255 0
4.999638 -12.064769 1.98 170 255 0
4.559026 -11.841389 1.644 170 255 0
4.670873 -11.89501 2.072 170 255 0
4.870895 -11.99805 2.019 170 255 0
4.69535 -11.910849 1.661 170 255 0
5.023258 -12.075682 2.026 170 255 0
4.563045 -11.842314 1.696 170 255 0
4.605358 -11.864996 1.703 170 255 0
4.518056 -11.818269 1.786 170 255 0
4.468177 -11.790609 2.003 170 255 0
4.725645 -11.926285 1.744 170 255 0
4.603594 -11.861853 1.924 170 255 0
4.951977 -12.039363 2.03 170 255 0
4.543896 -11.831435 1.855 170 255 0
4.638359 -11.877322 2.102 170 255 0
4.968469 -12.046643 2.115 170 255 0
4.582664 -11.850065 2.033 170 255 0
4.371058 -11.741125 1.959 170 255 0
4.494908 -11.80423 2.065 170 255 0
4.490873 -11.80554 1.745 170 255 0
4.80718 -11.966706 1.884 170 255 0
4.757721 -11.942629 1.71 170 255 0
4.794723 -11.958115 2.069 170 255 0
4.888716 -12.00713 2.004 170 255 0
4.453905 -11.785582 1.801 170 255 0
4.609377 -11.865921 1.822 170 255 0
4.333635 -11.722057 1.994 170 255 0
4.457031 -11.786053 1.94 170 255 0
4.583554 -11.850519 1.973 170 255 0
4.624069 -11.87453 1.645 170 255 0
4.718096 -11.919071 2.036 170 255 0
4.578174 -11.852268 1.513 170 255 0
4.53275 -11.826878 1.74 170 255 0
4.649017 -11.887241 1.659 170 255 0
5.036622 -12.082492 2.085 170 255 0
4.829892 -11.979402 1.808 170 255 0
4.502893 -11.812787 1.646 170 255 0
4.48778 -11.800597 2.005 170 255 0
4.608048 -11.864122 1.905 170 255 0
4.583554 -11.850519 1.951 170 255 0
4.780887 -11.954432 1.752 170 255 0
4.388878 -11.750205 2.047 170 255 0
4.558606 -11.837808 2.005 170 255 0
4.745264 -11.934036 1.928 170 255 0
4.395114 -11.753383 2.0 170 255 0
4.710061 -11.917222 1.792 170 255 0
4.527875 -11.821027 2.051 170 255 0
4.571937 -11.84909 1.531 170 255 0
4.298449 -11.703006 2.111 170 255 0
4.686003 -11.904963 1.773 170 255 0
4.45925 -11.788305 1.862 170 255 0
4.56217 -11.839623 1.932 170 255 0
4.745264 -11.934036 1.888 170 255 0
4.918556 -12.023456 1.937 170 255 0
4.560842 -11.837825 2.055 170 255 0
4.330071 -11.720242 2.007 170 255 0
4.732336 -11.928572 1.783 170 255 0
4.571937 -11.84909 1.529 170 255 0
4.79247 -11.960334 1.755 170 255 0
4.65438 -11.88773 1.864 170 255 0
4.509584 -11.815074 1.733 170 255 0
4.589757 -11.85817 1.538 170 255 0
4.536331 -11.826458 1.975 170 255 0
4.526075 -11.822355 1.869 170 255 0
4.606686 -11.866796 1.591 170 255 0
4.500674 -11.810534 1.716 170 255 0
4.983162 -12.055252 2.08 170 255 0
4.61874 -11.86957 1.835 170 255 0
4.616505 -11.869553 1.783 170 255 0
4.938612 -12.032553 2.032 170 255 0
4.742574 -11.934911 1.737 170 255 0
4.964888 -12.047063 1.959 170 255 0
4.779559 -11.952633 1.801 170 255 0
4.813434 -11.967649 2.052 170 255 0
4.773776 -11.948565 1.968 170 255 0
4.730554 -11.927664 1.809 170 255 0
4.614739 -11.866408 1.966 170 255 0
4.477508 -11.79873 1.719 170 255 0
4.541206 -11.832309 1.608 170 255 0
4.980489 -12.05389 2.04 170 255 0
4.466379 -11.791938 1.758 170 255 0
4.93103 -12.029811 1.929 170 255 0
4.47085 -11.791972 2.044 170 255 0
4.55057 -11.835958 1.778 170 255 0
4.633434 -11.878179 1.727 170 255 0
4.632525 -11.879961 1.599 170 255 0
4.685583 -11.901383 2.103 170 255 0
4.76532 -11.943133 2.036 170 255 0
4.780887 -11.954432 1.768 170 255 0
4.559917 -11.841843 1.606 170 255 0
4.412481 -11.763353 1.908 170 255 0
4.409808 -11.761991 1.905 170 255 0
4.636998 -11.879994 1.75 170 255 0
4.605392 -11.860524 2.075 170 255 0
4.934156 -12.030283 1.976 170 255 0
4.642798 -11.881828 1.855 170 255 0
4.828127 -11.976258 1.985 170 255 0
4.413372 -11.763807 1.95 170 255 0
4.76663 -11.947168 1.759 170 255 0
4.6624 -11.891816 1.923 170 255 0
4.865096 -11.996216 1.937 170 255 0
4.952414 -12.040707 1.96 170 255 0
4.596448 -11.860456 1.611 170 255 0
4.67711 -11.898189 1.971 170 255 0
4.346109 -11.728413 2.035 170 255 0
4.791159 -11.956299 2.077 170 255 0
4.83882 -11.981706 2.022 170 255 0
4.693131 -11.908596 1.812 170 255 0
4.808525 -11.96627 1.94 170 255 0
4.463706 -11.790576 1.818 170 255 0
5.035278 -12.082929 2.004 170 255 0
4.832565 -11.980763 1.794 170 255 0
4.50602 -11.813258 1.709 170 255 0
4.572408 -11.845963 1.884 170 255 0
4.327852 -11.717988 2.092 170 255 0
4.598248 -11.859128 1.865 170 255 0
4.539424 -11.831401 1.586 170 255 0
4.562624 -11.838733 2.106 170 255 0
4.58352 -11.854992 1.57 170 255 0
4.355911 -11.733407 1.974 170 255 0
4.612521 -11.864157 2.059 170 255 0
4.310923 -11.709362 2.066 170 255 0
4.561733 -11.838279 2.064 170 255 0
4.531859 -11.826424 1.762 170 255 0
4.857531 -11.99124 1.996 170 255 0
4.568844 -11.844147 1.873 170 255 0
4.829018 -11.976712 1.944 170 255 0
4.592918 -11.854169 2.051 170 255 0
4.71808 -11.921308 1.803 170 255 0
4.577317 -11.847342 1.966 170 255 0
4.448558 -11.782858 1.856 170 255 0
4.559917 -11.841843 1.628 170 255 0
4.792924 -11.959443 1.908 170 255 0
4.584411 -11.855446 1.533 170 255 0
4.974689 -12.052057 1.979 170 255 0
4.395552 -11.754727 1.879 170 255 0
4.641453 -11.882264 1.837 170 255 0
4.564373 -11.844112 1.594 170 255 0
4.837928 -11.981252 1.985 170 255 0
4.505146 -11.810568 1.928 170 255 0
4.47307 -11.794225 1.88 170 255 0
4.344327 -11.727505 1.955 170 255 0
4.500254 -11.806953 2.025 170 255 0
4.768884 -11.944949 2.017 170 255 0
4.700276 -11.909992 2.079 170 255 0
4.726536 -11.926739 1.754 170 255 0
4.647235 -11.886333 1.705 170 255 0
4.355474 -11.732061 2.109 170 255 0
5.045533 -12.087031 2.048 170 255 0
4.549242 -11.834159 1.9 170 255 0
4.661492 -11.893598 1.647 170 255 0
4.649017 -11.887241 1.656 170 255 0
4.699368 -11.911774 1.75 170 255 0
4.812526 -11.969431 1.822 170 255 0
4.361256 -11.736131 1.956 170 255 0
4.490435 -11.804195 1.776 170 255 0
4.400915 -11.755216 2.119 170 255 0
4.417844 -11.763842 2.101 170 255 0
4.870895 -11.99805 2.02 170 255 0
4.498001 -11.809172 1.747 170 255 0
4.816544 -11.970356 2.011 170 255 0
4.591557 -11.856841 1.807 170 255 0
4.498018 -11.806936 1.996 170 255 0
4.817872 -11.972155 1.82 170 255 0
4.364384 -11.736602 2.095 170 255 0
4.586227 -11.851881 1.961 170 255 0
4.799161 -11.962621 1.862 170 255 0
4.677547 -11.899533 1.933 170 255 0
4.685112 -11.90451 1.836 170 255 0
4.540315 -11.831855 1.627 170 255 0
4.421844 -11.767002 1.974 170 255 0
4.781358 -11.951305 2.074 170 255 0
4.593776 -11.859095 1.673 170 255 0
5.018803 -12.073412 2.03 170 255 0
4.587101 -11.854571 1.793 170 255 0
4.369275 -11.740216 1.96 170 255 0
4.534549 -11.82555 2.01 170 255 0
4.886497 -12.004876 2.078 170 255 0
4.784467 -11.954012 1.998 170 255 0
4.679766 -11.901786 1.839 170 255 0
5.071372 -12.100198 2.065 170 255 0
4.606266 -11.863214 1.848 170 255 0
4.665072 -11.893177 1.91 170 255 0
4.9043 -12.016191 1.934 170 255 0
4.789814 -11.956737 2.017 170 255 0
4.73279 -11.927681 1.966 170 255 0
4.910537 -12.019369 1.898 170 255 0
4.47307 -11.794225 1.937 170 255 0
4.520713 -11.821867 1.602 170 255 0
4.453921 -11.783346 2.053 170 255 0
4.763974 -11.94357 1.99 170 255 0
4.405807 -11.75883 1.976 170 255 0
4.434302 -11.775594 1.846 170 255 0
4.810761 -11.966287 2.101 170 255 0
4.752392 -11.937669 1.984 170 255 0
4.556354 -11.840027 1.568 170 255 0
4.856639 -11.990786 2.034 170 255 0
4.578662 -11.846905 2.059 170 255 0
4.425392 -11.771054 1.811 170 255 0
4.743044 -11.931784 2.023 170 255 0
4.819654 -11.973063 1.88 170 255 0
4.681548 -11.902694 1.849 170 255 0
4.989399 -12.05843 2.098 170 255 0
5.049097 -12.088848 2.118 170 255 0
4.695821 -11.907722 2.092 170 255 0
4.318051 -11.712994 2.033 170 255 0
4.70695 -11.914515 1.94 170 255 0
4.596482 -11.855985 2.048 170 255 0
4.375512 -11.743395 1.958 170 255 0
4.376404 -11.743849 1.996 170 255 0
4.816981 -11.971701 1.848 170 255 0
4.64727 -11.881862 2.11 170 255 0
4.840601 -11.982614 1.974 170 255 0
4.445886 -11.781496 1.831 170 255 0
4.526983 -11.820573 2.013 170 255 0
4.919464 -12.021673 2.103 170 255 0
4.425409 -11.768819 2.056 170 255 0
4.586193 -11.856354 1.532 170 255 0
4.83971 -11.98216 2.025 170 255 0
4.709607 -11.918113 1.732 170 255 0
4.916337 -12.021203 2.034 170 255 0
4.494454 -11.80512 1.953 170 255 0
4.634325 -11.878633 1.745 170 255 0
4.601357 -11.861835 1.771 170 255 0
4.917665 -12.023002 1.912 170 255 0
4.632543 -11.877725 1.771 170 255 0
4.994745 -12.061154 2.069 170 255 0
4.783577 -11.953558 1.939 170 255 0
4.903863 -12.014847 2.046 170 255 0
4.682002 -11.901803 1.883 170 255 0
4.63256 -11.875488 1.986 170 255 0
4.806289 -11.966252 1.904 170 255 0
4.612521 -11.864157 2.069 170 255 0
5.103448 -12.116541 2.11 170 255 0
5.023258 -12.075682 2.108 170 255 0
4.767992 -11.944495 2.073 170 255 0
4.707404 -11.913624 2.085 170 255 0
4.477525 -11.796494 1.91 170 255 0
4.992073 -12.059793 2.074 170 255 0
4.853512 -11.990314 1.867 170 255 0
4.632543 -11.877725 1.778 170 255 0
4.742574 -11.934911 1.736 170 255 0
4.663728 -11.893614 1.82 170 255 0
4.891389 -12.008492 1.97 170 255 0
4.757721 -11.942629 1.753 170 255 0
4.716298 -11.9204 1.822 170 255 0
4.646799 -11.884989 1.731 170 255 0
4.621414 -11.870932 1.902 170 255 0
4.832582 -11.978528 1.972 170 255 0
4.795597 -11.960805 1.849 170 255 0
4.601375 -11.859599 2.019 170 255 0
4.642344 -11.882718 1.813 170 255 0
4.69535 -11.910849 1.721 170 255 0
4.561699 -11.842751 1.664 170 255 0
4.565734 -11.841439 1.989 170 255 0
4.973361 -12.050259 2.031 170 255 0
4.612521 -11.864157 2.096 170 255 0
4.639251 -11.877776 2.095 170 255 0
4.412481 -11.763353 1.949 170 255 0
4.518948 -11.818724 1.848 170 255 0
4.552806 -11.835975 1.801 170 255 0
4.286866 -11.697104 2.078 170 255 0
4.42941 -11.771979 1.922 170 255 0
4.73099 -11.929008 1.744 170 255 0
4.968452 -12.048879 1.969 170 255 0
4.419609 -11.766985 1.936 170 255 0
4.706933 -11.916751 1.654 170 255 0
4.444994 -11.781042 1.786 170 255 0
4.543425 -11.834562 1.555 170 255 0
4.377749 -11.743412 2.062 170 255 0
4.984053 -12.055706 2.067 170 255 0
4.760848 -11.943099 1.861 170 255 0
4.898971 -12.011231 2.085 170 255 0
4.817435 -11.97081 1.993 170 255 0
4.760411 -11.941754 1.989 170 255 0
4.469506 -11.792409 1.952 170 255 0
4.733681 -11.928135 1.991 170 255 0
4.934156 -12.030283 2.002 170 255 0
4.814308 -11.970339 1.807 170 255 0
5.006329 -12.067056 2.037 170 255 0
4.817889 -11.969919 2.052 170 255 0
4.559463 -11.842734 1.563 170 255 0
4.590665 -11.856387 1.781 170 255 0
4.899408 -12.012577 2.069 170 255 0
4.383095 -11.746136 2.099 170 255 0
4.670856 -11.897246 1.8 170 255 0
5.003655 -12.065694 2.051 170 255 0
4.902972 -12.014393 2.007 170 255 0
4.33809 -11.724327 1.994 170 255 0
4.302013 -11.704823 2.115 170 255 0
4.751938 -11.93856 1.869 170 255 0
4.852184 -11.988516 2.049 170 255 0
4.563045 -11.842314 1.698 170 255 0
4.589775 -11.855933 1.715 170 255 0
4.693148 -11.90636 2.027 170 255 0
4.48778 -11.800597 2.086 170 255 0
4.756829 -11.942175 1.761 170 255 0
4.613814 -11.870427 1.544 170 255 0
4.640142 -11.87823 2.073 170 255 0
4.620506 -11.872714 1.633 170 255 0
4.550149 -11.832376 2.068 170 255 0
4.560388 -11.838716 1.923 170 255 0
4.95776 -12.043431 1.965 170 255 0
4.870005 -11.997596 1.947 170 255 0
4.555042 -11.835992 1.969 170 255 0
4.302013 -11.704823 2.095 170 255 0
4.486434 -11.801034 1.952 170 255 0
4.473524 -11.793334 2.056 170 255 0
4.850856 -11.986716 2.068 170 255 0
4.903863 -12.014847 2.073 170 255 0
4.466395 -11.789701 2.01 170 255 0
4.540349 -11.827383 2.036 170 255 0
4.767538 -11.945386 2.005 170 255 0
4.644109 -11.885863 1.582 170 255 0
4.587993 -11.855025 1.716 170 255 0
4.670856 -11.897246 1.792 170 255 0
4.341218 -11.724798 2.071 170 255 0
4.356801 -11.733861 2.042 170 255 0
4.659743 -11.888218 2.08 170 255 0
4.55368 -11.838665 1.594 170 255 0
4.71897 -11.921762 1.766 170 255 0
4.465505 -11.789248 2.06 170 255 0
4.546586 -11.830561 2.115 170 255 0
4.467707 -11.793736 1.724 170 255 0
4.616942 -11.870898 1.654 170 255 0
4.898063 -12.013014 1.927 170 255 0
4.571046 -11.848636 1.516 170 255 0
4.612503 -11.866392 1.934 170 255 0
4.625432 -11.871857 2.026 170 255 0
4.543005 -11.83098 1.847 170 255 0
4.455249 -11.785145 1.928 170 255 0
4.379077 -11.745211 1.975 170 255 0
4.40937 -11.760646 2.042 170 255 0
4.538987 -11.830055 1.763 170 255 0
4.770649 -11.948093 1.809 170 255 0
4.709623 -11.915877 1.888 170 255 0
4.859749 -11.993492 1.928 170 255 0
4.784031 -11.952667 2.08 170 255 0
4.465941 -11.790592 1.896 170 255 0
4.444994 -11.781042 1.857 170 255 0
4.701167 -11.910446 1.996 170 255 0
4.704278 -11.913154 1.981 170 255 0
4.906082 -12.017099 1.951 170 255 0
4.52342 -11.818757 2.046 170 255 0
4.711389 -11.919021 1.709 170 255 0
4.806289 -11.966252 1.813 170 255 0
5.03484 -12.081584 2.034 170 255 0
4.959542 -12.044339 1.92 170 255 0
4.404025 -11.757922 2.003 170 255 0
4.729208 -11.928101 1.702 170 255 0
4.699368 -11.911774 1.781 170 255 0
4.572408 -11.845963 1.909 170 255 0
4.735899 -11.930387 1.845 170 255 0
4.649455 -11.888587 1.594 170 255 0
4.846385 -11.986682 1.909 170 255 0
4.41739 -11.764732 2.063 170 255 0
5.079391 -12.104283 2.099 170 255 0
4.696695 -11.910412 1.858 170 255 0
4.579553 -11.847359 2.051 170 255 0
4.480197 -11.797856 1.988 170 255 0
4.665946 -11.895867 1.686 170 255 0
4.503817 -11.808769 2.024 170 255 0
4.742574 -11.934911 1.734 170 255 0
4.538549 -11.828711 1.789 170 255 0
4.763066 -11.945353 1.727 170 255 0
4.819654 -11.973063 1.914 170 255 0
4.640579 -11.879575 1.998 170 255 0
4.662854 -11.890924 2.029 170 255 0
4.743028 -11.934019 1.854 170 255 0
4.480197 -11.797856 1.91 170 255 0
4.529203 -11.822825 1.943 170 255 0
4.510946 -11.812402 2.062 170 255 0
4.598248 -11.859128 1.904 170 255 0
4.674891 -11.895936 2.094 170 255 0
4.615631 -11.866863 1.976 170 255 0
4.813434 -11.967649 2.045 170 255 0
4.39377 -11.753819 1.914 170 255 0
4.423173 -11.768801 1.908 170 255 0
4.704731 -11.912262 2.043 170 255 0
4.445902 -11.77926 2.035 170 255 0
4.881134 -12.004388 1.929 170 255 0
4.736791 -11.930841 1.833 170 255 0
4.682002 -11.901803 1.862 170 255 0
4.646361 -11.883644 1.876 170 255 0
4.562624 -11.838733 2.035 170 255 0
4.850402 -11.987608 1.987 170 255 0
4.467287 -11.790156 2.069 170 255 0
5.032168 -12.080222 2.108 170 255 0
4.800506 -11.962184 2.023 170 255 0
