ply
format ascii 1.0
element vertex 1302
property double x
property double y
property double z
property uchar red
property uchar green
property uchar blue
element face 0
property list uchar int vertex_indices
end_header
4.807803 -12.179144 0.435 255 84 255
4.89068 -12.278611 0.425 255 84 255
4.924046 -12.125018 0.436 255 84 255
4.831351 -12.258482 0.429 255 84 255
4.910506 -12.200048 0.431 255 84 255
4.751326 -12.254745 0.431 255 84 255
4.829836 -12.28128 0.427 255 84 255
4.78913 -12.341346 0.423 255 84 255
4.72903 -12.305112 0.428 255 84 255
4.688629 -12.324929 0.427 255 84 255
4.853894 -12.293537 0.425 255 84 255
4.878244 -12.208302 0.431 255 84 255
4.697162 -12.202455 0.437 255 84 255
4.719806 -12.224093 0.434 255 84 255
4.787917 -12.383375 0.42 255 84 255
4.893068 -12.258504 0.427 255 84 255
4.719191 -12.36407 0.424 255 84 255
4.758925 -12.255249 0.431 255 84 255
4.657635 -12.224963 0.436 255 84 255
4.671398 -12.297071 0.43 255 84 255
4.849197 -12.146364 0.437 255 84 255
4.820778 -12.237382 0.431 255 84 255
4.888528 -12.267414 0.426 255 84 255
4.726144 -12.213856 0.435 255 84 255
4.857318 -12.137034 0.437 255 84 255
4.850601 -12.255945 0.428 255 84 255
4.771802 -12.267422 0.43 255 84 255
4.790085 -12.392337 0.419 255 84 255
4.620276 -12.256433 0.435 255 84 255
4.558003 -12.270719 0.435 255 84 255
4.600873 -12.279094 0.433 255 84 255
4.819506 -12.169394 0.436 255 84 255
4.614476 -12.254601 0.435 255 84 255
4.890107 -12.295154 0.424 255 84 255
4.869559 -12.350901 0.42 255 84 255
4.827206 -12.392172 0.418 255 84 255
4.883551 -12.274979 0.426 255 84 255
4.691976 -12.296332 0.429 255 84 255
4.707298 -12.22221 0.435 255 84 255
4.69137 -12.317348 0.428 255 84 255
4.589057 -12.245014 0.436 255 84 255
4.872448 -12.146988 0.436 255 84 255
4.782388 -12.345767 0.423 255 84 255
4.61896 -12.311879 0.43 255 84 255
4.898677 -12.344413 0.42 255 84 255
4.693674 -12.308421 0.428 255 84 255
4.799262 -12.184894 0.435 255 84 255
4.824741 -12.304496 0.425 255 84 255
4.877522 -12.421175 0.415 255 84 255
4.661232 -12.222307 0.436 255 84 255
4.826481 -12.193151 0.434 255 84 255
4.824355 -12.296443 0.426 255 84 255
4.837737 -12.301018 0.425 255 84 255
4.735606 -12.26357 0.431 255 84 255
4.848574 -12.169615 0.435 255 84 255
4.813408 -12.324535 0.424 255 84 255
4.633892 -12.289184 0.432 255 84 255
4.821308 -12.344274 0.422 255 84 255
4.710905 -12.33628 0.426 255 84 255
4.821792 -12.162703 0.436 255 84 255
4.784968 -12.241583 0.431 255 84 255
4.816722 -12.30041 0.426 255 84 255
4.757741 -12.352288 0.423 255 84 255
4.829255 -12.416784 0.416 255 84 255
4.630867 -12.275297 0.433 255 84 255
4.776499 -12.178906 0.436 255 84 255
4.866788 -12.303474 0.424 255 84 255
4.701111 -12.212323 0.436 255 84 255
4.846821 -12.223716 0.431 255 84 255
4.804994 -12.195671 0.434 255 84 255
4.861073 -12.290462 0.425 255 84 255
4.622626 -12.300279 0.431 255 84 255
4.760707 -12.256157 0.431 255 84 255
4.883038 -12.40154 0.416 255 84 255
4.879988 -12.273163 0.426 255 84 255
4.80387 -12.167039 0.436 255 84 255
4.774645 -12.246425 0.431 255 84 255
4.796911 -12.376736 0.42 255 84 255
4.868175 -12.415291 0.416 255 84 255
4.822637 -12.346072 0.422 255 84 255
4.812356 -12.227479 0.431 255 84 255
4.798812 -12.361992 0.421 255 84 255
4.643578 -12.250349 0.434 255 84 255
4.617535 -12.264015 0.434 255 84 255
4.730455 -12.352976 0.424 255 84 255
4.61034 -12.269327 0.434 255 84 255
4.745114 -12.366056 0.423 255 84 255
4.747554 -12.339241 0.425 255 84 255
4.855231 -12.412062 0.416 255 84 255
4.593427 -12.258465 0.435 255 84 255
4.733001 -12.253263 0.432 255 84 255
4.761377 -12.285679 0.428 255 84 255
4.769146 -12.263824 0.43 255 84 255
4.697195 -12.197983 0.437 255 84 255
4.61678 -12.245672 0.435 255 84 255
4.682379 -12.264507 0.432 255 84 255
4.916638 -12.276125 0.425 255 84 255
4.92971 -12.144739 0.435 255 84 255
4.843133 -12.297033 0.425 255 84 255
4.706822 -12.284818 0.43 255 84 255
4.647427 -12.273634 0.432 255 84 255
4.914652 -12.302048 0.423 255 84 255
4.738793 -12.374058 0.422 255 84 255
4.793093 -12.172771 0.436 255 84 255
4.915763 -12.273435 0.425 255 84 255
4.898393 -12.322944 0.422 255 84 255
4.725364 -12.316712 0.427 255 84 255
4.67086 -12.309142 0.429 255 84 255
4.816531 -12.148799 0.437 255 84 255
4.871765 -12.295909 0.425 255 84 255
4.899845 -12.24961 0.427 255 84 255
4.765481 -12.275424 0.429 255 84 255
4.897171 -12.248248 0.428 255 84 255
4.883513 -12.338932 0.421 255 84 255
4.822886 -12.372013 0.42 255 84 255
4.856219 -12.222893 0.431 255 84 255
4.562157 -12.253756 0.436 255 84 255
4.605027 -12.262131 0.435 255 84 255
4.784455 -12.368144 0.421 255 84 255
4.897439 -12.271954 0.426 255 84 255
4.730243 -12.263082 0.431 255 84 255
4.916655 -12.273889 0.425 255 84 255
4.873509 -12.125081 0.438 255 84 255
4.658369 -12.305022 0.43 255 84 255
4.795037 -12.270282 0.429 255 84 255
4.894425 -12.315311 0.423 255 84 255
4.61143 -12.30243 0.431 255 84 255
4.867687 -12.420654 0.415 255 84 255
4.74461 -12.373655 0.422 255 84 255
4.860237 -12.223818 0.43 255 84 255
4.77546 -12.374784 0.421 255 84 255
4.673465 -12.319448 0.428 255 84 255
4.926244 -12.188988 0.431 255 84 255
4.62636 -12.279734 0.433 255 84 255
4.774658 -12.303669 0.427 255 84 255
4.738308 -12.319941 0.426 255 84 255
4.937763 -12.144353 0.435 255 84 255
4.76845 -12.3555 0.423 255 84 255
4.821478 -12.321914 0.424 255 84 255
4.932146 -12.177405 0.432 255 84 255
4.693813 -12.231051 0.434 255 84 255
4.854666 -12.309643 0.424 255 84 255
4.625032 -12.277936 0.433 255 84 255
4.885562 -12.363544 0.419 255 84 255
4.686398 -12.265431 0.432 255 84 255
4.906887 -12.264422 0.426 255 84 255
4.711901 -12.263837 0.431 255 84 255
4.865948 -12.296311 0.425 255 84 255
4.581742 -12.265979 0.435 255 84 255
4.62942 -12.289149 0.432 255 84 255
4.850572 -12.436625 0.414 255 84 255
4.790883 -12.287245 0.428 255 84 255
4.563434 -12.262262 0.436 255 84 255
4.814143 -12.168906 0.436 255 84 255
4.765871 -12.223995 0.433 255 84 255
4.818067 -12.299973 0.426 255 84 255
4.870445 -12.175147 0.434 255 84 255
4.77154 -12.184236 0.436 255 84 255
4.825288 -12.409151 0.417 255 84 255
4.735203 -12.257752 0.431 255 84 255
4.93016 -12.203329 0.43 255 84 255
4.639339 -12.278491 0.432 255 84 255
4.779427 -12.382417 0.42 255 84 255
4.841309 -12.419559 0.416 255 84 255
4.728084 -12.370847 0.423 255 84 255
4.777038 -12.166836 0.437 255 84 255
4.719186 -12.187863 0.437 255 84 255
4.902848 -12.325214 0.422 255 84 255
4.779932 -12.374818 0.421 255 84 255
4.936656 -12.113485 0.437 255 84 255
4.799415 -12.164769 0.437 255 84 255
4.913527 -12.273417 0.425 255 84 255
4.674106 -12.293961 0.43 255 84 255
4.876266 -12.350952 0.42 255 84 255
4.790038 -12.339563 0.423 255 84 255
4.93652 -12.131373 0.436 255 84 255
4.767106 -12.355937 0.423 255 84 255
4.831827 -12.195874 0.433 255 84 255
4.916658 -12.214407 0.43 255 84 255
4.811185 -12.381763 0.42 255 84 255
4.85711 -12.223347 0.431 255 84 255
4.88278 -12.258873 0.427 255 84 255
4.818695 -12.217241 0.432 255 84 255
4.887095 -12.338511 0.421 255 84 255
4.747457 -12.293177 0.428 255 84 255
4.719942 -12.206205 0.436 255 84 255
4.615435 -12.24611 0.436 255 84 255
4.738471 -12.180854 0.437 255 84 255
4.854556 -12.442021 0.414 255 84 255
4.834665 -12.234358 0.43 255 84 255
4.776151 -12.342589 0.424 255 84 255
4.842604 -12.190142 0.434 255 84 255
4.820371 -12.291046 0.426 255 84 255
4.741385 -12.32712 0.426 255 84 255
4.890629 -12.285318 0.425 255 84 255
4.896688 -12.194131 0.432 255 84 255
4.852664 -12.337803 0.422 255 84 255
4.796636 -12.236305 0.431 255 84 255
4.75747 -12.388064 0.421 255 84 255
4.720658 -12.2885 0.429 255 84 255
4.820104 -12.267341 0.428 255 84 255
4.669799 -12.331048 0.427 255 84 255
4.730599 -12.216125 0.435 255 84 255
4.722933 -12.224565 0.434 255 84 255
4.869524 -12.355373 0.42 255 84 255
4.706483 -12.329537 0.427 255 84 255
4.907558 -12.293944 0.424 255 84 255
4.826964 -12.247268 0.43 255 84 255
4.762647 -12.17746 0.437 255 84 255
4.805317 -12.153187 0.437 255 84 255
4.851802 -12.392358 0.418 255 84 255
4.822835 -12.378721 0.42 255 84 255
4.659837 -12.229452 0.436 255 84 255
4.808588 -12.252496 0.43 255 84 255
4.674899 -12.24835 0.434 255 84 255
4.908461 -12.115955 0.437 255 84 255
4.812407 -12.220772 0.432 255 84 255
4.718924 -12.340365 0.425 255 84 255
4.572026 -12.249805 0.436 255 84 255
4.857679 -12.266285 0.427 255 84 255
4.905852 -12.165131 0.434 255 84 255
4.657885 -12.250904 0.434 255 84 255
4.89763 -12.187876 0.432 255 84 255
4.718758 -12.303245 0.428 255 84 255
4.602184 -12.283129 0.433 255 84 255
4.834105 -12.308146 0.425 255 84 255
4.58966 -12.283482 0.433 255 84 255
4.624395 -12.243942 0.435 255 84 255
4.86932 -12.146517 0.436 255 84 255
4.667453 -12.227721 0.435 255 84 255
4.74155 -12.364241 0.423 255 84 255
4.622643 -12.298042 0.431 255 84 255
4.828899 -12.228052 0.431 255 84 255
4.841831 -12.174036 0.435 255 84 255
4.89922 -12.272861 0.426 255 84 255
4.559399 -12.263574 0.436 255 84 255
4.790259 -12.310495 0.426 255 84 255
4.680012 -12.222897 0.435 255 84 255
4.801829 -12.259152 0.429 255 84 255
4.821461 -12.324149 0.424 255 84 255
4.841373 -12.234408 0.43 255 84 255
4.722806 -12.359179 0.424 255 84 255
4.839599 -12.350226 0.421 255 84 255
4.792236 -12.167846 0.437 255 84 255
4.553934 -12.276502 0.435 255 84 255
4.859061 -12.437583 0.414 255 84 255
4.827703 -12.267847 0.428 255 84 255
4.886619 -12.40112 0.416 255 84 255
4.730192 -12.269789 0.431 255 84 255
4.886636 -12.398884 0.416 255 84 255
4.837924 -12.276421 0.427 255 84 255
4.744007 -12.335189 0.425 255 84 255
4.786182 -12.199553 0.434 255 84 255
4.725245 -12.332364 0.426 255 84 255
4.850096 -12.263544 0.428 255 84 255
4.847775 -12.274707 0.427 255 84 255
4.815953 -12.224823 0.432 255 84 255
4.785863 -12.182556 0.436 255 84 255
4.840244 -12.265258 0.428 255 84 255
4.559399 -12.263574 0.436 255 84 255
4.683406 -12.247073 0.434 255 84 255
4.628778 -12.314637 0.43 255 84 255
4.813947 -12.312464 0.425 255 84 255
4.900374 -12.356502 0.419 255 84 255
4.883187 -12.205209 0.431 255 84 255
4.89474 -12.39179 0.417 255 84 255
4.843664 -12.403924 0.417 255 84 255
4.776283 -12.384182 0.42 255 84 255
4.694166 -12.243577 0.434 255 84 255
4.699886 -12.197109 0.437 255 84 255
4.882351 -12.138565 0.436 255 84 255
4.848285 -12.207626 0.432 255 84 255
4.855303 -12.343637 0.421 255 84 255
4.716089 -12.242402 0.433 255 84 255
4.746926 -12.186285 0.436 255 84 255
4.6133 -12.232677 0.437 255 84 255
4.727201 -12.251431 0.432 255 84 255
4.728066 -12.373083 0.423 255 84 255
4.853991 -12.339602 0.422 255 84 255
4.791812 -12.223745 0.432 255 84 255
4.903493 -12.240247 0.428 255 84 255
4.855629 -12.241672 0.429 255 84 255
4.789873 -12.302443 0.426 255 84 255
4.924899 -12.189425 0.431 255 84 255
4.804375 -12.15944 0.437 255 84 255
4.609936 -12.26351 0.434 255 84 255
4.779733 -12.342169 0.424 255 84 255
4.780522 -12.356039 0.423 255 84 255
4.691421 -12.310639 0.428 255 84 255
4.642283 -12.244078 0.435 255 84 255
4.656001 -12.263412 0.433 255 84 255
4.859575 -12.311022 0.424 255 84 255
4.789143 -12.398591 0.419 255 84 255
4.780344 -12.261673 0.43 255 84 255
4.888312 -12.237 0.429 255 84 255
4.936236 -12.109904 0.437 255 84 255
4.813667 -12.231515 0.431 255 84 255
4.707578 -12.30316 0.429 255 84 255
4.955151 -12.092606 0.438 255 84 255
4.89216 -12.260285 0.427 255 84 255
4.626077 -12.258265 0.434 255 84 255
4.81544 -12.351384 0.422 255 84 255
4.668377 -12.223703 0.436 255 84 255
4.640501 -12.24317 0.435 255 84 255
4.723722 -12.238435 0.433 255 84 255
4.750579 -12.353128 0.424 255 84 255
4.860373 -12.441618 0.414 255 84 255
4.686749 -12.277957 0.431 255 84 255
4.81838 -12.376451 0.42 255 84 255
4.645462 -12.237841 0.435 255 84 255
4.844954 -12.233989 0.43 255 84 255
4.756668 -12.316949 0.426 255 84 255
4.801329 -12.20727 0.433 255 84 255
4.701124 -12.269568 0.431 255 84 255
4.855786 -12.162066 0.435 255 84 255
4.798232 -12.261808 0.429 255 84 255
4.563417 -12.264498 0.436 255 84 255
4.691697 -12.215383 0.436 255 84 255
4.924258 -12.214911 0.429 255 84 255
4.868184 -12.296329 0.425 255 84 255
4.891057 -12.405625 0.416 255 84 255
4.849842 -12.297084 0.425 255 84 255
4.750146 -12.292301 0.428 255 84 255
4.806751 -12.317777 0.425 255 84 255
4.874985 -12.401926 0.416 255 84 255
4.705347 -12.243662 0.433 255 84 255
4.763101 -12.176569 0.437 255 84 255
4.912093 -12.108827 0.438 255 84 255
4.686919 -12.255596 0.433 255 84 255
4.918912 -12.212188 0.43 255 84 255
4.748955 -12.272615 0.43 255 84 255
4.880972 -12.143475 0.436 255 84 255
4.678412 -12.256874 0.433 255 84 255
4.895427 -12.183388 0.433 255 84 255
4.732101 -12.371772 0.423 255 84 255
4.910184 -12.242533 0.428 255 84 255
4.892186 -12.139088 0.436 255 84 255
4.724112 -12.187006 0.437 255 84 255
4.889033 -12.259815 0.427 255 84 255
4.818126 -12.174303 0.435 255 84 255
4.831402 -12.251774 0.429 255 84 255
4.658119 -12.279081 0.432 255 84 255
4.853682 -12.203643 0.432 255 84 255
4.592247 -12.296023 0.432 255 84 255
4.852404 -12.195136 0.433 255 84 255
4.634243 -12.301708 0.431 255 84 255
4.715817 -12.278177 0.43 255 84 255
4.812619 -12.310666 0.425 255 84 255
4.782176 -12.255873 0.43 255 84 255
4.702741 -12.233356 0.434 255 84 255
4.78655 -12.209842 0.434 255 84 255
4.837177 -12.374805 0.42 255 84 255
4.875062 -12.274019 0.426 255 84 255
4.834291 -12.283549 0.427 255 84 255
4.853329 -12.426806 0.415 255 84 255
4.636064 -12.238664 0.435 255 84 255
4.805364 -12.205959 0.433 255 84 255
4.599698 -12.257171 0.435 255 84 255
4.802042 -12.349047 0.422 255 84 255
4.898075 -12.305947 0.423 255 84 255
4.890828 -12.317967 0.422 255 84 255
4.753345 -12.224348 0.433 255 84 255
4.827117 -12.227144 0.431 255 84 255
4.921687 -12.200133 0.431 255 84 255
4.898156 -12.118561 0.438 255 84 255
4.73892 -12.239444 0.433 255 84 255
4.751984 -12.227021 0.433 255 84 255
4.911848 -12.259093 0.426 255 84 255
4.820133 -12.322351 0.424 255 84 255
4.802084 -12.225613 0.432 255 84 255
4.891702 -12.320658 0.422 255 84 255
4.625826 -12.232325 0.436 255 84 255
4.882652 -12.157799 0.435 255 84 255
4.862257 -12.193421 0.433 255 84 255
4.877709 -12.160892 0.435 255 84 255
4.825305 -12.406916 0.417 255 84 255
4.889619 -12.300516 0.424 255 84 255
4.872431 -12.384912 0.418 255 84 255
4.823498 -12.291517 0.426 255 84 255
4.863134 -12.372319 0.419 255 84 255
4.65385 -12.252215 0.434 255 84 255
4.775519 -12.249114 0.431 255 84 255
4.774832 -12.221828 0.433 255 84 255
4.771556 -12.181999 0.436 255 84 255
4.891325 -12.193643 0.432 255 84 255
4.894333 -12.209765 0.431 255 84 255
4.8621 -12.273026 0.427 255 84 255
4.747415 -12.180923 0.437 255 84 255
4.691039 -12.243106 0.434 255 84 255
4.727621 -12.255012 0.432 255 84 255
4.735746 -12.1862 0.437 255 84 255
4.844907 -12.416903 0.416 255 84 255
4.780958 -12.357384 0.422 255 84 255
4.79437 -12.181278 0.436 255 84 255
4.786712 -12.306444 0.426 255 84 255
4.780899 -12.247365 0.431 255 84 255
4.788892 -12.37265 0.421 255 84 255
4.654304 -12.251325 0.434 255 84 255
4.687271 -12.268123 0.432 255 84 255
4.700958 -12.232448 0.434 255 84 255
4.742093 -12.292688 0.428 255 84 255
4.909764 -12.238952 0.428 255 84 255
4.763431 -12.250811 0.431 255 84 255
4.786088 -12.329695 0.424 255 84 255
4.539695 -12.267002 0.436 255 84 255
4.805559 -12.298089 0.426 255 84 255
4.659128 -12.263884 0.433 255 84 255
4.729933 -12.36281 0.423 255 84 255
4.808846 -12.395163 0.419 255 84 255
4.792486 -12.193787 0.435 255 84 255
4.917987 -12.216207 0.429 255 84 255
4.797221 -12.277006 0.428 255 84 255
4.82962 -12.250866 0.429 255 84 255
4.849541 -12.277851 0.427 255 84 255
4.808177 -12.365641 0.421 255 84 255
4.882991 -12.348767 0.42 255 84 255
4.844495 -12.29436 0.425 255 84 255
4.753002 -12.328548 0.425 255 84 255
4.779113 -12.305939 0.426 255 84 255
4.915632 -12.231841 0.428 255 84 255
4.700785 -12.314289 0.428 255 84 255
4.680563 -12.26807 0.432 255 84 255
4.773172 -12.381474 0.421 255 84 255
4.69126 -12.214038 0.436 255 84 255
4.79717 -12.283714 0.428 255 84 255
4.661479 -12.30773 0.429 255 84 255
4.748925 -12.217606 0.434 255 84 255
4.769804 -12.236101 0.432 255 84 255
4.659417 -12.225871 0.436 255 84 255
4.890035 -12.363579 0.419 255 84 255
4.8171 -12.191737 0.434 255 84 255
4.619079 -12.296227 0.432 255 84 255
4.656485 -12.317531 0.429 255 84 255
4.757143 -12.254341 0.431 255 84 255
4.642789 -12.236479 0.435 255 84 255
4.850509 -12.150398 0.436 255 84 255
4.696084 -12.226597 0.435 255 84 255
4.840456 -12.355152 0.421 255 84 255
4.671059 -12.341792 0.427 255 84 255
4.722975 -12.336818 0.426 255 84 255
4.800968 -12.313707 0.425 255 84 255
4.949737 -12.098826 0.438 255 84 255
4.654907 -12.28979 0.431 255 84 255
4.815704 -12.198882 0.434 255 84 255
4.626678 -12.296732 0.431 255 84 255
4.858018 -12.221565 0.431 255 84 255
4.751276 -12.261452 0.431 255 84 255
4.904804 -12.244281 0.428 255 84 255
4.871005 -12.337048 0.421 255 84 255
4.813629 -12.295468 0.426 255 84 255
4.62387 -12.313257 0.43 255 84 255
4.868323 -12.454648 0.412 255 84 255
4.904184 -12.208051 0.43 255 84 255
4.88129 -12.160472 0.435 255 84 255
4.808924 -12.267257 0.429 255 84 255
4.709364 -12.244587 0.433 255 84 255
4.782693 -12.305519 0.426 255 84 255
4.86341 -12.277061 0.426 255 84 255
4.856575 -12.411625 0.416 255 84 255
4.800467 -12.261826 0.429 255 84 255
4.771344 -12.327794 0.425 255 84 255
4.691815 -12.199731 0.437 255 84 255
4.765468 -12.218179 0.434 255 84 255
4.849006 -12.230441 0.43 255 84 255
4.666103 -12.287639 0.431 255 84 255
4.853296 -12.431278 0.415 255 84 255
4.843456 -12.254549 0.429 255 84 255
4.70353 -12.247226 0.433 255 84 255
4.675722 -12.257748 0.433 255 84 255
4.937076 -12.117067 0.437 255 84 255
4.794557 -12.39237 0.419 255 84 255
4.643391 -12.274945 0.432 255 84 255
4.807672 -12.37324 0.42 255 84 255
4.854861 -12.401773 0.417 255 84 255
4.908525 -12.166492 0.434 255 84 255
4.847029 -12.137403 0.438 255 84 255
4.66772 -12.251426 0.434 255 84 255
4.807812 -12.295871 0.426 255 84 255
4.730243 -12.263082 0.431 255 84 255
4.732568 -12.192437 0.436 255 84 255
4.806612 -12.159458 0.437 255 84 255
4.769655 -12.196743 0.435 255 84 255
4.82635 -12.151557 0.437 255 84 255
4.81337 -12.1528 0.437 255 84 255
4.856834 -12.318604 0.423 255 84 255
4.791358 -12.224637 0.432 255 84 255
4.565955 -12.283749 0.434 255 84 255
4.873313 -12.26864 0.427 255 84 255
4.728024 -12.260828 0.431 255 84 255
4.800107 -12.368262 0.421 255 84 255
4.773127 -12.328702 0.425 255 84 255
4.857246 -12.205459 0.432 255 84 255
4.842429 -12.271983 0.427 255 84 255
4.724261 -12.226363 0.434 255 84 255
4.856359 -12.381212 0.419 255 84 255
4.869737 -12.445268 0.413 255 84 255
4.597008 -12.258045 0.435 255 84 255
4.856724 -12.215294 0.431 255 84 255
4.819187 -12.152397 0.437 255 84 255
4.844071 -12.350261 0.421 255 84 255
4.713144 -12.276815 0.43 255 84 255
4.895903 -12.356467 0.419 255 84 255
4.780946 -12.300138 0.427 255 84 255
4.784132 -12.174939 0.436 255 84 255
4.642921 -12.278071 0.432 255 84 255
4.750295 -12.331659 0.425 255 84 255
4.847024 -12.196884 0.433 255 84 255
4.811991 -12.157709 0.437 255 84 255
4.839175 -12.170438 0.435 255 84 255
4.777454 -12.229897 0.432 255 84 255
4.837393 -12.16953 0.435 255 84 255
4.746956 -12.241294 0.432 255 84 255
4.554087 -12.256377 0.436 255 84 255
4.734367 -12.19111 0.436 255 84 255
4.763189 -12.341596 0.424 255 84 255
4.626678 -12.296732 0.431 255 84 255
4.888741 -12.12162 0.438 255 84 255
4.877527 -12.126006 0.438 255 84 255
4.609851 -12.27469 0.433 255 84 255
4.889471 -12.26116 0.427 255 84 255
4.72763 -12.371737 0.423 255 84 255
4.675875 -12.237624 0.434 255 84 255
4.884769 -12.409156 0.416 255 84 255
4.835394 -12.373898 0.42 255 84 255
4.917253 -12.136147 0.436 255 84 255
4.788558 -12.357888 0.422 255 84 255
4.786627 -12.317624 0.425 255 84 255
4.905984 -12.206723 0.431 255 84 255
4.738194 -12.276111 0.43 255 84 255
4.843197 -12.34757 0.421 255 84 255
4.830723 -12.341214 0.422 255 84 255
4.790403 -12.409334 0.418 255 84 255
4.834241 -12.290257 0.426 255 84 255
4.772078 -12.172165 0.437 255 84 255
4.855684 -12.175483 0.434 255 84 255
4.832841 -12.356883 0.421 255 84 255
4.874769 -12.135825 0.437 255 84 255
4.733213 -12.343158 0.425 255 84 255
4.794251 -12.196931 0.434 255 84 255
4.598943 -12.23883 0.436 255 84 255
4.764097 -12.339814 0.424 255 84 255
4.644867 -12.3161 0.429 255 84 255
4.754886 -12.316041 0.426 255 84 255
4.718644 -12.259416 0.432 255 84 255
4.691107 -12.234161 0.434 255 84 255
4.758976 -12.248541 0.431 255 84 255
4.687908 -12.302116 0.429 255 84 255
4.804681 -12.35488 0.422 255 84 255
4.839039 -12.424014 0.416 255 84 255
4.77347 -12.224502 0.433 255 84 255
4.809394 -12.26413 0.429 255 84 255
4.694972 -12.255211 0.433 255 84 255
4.760851 -12.354995 0.423 255 84 255
4.765183 -12.196711 0.435 255 84 255
4.672595 -12.257277 0.433 255 84 255
4.860857 -12.260048 0.428 255 84 255
4.858027 -12.338291 0.422 255 84 255
4.678963 -12.302048 0.429 255 84 255
4.852608 -12.403992 0.417 255 84 255
4.896187 -12.377936 0.418 255 84 255
4.821741 -12.169412 0.436 255 84 255
4.881879 -12.377381 0.418 255 84 255
4.901257 -12.240229 0.428 255 84 255
4.750936 -12.306171 0.427 255 84 255
4.850945 -12.387432 0.418 255 84 255
4.889373 -12.215095 0.43 255 84 255
4.792253 -12.165609 0.437 255 84 255
4.920193 -12.161214 0.434 255 84 255
4.605532 -12.254532 0.435 255 84 255
4.701214 -12.198908 0.437 255 84 255
4.793522 -12.293079 0.427 255 84 255
4.758454 -12.258376 0.431 255 84 255
4.608943 -12.276472 0.433 255 84 255
4.800051 -12.198763 0.434 255 84 255
4.849757 -12.308265 0.424 255 84 255
4.803378 -12.231884 0.431 255 84 255
4.662107 -12.224998 0.436 255 84 255
4.636632 -12.281602 0.432 255 84 255
4.918386 -12.281505 0.424 255 84 255
4.755718 -12.206477 0.435 255 84 255
4.671968 -12.340009 0.427 255 84 255
4.833922 -12.27326 0.427 255 84 255
4.729666 -12.339106 0.425 255 84 255
4.700323 -12.198453 0.437 255 84 255
4.659667 -12.251812 0.434 255 84 255
4.636632 -12.281602 0.432 255 84 255
4.758925 -12.255249 0.431 255 84 255
4.820753 -12.358581 0.421 255 84 255
4.688803 -12.243089 0.434 255 84 255
4.871994 -12.147879 0.436 255 84 255
4.864433 -12.319109 0.423 255 84 255
4.586298 -12.254832 0.436 255 84 255
4.864981 -12.423764 0.415 255 84 255
4.697242 -12.250755 0.433 255 84 255
4.848573 -12.405303 0.417 255 84 255
4.696062 -12.288314 0.43 255 84 255
4.858608 -12.202785 0.432 255 84 255
4.725589 -12.228163 0.434 255 84 255
4.780407 -12.31221 0.426 255 84 255
4.847381 -12.385616 0.418 255 84 255
4.558979 -12.259993 0.436 255 84 255
4.83203 -12.404731 0.417 255 84 255
4.699398 -12.202472 0.437 255 84 255
4.597462 -12.257154 0.435 255 84 255
4.879202 -12.199811 0.432 255 84 255
4.794425 -12.350778 0.423 255 84 255
4.854484 -12.274757 0.427 255 84 255
4.66209 -12.227233 0.436 255 84 255
4.655293 -12.297843 0.43 255 84 255
4.747745 -12.255164 0.431 255 84 255
4.841441 -12.225464 0.431 255 84 255
4.683822 -12.310135 0.429 255 84 255
4.843427 -12.435228 0.415 255 84 255
4.890905 -12.190062 0.432 255 84 255
4.887124 -12.393521 0.417 255 84 255
4.842048 -12.440137 0.414 255 84 255
4.644503 -12.24633 0.435 255 84 255
4.784556 -12.354728 0.422 255 84 255
4.565721 -12.255571 0.436 255 84 255
4.881689 -12.225769 0.43 255 84 255
4.845557 -12.272453 0.427 255 84 255
4.852388 -12.433061 0.415 255 84 255
4.717871 -12.24331 0.433 255 84 255
4.807243 -12.252932 0.43 255 84 255
4.891036 -12.231655 0.429 255 84 255
4.92999 -12.225689 0.428 255 84 255
4.86585 -12.250247 0.428 255 84 255
4.769562 -12.326886 0.425 255 84 255
4.88936 -12.157849 0.435 255 84 255
4.749629 -12.242656 0.432 255 84 255
4.809284 -12.16082 0.437 255 84 255
4.69078 -12.336127 0.426 255 84 255
4.654287 -12.25356 0.434 255 84 255
4.864501 -12.310165 0.424 255 84 255
4.775341 -12.390436 0.42 255 84 255
4.690666 -12.292298 0.43 255 84 255
4.788095 -12.242054 0.431 255 84 255
4.765416 -12.224887 0.433 255 84 255
4.897659 -12.242886 0.428 255 84 255
4.75433 -12.330348 0.425 255 84 255
4.78863 -12.289464 0.427 255 84 255
4.842438 -12.153021 0.436 255 84 255
4.866936 -12.342831 0.421 255 84 255
4.781073 -12.401213 0.419 255 84 255
4.829633 -12.308111 0.425 255 84 255
4.857836 -12.422368 0.415 255 84 255
4.647596 -12.251273 0.434 255 84 255
4.906327 -12.33821 0.42 255 84 255
4.68988 -12.218947 0.435 255 84 255
4.843401 -12.320739 0.424 255 84 255
4.830668 -12.407404 0.417 255 84 255
4.612188 -12.261291 0.434 255 84 255
4.84125 -12.309542 0.424 255 84 255
4.822832 -12.202514 0.433 255 84 255
4.710688 -12.305867 0.428 255 84 255
4.843125 -12.415996 0.416 255 84 255
4.900095 -12.275552 0.425 255 84 255
4.880229 -12.418066 0.415 255 84 255
4.818729 -12.21277 0.432 255 84 255
4.696444 -12.355847 0.425 255 84 255
4.869587 -12.40591 0.416 255 84 255
4.7007 -12.325469 0.427 255 84 255
4.801078 -12.181329 0.435 255 84 255
4.773075 -12.33541 0.424 255 84 255
4.698621 -12.245847 0.433 255 84 255
4.877056 -12.129134 0.437 255 84 255
4.739539 -12.275674 0.43 255 84 255
4.766956 -12.31658 0.426 255 84 255
4.67666 -12.310974 0.429 255 84 255
4.717235 -12.209316 0.436 255 84 255
4.897502 -12.322491 0.422 255 84 255
4.922816 -12.169284 0.433 255 84 255
4.860759 -12.213983 0.431 255 84 255
4.899021 -12.240212 0.428 255 84 255
4.924865 -12.193896 0.431 255 84 255
4.697849 -12.22974 0.434 255 84 255
4.692235 -12.203312 0.437 255 84 255
4.854025 -12.33513 0.422 255 84 255
4.892916 -12.278627 0.425 255 84 255
4.595408 -12.292022 0.432 255 84 255
4.815117 -12.393868 0.419 255 84 255
4.876797 -12.457843 0.412 255 84 255
4.689576 -12.259194 0.432 255 84 255
4.814973 -12.295031 0.426 255 84 255
4.786228 -12.252326 0.43 255 84 255
4.886878 -12.308099 0.423 255 84 255
5.002115 -12.209689 0.406 255 84 255
4.974706 -12.285509 0.405 255 84 255
5.008976 -12.189616 0.407 255 84 255
4.958889 -12.248269 0.415 255 84 255
4.945964 -12.183323 0.429 255 84 255
4.929341 -12.370139 0.409 255 84 255
4.936104 -12.304 0.416 255 84 255
4.908474 -12.408889 0.411 255 84 255
5.019583 -12.206244 0.401 255 84 255
4.946822 -12.18825 0.428 255 84 255
4.971049 -12.178147 0.421 255 84 255
4.938052 -12.34203 0.41 255 84 255
4.991282 -12.28161 0.4 255 84 255
4.981575 -12.146474 0.422 255 84 255
4.971957 -12.176366 0.421 255 84 255
4.99172 -12.282956 0.4 255 84 255
5.018675 -12.208026 0.401 255 84 255
5.004691 -12.164987 0.411 255 84 255
5.040666 -12.197906 0.395 255 84 255
4.97194 -12.178601 0.421 255 84 255
4.92576 -12.370559 0.41 255 84 255
4.993404 -12.237799 0.405 255 84 255
4.944946 -12.317484 0.411 255 84 255
4.910613 -12.362841 0.416 255 84 255
4.921072 -12.340111 0.416 255 84 255
4.923405 -12.386193 0.409 255 84 255
4.905194 -12.428541 0.409 255 84 255
4.936956 -12.368407 0.407 255 84 255
4.961056 -12.25723 0.414 255 84 255
4.893645 -12.418168 0.414 255 84 255
5.024276 -12.17721 0.403 255 84 255
4.951671 -12.315299 0.409 255 84 255
4.931534 -12.2579 0.424 255 84 255
5.006214 -12.258915 0.398 255 84 255
4.967689 -12.149499 0.426 255 84 255
4.935434 -12.274478 0.42 255 84 255
4.958566 -12.290753 0.41 255 84 255
4.976781 -12.188925 0.418 255 84 255
4.971795 -12.315452 0.402 255 84 255
4.958553 -12.233509 0.418 255 84 255
5.019799 -12.236656 0.397 255 84 255
5.012501 -12.255385 0.397 255 84 255
4.954145 -12.284012 0.412 255 84 255
4.928068 -12.30215 0.418 255 84 255
5.003744 -12.230721 0.403 255 84 255
5.007682 -12.183345 0.408 255 84 255
5.039338 -12.196108 0.396 255 84 255
4.988805 -12.13669 0.421 255 84 255
4.964977 -12.21209 0.418 255 84 255
4.963717 -12.201347 0.42 255 84 255
4.921975 -12.397811 0.408 255 84 255
5.026592 -12.225528 0.396 255 84 255
4.957849 -12.208459 0.421 255 84 255
4.989777 -12.185445 0.414 255 84 255
4.925463 -12.291843 0.421 255 84 255
4.961358 -12.276464 0.411 255 84 255
4.947314 -12.359094 0.404 255 84 255
4.947971 -12.331371 0.408 255 84 255
4.982827 -12.276179 0.404 255 84 255
4.972818 -12.121811 0.428 255 84 255
4.975809 -12.140169 0.425 255 84 255
4.893509 -12.436056 0.412 255 84 255
4.915823 -12.383452 0.411 255 84 255
4.979971 -12.239933 0.409 255 84 255
4.999514 -12.139902 0.417 255 84 255
4.950992 -12.169051 0.429 255 84 255
4.93624 -12.286112 0.418 255 84 255
5.009833 -12.194542 0.406 255 84 255
4.99001 -12.213622 0.41 255 84 255
4.967552 -12.167388 0.424 255 84 255
4.921877 -12.351746 0.414 255 84 255
4.941637 -12.282127 0.417 255 84 255
5.001729 -12.201636 0.407 255 84 255
4.939944 -12.210559 0.427 255 84 255
5.010202 -12.204831 0.404 255 84 255
4.949185 -12.289341 0.413 255 84 255
5.012018 -12.201267 0.404 255 84 255
5.030644 -12.221981 0.395 255 84 255
4.950636 -12.216006 0.423 255 84 255
4.950996 -12.345258 0.405 255 84 255
4.975605 -12.167001 0.421 255 84 255
5.010168 -12.209303 0.403 255 84 255
4.953275 -12.221841 0.421 255 84 255
4.950054 -12.351512 0.405 255 84 255
4.990464 -12.212731 0.41 255 84 255
4.917724 -12.368709 0.413 255 84 255
4.933218 -12.212744 0.429 255 84 255
4.916129 -12.343204 0.417 255 84 255
4.941374 -12.198942 0.428 255 84 255
4.93783 -12.371098 0.406 255 84 255
4.983535 -12.241749 0.408 255 84 255
4.995242 -12.172518 0.414 255 84 255
4.951607 -12.264762 0.416 255 84 255
5.008942 -12.194088 0.406 255 84 255
4.961328 -12.221455 0.418 255 84 255
5.028679 -12.186188 0.4 255 84 255
4.938731 -12.252589 0.422 255 84 255
4.922382 -12.344146 0.415 255 84 255
4.938976 -12.338012 0.41 255 84 255
4.951607 -12.264762 0.416 255 84 255
4.973445 -12.274766 0.407 255 84 255
4.945163 -12.347897 0.407 255 84 255
5.035757 -12.196528 0.397 255 84 255
5.004827 -12.147098 0.414 255 84 255
4.997622 -12.271373 0.399 255 84 255
4.951824 -12.295175 0.412 255 84 255
4.987558 -12.183192 0.415 255 84 255
4.951926 -12.281758 0.413 255 84 255
4.993621 -12.268211 0.401 255 84 255
4.979738 -12.211756 0.413 255 84 255
4.95448 -12.298773 0.41 255 84 255
4.905313 -12.412889 0.411 255 84 255
4.936503 -12.369298 0.407 255 84 255
4.920482 -12.358891 0.413 255 84 255
4.983162 -12.290941 0.401 255 84 255
4.998127 -12.263773 0.4 255 84 255
4.95964 -12.326093 0.405 255 84 255
4.968201 -12.258626 0.411 255 84 255
4.966309 -12.154408 0.426 255 84 255
4.9649 -12.104308 0.433 255 84 255
4.996243 -12.276281 0.399 255 84 255
4.990032 -12.151906 0.418 255 84 255
4.984227 -12.209554 0.412 255 84 255
4.967001 -12.122213 0.43 255 84 255
4.997847 -12.182823 0.411 255 84 255
4.974324 -12.217976 0.414 255 84 255
4.952838 -12.220496 0.421 255 84 255
4.981855 -12.227425 0.41 255 84 255
4.944204 -12.356387 0.406 255 84 255
5.004856 -12.202107 0.406 255 84 255
5.020377 -12.160633 0.407 255 84 255
4.971112 -12.228684 0.414 255 84 255
4.904911 -12.407073 0.412 255 84 255
4.943567 -12.322392 0.411 255 84 255
5.025654 -12.172301 0.403 255 84 255
4.959928 -12.28808 0.41 255 84 255
4.921271 -12.37276 0.411 255 84 255
5.002315 -12.242338 0.402 255 84 255
4.988342 -12.256543 0.404 255 84 255
4.943402 -12.285272 0.416 255 84 255
4.88712 -12.453002 0.412 255 84 255
4.925323 -12.369213 0.41 255 84 255
4.921377 -12.299864 0.421 255 84 255
4.953754 -12.33544 0.405 255 84 255
4.949567 -12.356874 0.404 255 84 255
4.949062 -12.128786 0.435 255 84 255
4.91909 -12.306555 0.421 255 84 255
4.964264 -12.306004 0.406 255 84 255
4.931416 -12.273553 0.421 255 84 255
4.942247 -12.201632 0.428 255 84 255
4.950467 -12.238366 0.42 255 84 255
4.954446 -12.303246 0.409 255 84 255
5.014033 -12.230352 0.4 255 84 255
4.93809 -12.278076 0.418 255 84 255
4.947441 -12.22448 0.422 255 84 255
4.925208 -12.325384 0.416 255 84 255
4.967433 -12.18304 0.422 255 84 255
5.008505 -12.192743 0.406 255 84 255
4.959771 -12.131997 0.431 255 84 255
5.000397 -12.259318 0.4 255 84 255
4.976246 -12.141515 0.424 255 84 255
5.004822 -12.206579 0.406 255 84 255
5.018124 -12.162852 0.407 255 84 255
4.99273 -12.267756 0.401 255 84 255
4.941628 -12.165401 0.433 255 84 255
4.956236 -12.185191 0.425 255 84 255
4.920209 -12.394667 0.408 255 84 255
4.916986 -12.348131 0.416 255 84 255
5.0175 -12.186103 0.404 255 84 255
4.97541 -12.31056 0.402 255 84 255
4.959117 -12.335928 0.403 255 84 255
4.930457 -12.282043 0.42 255 84 255
4.957828 -12.270176 0.413 255 84 255
4.935225 -12.360791 0.408 255 84 255
4.975521 -12.178182 0.419 255 84 255
4.946643 -12.329572 0.408 255 84 255
4.984817 -12.190774 0.415 255 84 255
4.973798 -12.287292 0.405 255 84 255
4.987057 -12.13131 0.422 255 84 255
4.989603 -12.267286 0.403 255 84 255
4.962334 -12.265738 0.412 255 84 255
4.97149 -12.120011 0.429 255 84 255
4.981592 -12.144238 0.422 255 84 255
4.982255 -12.292723 0.402 255 84 255
4.993107 -12.159084 0.416 255 84 255
4.976272 -12.256005 0.409 255 84 255
4.994889 -12.159992 0.415 255 84 255
4.915675 -12.344095 0.417 255 84 255
4.948719 -12.232986 0.421 255 84 255
4.98693 -12.265924 0.404 255 84 255
5.036228 -12.1934 0.397 255 84 255
5.025569 -12.183481 0.402 255 84 255
4.961171 -12.30106 0.408 255 84 255
5.002488 -12.160497 0.413 255 84 255
5.023049 -12.161995 0.406 255 84 255
4.929341 -12.370139 0.409 255 84 255
4.993142 -12.154612 0.417 255 84 255
4.917923 -12.401358 0.408 255 84 255
4.95308 -12.12971 0.434 255 84 255
4.976892 -12.292234 0.403 255 84 255
4.997211 -12.148829 0.416 255 84 255
4.925407 -12.358033 0.412 255 84 255
5.003091 -12.198963 0.407 255 84 255
4.927817 -12.276209 0.422 255 84 255
5.008937 -12.25357 0.398 255 84 255
4.96387 -12.181224 0.423 255 84 255
4.919697 -12.28554 0.424 255 84 255
4.957119 -12.304607 0.408 255 84 255
4.970951 -12.132083 0.427 255 84 255
4.93271 -12.279824 0.42 255 84 255
4.933516 -12.291458 0.418 255 84 255
4.905585 -12.377113 0.416 255 84 255
4.927432 -12.268156 0.423 255 84 255
4.976412 -12.178636 0.419 255 84 255
4.959011 -12.173137 0.426 255 84 255
4.924338 -12.263213 0.425 255 84 255
4.978427 -12.20772 0.414 255 84 255
4.941522 -12.238299 0.423 255 84 255
4.975283 -12.209485 0.415 255 84 255
4.919141 -12.299846 0.422 255 84 255
4.966093 -12.123996 0.43 255 84 255
5.001945 -12.23205 0.403 255 84 255
4.930118 -12.326763 0.415 255 84 255
4.97908 -12.239479 0.41 255 84 255
4.980401 -12.124551 0.425 255 84 255
4.99811 -12.266009 0.4 255 84 255
4.973234 -12.184873 0.419 255 84 255
4.93204 -12.250302 0.424 255 84 255
4.807176 -12.026188 0.422 255 84 255
4.79603 -12.021631 0.422 255 84 255
4.768795 -12.015611 0.425 255 84 255
4.771081 -12.00892 0.417 255 84 255
4.812085 -12.027567 0.422 255 84 255
4.793879 -12.010434 0.411 255 84 255
4.863343 -12.050318 0.427 255 84 255
4.735391 -11.997468 0.418 255 84 255
4.742082 -11.999755 0.418 255 84 255
4.748755 -12.004277 0.42 255 84 255
4.678735 -11.978702 0.419 255 84 255
4.880289 -12.056707 0.429 255 84 255
4.738988 -11.994812 0.414 255 84 255
4.782716 -12.008114 0.412 255 84 255
4.808958 -12.027096 0.423 255 84 255
4.789793 -12.018454 0.42 255 84 255
4.889637 -12.062593 0.431 255 84 255
4.77821 -12.012552 0.419 255 84 255
4.804066 -12.023481 0.421 255 84 255
4.718444 -11.991077 0.418 255 84 255
4.93644 -12.083073 0.436 255 84 255
4.709971 -11.987884 0.417 255 84 255
4.799123 -12.026574 0.425 255 84 255
4.944038 -12.083578 0.424 255 84 255
4.865176 -12.044518 0.409 255 84 255
4.940475 -12.081762 0.42 255 84 255
4.865159 -12.046753 0.422 255 84 255
4.94224 -12.084906 0.432 255 84 255
4.878558 -12.049091 0.404 255 84 255
4.946695 -12.087176 0.434 255 84 255
4.948493 -12.085848 0.425 255 84 255
4.876321 -12.049074 0.41 255 84 255
4.881668 -12.051799 0.405 255 84 255
4.79524 -12.007762 0.405 255 84 255
4.793912 -12.005962 0.405 255 84 255
4.794349 -12.007307 0.406 255 84 255
4.524382 -12.222163 0.625 255 84 255
4.525778 -12.215018 0.625 255 84 255
4.470426 -12.319248 0.399 255 84 255
4.529809 -12.273188 0.328 255 84 255
4.501899 -12.297126 0.385 255 84 255
4.53877 -12.27102 0.366 255 84 255
4.451176 -12.321786 0.298 255 84 255
4.460103 -12.32409 0.383 255 84 255
4.480799 -12.307699 0.357 255 84 255
4.477672 -12.307228 0.327 255 84 255
4.45289 -12.331637 0.405 255 84 255
4.444837 -12.332024 0.362 255 84 255
4.464137 -12.322779 0.397 255 84 255
4.454722 -12.325837 0.364 255 84 255
4.48438 -12.30728 0.372 255 84 255
4.474948 -12.312574 0.366 255 84 255
4.482564 -12.310843 0.393 255 84 255
4.47715 -12.317064 0.421 255 84 255
4.471316 -12.319702 0.407 255 84 255
4.502824 -12.293109 0.35 255 84 255
4.463212 -12.326797 0.426 255 84 255
4.550472 -12.26127 0.342 255 84 255
4.467349 -12.31207 0.317 255 84 255
4.459229 -12.3214 0.353 255 84 255
4.536098 -12.269658 0.333 255 84 255
4.52843 -12.278096 0.364 255 84 255
4.45062 -12.336092 0.435 255 84 255
4.475453 -12.304976 0.298 255 84 255
4.506002 -12.286872 0.315 255 84 255
4.536534 -12.271002 0.349 255 84 255
4.467769 -12.31565 0.351 255 84 255
4.466828 -12.321905 0.402 255 84 255
4.458253 -12.332126 0.454 255 84 255
4.527085 -12.278534 0.366 255 84 255
4.459195 -12.325871 0.399 255 84 255
4.455698 -12.315111 0.273 255 84 255
4.464223 -12.311599 0.289 255 84 255
4.450704 -12.324913 0.33 255 84 255
4.442215 -12.323954 0.274 255 84 255
4.464223 -12.311599 0.292 255 84 255
4.451982 -12.33342 0.418 255 84 255
4.474109 -12.305412 0.292 255 84 255
4.498806 -12.292183 0.315 255 84 255
4.501496 -12.291308 0.333 255 84 255
4.474477 -12.315701 0.395 255 84 255
4.500605 -12.290855 0.316 255 84 255
4.462338 -12.324106 0.394 255 84 255
4.461936 -12.318289 0.334 255 84 255
4.498335 -12.29531 0.345 255 84 255
4.510878 -12.292722 0.4 255 84 255
4.464994 -12.327704 0.446 255 84 255
4.495612 -12.300656 0.382 255 84 255
4.554052 -12.26085 0.364 255 84 255
4.447039 -12.336513 0.417 255 84 255
4.533407 -12.270532 0.334 255 84 255
4.474477 -12.315701 0.389 255 84 255
4.490668 -12.303749 0.377 255 84 255
4.471299 -12.321939 0.428 255 84 255
4.460624 -12.314254 0.29 255 84 255
4.455194 -12.32271 0.34 255 84 255
4.452435 -12.332529 0.419 255 84 255
4.454791 -12.316894 0.28 255 84 255
4.49652 -12.298874 0.369 255 84 255
4.480783 -12.309936 0.381 255 84 255
4.463701 -12.321433 0.383 255 84 255
4.448049 -12.321315 0.279 255 84 255
4.455125 -12.331655 0.422 255 84 255
4.489828 -12.296587 0.3 255 84 255
4.473166 -12.311666 0.35 255 84 255
4.545983 -12.263472 0.343 255 84 255
4.467769 -12.31565 0.355 255 84 255
4.515434 -12.281575 0.319 255 84 255
4.515434 -12.281575 0.322 255 84 255
4.49245 -12.304657 0.401 255 84 255
4.53877 -12.27102 0.368 255 84 255
4.493846 -12.297512 0.34 255 84 255
4.478093 -12.310809 0.37 255 84 255
4.452504 -12.323585 0.332 255 84 255
4.507801 -12.285542 0.309 255 84 255
4.468223 -12.314759 0.343 255 84 255
4.477587 -12.318408 0.434 255 84 255
4.483019 -12.309952 0.396 255 84 255
4.472292 -12.308976 0.317 255 84 255
4.464137 -12.322779 0.396 255 84 255
4.464643 -12.31518 0.324 255 84 255
4.459649 -12.324981 0.384 255 84 255
4.4866 -12.309532 0.41 255 84 255
4.477621 -12.313936 0.398 255 84 255
4.459665 -12.322744 0.363 255 84 255
4.452974 -12.320457 0.307 255 84 255
4.480817 -12.305464 0.334 255 84 255
4.490736 -12.294806 0.297 255 84 255
4.448939 -12.321768 0.295 255 84 255
4.516308 -12.284266 0.346 255 84 255
4.48892 -12.298369 0.319 255 84 255
4.482564 -12.310843 0.394 255 84 255
4.531591 -12.274096 0.356 255 84 255
4.463281 -12.317853 0.338 255 84 255
4.514509 -12.285594 0.354 255 84 255
4.466356 -12.325032 0.431 255 84 255
4.47315 -12.313903 0.367 255 84 255
4.463768 -12.31249 0.296 255 84 255
4.45785 -12.326308 0.391 255 84 255
4.493812 -12.301984 0.381 255 84 255
4.470913 -12.313886 0.355 255 84 255
4.48438 -12.30728 0.371 255 84 255
4.554052 -12.26085 0.363 255 84 255
4.541931 -12.267018 0.35 255 84 255
4.459716 -12.316036 0.309 255 84 255
4.446619 -12.332932 0.39 255 84 255
4.49114 -12.300622 0.354 255 84 255
4.448854 -12.332949 0.402 255 84 255
4.467803 -12.311178 0.305 255 84 255
4.443979 -12.327097 0.318 255 84 255
4.505077 -12.290889 0.342 255 84 255
4.483961 -12.303699 0.338 255 84 255
4.477201 -12.310355 0.361 255 84 255
4.479455 -12.308136 0.349 255 84 255
4.447492 -12.335622 0.41 255 84 255
4.455563 -12.332999 0.437 255 84 255
4.486667 -12.300589 0.327 255 84 255
4.496048 -12.302001 0.394 255 84 255
4.501479 -12.293545 0.347 255 84 255
4.44798 -12.330258 0.365 255 84 255
4.507297 -12.293141 0.388 255 84 255
4.450603 -12.338328 0.46 255 84 255
4.51767 -12.281593 0.332 255 84 255
4.492064 -12.296604 0.318 255 84 255
4.478598 -12.30321 0.295 255 84 255
4.548673 -12.262597 0.345 255 84 255
4.455125 -12.331655 0.423 255 84 255
4.455597 -12.328527 0.398 255 84 255
4.48976 -12.305531 0.386 255 84 255
4.449814 -12.324459 0.325 255 84 255
4.503715 -12.293562 0.364 255 84 255
4.516308 -12.284266 0.352 255 84 255
4.515434 -12.281575 0.318 255 84 255
4.531591 -12.274096 0.35 255 84 255
4.470391 -12.323721 0.448 255 84 255
4.485759 -12.30237 0.338 255 84 255
4.466005 -12.312507 0.312 255 84 255
4.519906 -12.28161 0.347 255 84 255
4.497444 -12.294856 0.341 255 84 255
4.461884 -12.324998 0.4 255 84 255
4.484415 -12.302807 0.334 255 84 255
4.45432 -12.320021 0.307 255 84 255
4.457918 -12.317365 0.304 255 84 255
4.453882 -12.318676 0.293 255 84 255
4.503715 -12.293562 0.357 255 84 255
4.521722 -12.278046 0.329 255 84 255
4.510491 -12.284669 0.321 255 84 255
4.476748 -12.311247 0.37 255 84 255
4.506439 -12.288216 0.332 255 84 255
4.489306 -12.306422 0.398 255 84 255
4.463735 -12.316961 0.342 255 84 255
4.462843 -12.316507 0.328 255 84 255
4.450149 -12.33922 0.461 255 84 255
4.454655 -12.334782 0.451 255 84 255
4.455597 -12.328527 0.402 255 84 255
4.497394 -12.301564 0.406 255 84 255
4.507801 -12.285542 0.309 255 84 255
4.474512 -12.311229 0.354 255 84 255
4.457396 -12.3272 0.395 255 84 255
4.446619 -12.332932 0.381 255 84 255
4.462407 -12.315163 0.314 255 84 255
4.461465 -12.321417 0.364 255 84 255
4.487036 -12.310877 0.491 255 84 255
4.490652 -12.305984 0.478 255 84 255
4.4866 -12.309532 0.474 255 84 255
4.464087 -12.329486 0.487 255 84 255
4.503245 -12.296689 0.486 255 84 255
4.489324 -12.304187 0.457 255 84 255
4.495107 -12.308255 0.52 255 84 255
4.505077 -12.290889 0.458 255 84 255
4.472645 -12.321502 0.48 255 84 255
4.470862 -12.320593 0.465 255 84 255
4.518578 -12.279811 0.462 255 84 255
4.515872 -12.282921 0.464 255 84 255
4.470375 -12.325956 0.496 255 84 255
4.461851 -12.32947 0.468 255 84 255
4.475335 -12.320627 0.492 255 84 255
4.474427 -12.32241 0.494 255 84 255
4.493812 -12.301984 0.469 255 84 255
4.514543 -12.281121 0.449 255 84 255
4.507767 -12.290015 0.468 255 84 255
4.520394 -12.276246 0.444 255 84 255
4.494653 -12.309146 0.524 255 84 255
4.487054 -12.308641 0.471 255 84 255
4.471737 -12.323283 0.487 255 84 255
4.4695 -12.323266 0.469 255 84 255
4.470829 -12.325066 0.49 255 84 255
4.491996 -12.305548 0.485 255 84 255
4.487927 -12.311332 0.5 255 84 255
4.473115 -12.318374 0.462 255 84 255
4.515872 -12.282921 0.472 255 84 255
4.498268 -12.304254 0.511 255 84 255
4.494232 -12.305565 0.494 255 84 255
4.491525 -12.308676 0.5 255 84 255
4.498721 -12.303363 0.506 255 84 255
4.510037 -12.28556 0.453 255 84 255
4.500555 -12.297563 0.474 255 84 255
4.496065 -12.299766 0.464 255 84 255
4.496973 -12.297983 0.462 255 84 255
4.469954 -12.322375 0.468 255 84 255
4.501025 -12.294436 0.455 255 84 255
4.516779 -12.281139 0.457 255 84 255
4.494232 -12.305565 0.499 255 84 255
4.50279 -12.29758 0.428 255 84 255
4.528413 -12.280333 0.393 255 84 255
4.496502 -12.301109 0.437 255 84 255
4.501025 -12.294436 0.443 255 84 255
4.519032 -12.278919 0.431 255 84 255
4.468592 -12.325048 0.456 255 84 255
4.545512 -12.266599 0.384 255 84 255
4.535223 -12.266968 0.419 255 84 255
4.479421 -12.312609 0.456 255 84 255
4.467702 -12.324594 0.459 255 84 255
4.491542 -12.306438 0.436 255 84 255
4.552725 -12.25905 0.382 255 84 255
4.530717 -12.271405 0.42 255 84 255
4.507767 -12.290015 0.436 255 84 255
4.505497 -12.29447 0.429 255 84 255
4.5307 -12.273642 0.412 255 84 255
4.524849 -12.278517 0.414 255 84 255
4.537913 -12.266094 0.409 255 84 255
4.481203 -12.313517 0.448 255 84 255
4.510457 -12.289141 0.43 255 84 255
4.516325 -12.28203 0.433 255 84 255
4.496031 -12.304237 0.43 255 84 255
4.478495 -12.316627 0.449 255 84 255
4.535676 -12.266076 0.419 255 84 255
4.501463 -12.295781 0.437 255 84 255
4.559013 -12.255521 0.373 255 84 255
4.519889 -12.283846 0.413 255 84 255
4.494249 -12.303329 0.437 255 84 255
4.513618 -12.28514 0.431 255 84 255
4.534264 -12.275457 0.391 255 84 255
4.502371 -12.293999 0.441 255 84 255
4.465448 -12.326814 0.458 255 84 255
4.531574 -12.276331 0.398 255 84 255
4.519923 -12.279374 0.428 255 84 255
4.56172 -12.25241 0.371 255 84 255
4.528884 -12.277206 0.404 255 84 255
4.511348 -12.289596 0.422 255 84 255
4.517636 -12.286064 0.416 255 84 255
4.526245 -12.271372 0.436 255 84 255
4.527556 -12.275407 0.416 255 84 255
4.5154 -12.286048 0.422 255 84 255
4.724727 -12.518406 0.704 255 84 255
4.742479 -12.536429 0.696 255 84 255
4.657295 -12.505371 0.727 255 84 255
4.672862 -12.51667 0.721 255 84 255
4.718944 -12.514337 0.706 255 84 255
4.689422 -12.515007 0.716 255 84 255
4.71491 -12.515648 0.708 255 84 255
4.625605 -12.497081 0.738 255 84 255
4.707344 -12.510671 0.71 255 84 255
4.728207 -12.531402 0.701 255 84 255
4.594368 -12.4879 0.749 255 84 255
4.698786 -12.518656 0.712 255 84 255
4.705091 -12.51289 0.711 255 84 255
4.659934 -12.511205 0.725 255 84 255
4.680478 -12.514939 0.719 255 84 255
4.726946 -12.520658 0.703 255 84 255
4.716623 -12.5255 0.706 255 84 255
4.592586 -12.486992 0.75 255 84 255
4.694819 -12.511023 0.714 255 84 255
4.638147 -12.494493 0.734 255 84 255
4.6984 -12.510603 0.713 255 84 255
4.640752 -12.504799 0.732 255 84 255
4.651529 -12.499066 0.73 255 84 255
4.465699 -12.352755 0.601 255 84 255
4.460353 -12.350031 0.596 255 84 255
4.457867 -12.324073 0.591 255 84 255
4.443424 -12.341405 0.579 255 84 255
4.482127 -12.309498 0.613 255 84 255
4.491106 -12.305095 0.621 255 84 255
4.479908 -12.307245 0.611 255 84 255
4.493426 -12.293931 0.622 255 84 255
4.43364 -12.334175 0.568 255 84 255
4.489205 -12.319839 0.621 255 84 255
4.459597 -12.331689 0.594 255 84 255
4.499345 -12.280112 0.627 255 84 255
4.454439 -12.304369 0.585 255 84 255
4.494954 -12.32838 0.627 255 84 255
4.462118 -12.353174 0.598 255 84 255
4.469331 -12.345626 0.604 255 84 255
4.497309 -12.312744 0.628 255 84 255
4.467111 -12.343373 0.602 255 84 255
4.452504 -12.323585 0.585 255 84 255
4.493495 -12.284987 0.621 255 84 255
4.459649 -12.324981 0.593 255 84 255
4.495929 -12.317653 0.627 255 84 255
4.461261 -12.348248 0.596 255 84 255
4.489454 -12.345778 0.623 255 84 255
4.424713 -12.331871 0.56 255 84 255
4.484546 -12.3444 0.618 255 84 255
4.481792 -12.294737 0.612 255 84 255
4.500605 -12.290855 0.629 255 84 255
4.478279 -12.286213 0.607 255 84 255
4.447561 -12.326677 0.581 255 84 255
4.495879 -12.324361 0.628 255 84 255
4.499578 -12.308289 0.63 255 84 255
4.494788 -12.291258 0.623 255 84 255
4.452402 -12.337 0.587 255 84 255
4.466374 -12.322795 0.599 255 84 255
4.510627 -12.266781 0.636 255 84 255
4.458372 -12.316473 0.59 255 84 255
4.496031 -12.304237 0.626 255 84 255
4.443004 -12.337824 0.578 255 84 255
4.475453 -12.304976 0.606 255 84 255
4.445359 -12.322189 0.578 255 84 255
4.455999 -12.334345 0.59 255 84 255
4.460488 -12.332143 0.594 255 84 255
4.468813 -12.29598 0.598 255 84 255
4.499782 -12.281457 0.627 255 84 255
4.466039 -12.308035 0.597 255 84 255
4.437187 -12.338227 0.572 255 84 255
4.455999 -12.334345 0.59 255 84 255
4.458741 -12.326762 0.592 255 84 255
4.478211 -12.295157 0.607 255 84 255
4.462101 -12.355411 0.598 255 84 255
4.467282 -12.321013 0.599 255 84 255
4.476913 -12.348368 0.612 255 84 255
4.496672 -12.27875 0.624 255 84 255
4.465499 -12.320106 0.598 255 84 255
4.500202 -12.285038 0.628 255 84 255
4.468745 -12.304925 0.6 255 84 255
4.486192 -12.363196 0.622 255 84 255
4.494453 -12.276497 0.622 255 84 255
4.501292 -12.318141 0.642 255 84 255
4.488461 -12.358741 0.627 255 84 255
4.496264 -12.332414 0.636 255 84 255
4.498263 -12.363735 0.675 255 84 255
4.505413 -12.30565 0.649 255 84 255
4.495119 -12.3655 0.663 255 84 255
4.498636 -12.314544 0.631 255 84 255
4.500299 -12.331103 0.653 255 84 255
4.509651 -12.277507 0.64 255 84 255
4.505413 -12.30565 0.65 255 84 255
4.490176 -12.368593 0.645 255 84 255
4.494733 -12.357448 0.65 255 84 255
4.507262 -12.297614 0.65 255 84 255
4.497626 -12.329741 0.639 255 84 255
4.499053 -12.377605 0.688 255 84 255
4.494059 -12.387406 0.677 255 84 255
4.496952 -12.3597 0.665 255 84 255
4.505531 -12.289998 0.637 255 84 255
4.488712 -12.384682 0.653 255 84 255
4.510122 -12.27438 0.642 255 84 255
4.494431 -12.338214 0.633 255 84 255
4.494983 -12.383389 0.678 255 84 255
