ply
format ascii 1.0
comment Combined PLY file
element vertex 1340
property float x
property float y
property float z
property uchar red
property uchar green
property uchar blue
end_header
3.967971 -11.523396 2.915 161 19 46
3.676645 -11.370469 2.554 161 19 46
4.047724 -11.56291 2.838 161 19 46
3.539885 -11.299664 2.362 161 19 46
3.713613 -11.390428 2.674 161 19 46
3.959077 -11.51662 2.736 161 19 46
4.173339 -11.629159 3.033 161 19 46
3.965768 -11.518907 2.619 161 19 46
3.869523 -11.472113 2.828 161 19 46
3.830336 -11.449901 2.637 161 19 46
4.161756 -11.623257 3.056 161 19 46
4.094511 -11.585627 2.703 161 19 46
4.123443 -11.603736 2.979 161 19 46
3.990246 -11.534745 2.962 161 19 46
4.027668 -11.553813 2.979 161 19 46
3.912292 -11.493904 2.843 161 19 46
3.560378 -11.310105 2.421 161 19 46
3.826772 -11.448085 2.603 161 19 46
4.052179 -11.56518 2.856 161 19 46
4.144407 -11.61105 2.668 161 19 46
4.036124 -11.559244 2.994 161 19 46
4.017429 -11.547474 2.85 161 19 46
3.815188 -11.442183 2.533 161 19 46
4.003173 -11.540211 2.869 161 19 46
4.00852 -11.542934 2.794 161 19 46
3.606256 -11.334604 2.458 161 19 46
4.159083 -11.621895 3.054 161 19 46
3.688229 -11.376371 2.464 161 19 46
3.722523 -11.394968 2.62 161 19 46
4.080237 -11.580598 2.898 161 19 46
4.167556 -11.62509 2.935 161 19 46
4.026777 -11.553359 2.869 161 19 46
4.130571 -11.607368 3.045 161 19 46
3.888688 -11.480755 2.736 161 19 46
3.914964 -11.495266 2.807 161 19 46
3.769294 -11.41992 2.723 161 19 46
3.650807 -11.357304 2.526 161 19 46
3.642787 -11.353217 2.466 161 19 46
4.098058 -11.589678 2.967 161 19 46
4.128352 -11.605114 2.869 161 19 46
3.688229 -11.376371 2.49 161 19 46
4.180047 -11.62921 2.686 161 19 46
4.141263 -11.612815 3.051 161 19 46
3.988481 -11.531601 2.684 161 19 46
4.019212 -11.548383 2.803 161 19 46
3.998736 -11.535705 2.588 161 19 46
3.798697 -11.434901 2.694 161 19 46
3.939912 -11.507977 2.769 161 19 46
3.808061 -11.438551 2.598 161 19 46
3.938584 -11.506178 2.643 161 19 46
4.145264 -11.615976 3.103 161 19 46
3.525628 -11.2924 2.368 161 19 46
3.996046 -11.536579 2.86 161 19 46
3.809405 -11.438113 2.532 161 19 46
3.808061 -11.438551 2.549 161 19 46
3.694466 -11.379549 2.477 161 19 46
4.199179 -11.642324 3.043 161 19 46
3.959077 -11.51662 2.649 161 19 46
4.11455 -11.596959 2.726 161 19 46
4.034813 -11.555209 2.703 161 19 46
3.93724 -11.506616 2.861 161 19 46
4.113641 -11.598742 2.988 161 19 46
3.953715 -11.516132 2.942 161 19 46
4.049943 -11.565163 2.958 161 19 46
3.908744 -11.489852 2.595 161 19 46
3.96397 -11.520235 2.761 161 19 46
3.727433 -11.396346 2.476 161 19 46
4.05929 -11.571048 3.014 161 19 46
3.863302 -11.466699 2.634 161 19 46
3.658826 -11.361389 2.462 161 19 46
3.441437 -11.24838 2.314 161 19 46
3.853502 -11.461704 2.589 161 19 46
3.769294 -11.41992 2.699 161 19 46
4.146626 -11.613303 2.822 161 19 46
3.829444 -11.449447 2.596 161 19 46
3.542557 -11.301025 2.375 161 19 46
3.713613 -11.390428 2.598 161 19 46
4.010739 -11.545187 2.911 161 19 46
3.506917 -11.282866 2.379 161 19 46
4.166682 -11.622399 2.686 161 19 46
3.956841 -11.516603 2.801 161 19 46
3.812061 -11.441711 2.748 161 19 46
3.935003 -11.506598 2.906 161 19 46
4.000956 -11.537957 2.73 161 19 46
3.870868 -11.471675 2.764 161 19 46
4.081129 -11.581053 2.86 161 19 46
3.844138 -11.458055 2.768 161 19 46
3.560378 -11.310105 2.385 161 19 46
3.922529 -11.500242 2.895 161 19 46
4.043723 -11.559749 2.663 161 19 46
3.890033 -11.480318 2.578 161 19 46
3.97599 -11.527481 2.999 161 19 46
3.808951 -11.439005 2.567 161 19 46
3.804042 -11.437625 2.709 161 19 46
4.145281 -11.61374 2.922 161 19 46
3.878887 -11.47576 2.705 161 19 46
4.08513 -11.584214 3.057 161 19 46
3.921201 -11.498444 2.796 161 19 46
4.118097 -11.601011 2.991 161 19 46
3.796915 -11.433993 2.704 161 19 46
4.061526 -11.571065 2.902 161 19 46
3.518955 -11.287877 2.342 161 19 46
3.588889 -11.324634 2.375 161 19 46
3.937694 -11.505724 2.666 161 19 46
3.998702 -11.540176 3.02 161 19 46
3.700249 -11.383618 2.647 161 19 46
3.992481 -11.534762 2.865 161 19 46
4.200961 -11.643232 3.056 161 19 46
4.188049 -11.635531 2.859 161 19 46
4.020103 -11.548837 2.838 161 19 46
3.713613 -11.390428 2.609 161 19 46
3.661935 -11.364097 2.571 161 19 46
4.184939 -11.632825 2.811 161 19 46
4.179156 -11.628756 2.696 161 19 46
4.048615 -11.563364 2.807 161 19 46
3.882014 -11.476232 2.592 161 19 46
3.875323 -11.473945 2.664 161 19 46
3.50648 -11.281521 2.35 161 19 46
3.962625 -11.520672 2.92 161 19 46
4.060636 -11.570611 2.932 161 19 46
3.792913 -11.430833 2.55 161 19 46
3.94926 -11.513862 2.962 161 19 46
3.782221 -11.425385 2.607 161 19 46
4.197396 -11.641417 2.996 161 19 46
4.200961 -11.643232 2.995 161 19 46
3.543448 -11.30148 2.409 161 19 46
3.852157 -11.462141 2.755 161 19 46
4.030359 -11.552939 2.699 161 19 46
4.075799 -11.576093 2.649 161 19 46
3.76931 -11.417684 2.472 161 19 46
4.105639 -11.59242 2.738 161 19 46
3.573288 -11.317806 2.485 161 19 46
3.755945 -11.410874 2.503 161 19 46
3.775093 -11.421753 2.618 161 19 46
3.968441 -11.520269 2.577 161 19 46
4.02054 -11.550181 2.981 161 19 46
4.081129 -11.581053 2.911 161 19 46
4.136807 -11.610545 3.079 161 19 46
4.048178 -11.562018 2.656 161 19 46
4.032123 -11.556083 2.889 161 19 46
4.155519 -11.620079 3.075 161 19 46
3.963078 -11.519781 2.759 161 19 46
4.02945 -11.554721 2.89 161 19 46
4.149299 -11.614665 2.815 161 19 46
3.767512 -11.419012 2.692 161 19 46
4.190285 -11.635549 2.717 161 19 46
3.543448 -11.30148 2.466 161 19 46
3.830336 -11.449901 2.621 161 19 46
4.037906 -11.560152 3.038 161 19 46
3.846811 -11.459417 2.711 161 19 46
4.16801 -11.624199 2.804 161 19 46
3.901162 -11.48711 2.681 161 19 46
3.892706 -11.48168 2.577 161 19 46
3.980899 -11.528861 2.847 161 19 46
3.961751 -11.517982 2.678 161 19 46
3.623639 -11.34234 2.439 161 19 46
3.925656 -11.500713 2.774 161 19 46
3.986682 -11.532929 2.881 161 19 46
4.108296 -11.596018 2.998 161 19 46
4.003611 -11.541555 2.915 161 19 46
3.606256 -11.334604 2.473 161 19 46
4.114533 -11.599195 3.007 161 19 46
4.064653 -11.571536 2.819 161 19 46
4.026777 -11.553359 2.995 161 19 46
4.102076 -11.590604 2.795 161 19 46
3.931893 -11.503891 2.848 161 19 46
3.710504 -11.38772 2.481 161 19 46
3.834791 -11.45217 2.546 161 19 46
3.983572 -11.530223 2.755 161 19 46
3.996046 -11.536579 2.83 161 19 46
3.955967 -11.513913 2.622 161 19 46
4.048615 -11.563364 2.824 161 19 46
4.201851 -11.643686 3.071 161 19 46
3.602255 -11.331443 2.436 161 19 46
3.928329 -11.502075 2.871 161 19 46
4.156426 -11.618297 2.723 161 19 46
3.855283 -11.462612 2.58 161 19 46
4.103841 -11.593747 3.071 161 19 46
3.853502 -11.461704 2.568 161 19 46
3.786223 -11.428546 2.732 161 19 46
4.172448 -11.628705 3.008 161 19 46
4.181375 -11.631008 2.74 161 19 46
3.550576 -11.305112 2.376 161 19 46
4.031249 -11.553393 2.672 161 19 46
3.878433 -11.476652 2.809 161 19 46
4.100294 -11.589696 2.781 161 19 46
4.204525 -11.645048 3.057 161 19 46
3.8397 -11.453549 2.519 161 19 46
4.092257 -11.587846 2.989 161 19 46
3.64546 -11.354579 2.523 161 19 46
4.196051 -11.641854 3.131 161 19 46
3.772874 -11.419499 2.477 161 19 46
4.138153 -11.610107 2.962 161 19 46
3.996046 -11.536579 2.815 161 19 46
3.656606 -11.359137 2.441 161 19 46
4.166211 -11.625526 3.015 161 19 46
4.178248 -11.630537 2.912 161 19 46
3.905163 -11.490272 2.794 161 19 46
3.620512 -11.341867 2.537 161 19 46
4.118568 -11.597884 2.703 161 19 46
4.05929 -11.571048 2.991 161 19 46
3.743016 -11.40541 2.65 161 19 46
3.844575 -11.4594 2.831 161 19 46
3.657934 -11.360935 2.553 161 19 46
4.011192 -11.544296 2.838 161 19 46
4.170246 -11.624215 2.679 161 19 46
4.151971 -11.616027 2.754 161 19 46
4.011192 -11.544296 2.856 161 19 46
3.636096 -11.35093 2.582 161 19 46
3.718523 -11.391807 2.531 161 19 46
3.97599 -11.527481 2.939 161 19 46
4.088711 -11.583794 2.764 161 19 46
3.565723 -11.31283 2.398 161 19 46
3.933692 -11.502563 2.553 161 19 46
3.788021 -11.427217 2.496 161 19 46
3.986699 -11.530693 2.702 161 19 46
4.163993 -11.623274 2.913 161 19 46
3.626312 -11.3437 2.432 161 19 46
4.069999 -11.57426 2.787 161 19 46
4.032123 -11.556083 2.944 161 19 46
3.922983 -11.499352 2.858 161 19 46
4.077111 -11.580128 3.014 161 19 46
3.685555 -11.375009 2.483 161 19 46
3.799587 -11.435355 2.758 161 19 46
3.632986 -11.348224 2.522 161 19 46
3.953277 -11.514788 2.869 161 19 46
4.190285 -11.635549 2.8 161 19 46
3.865959 -11.470296 2.852 161 19 46
4.109186 -11.596471 3.099 161 19 46
3.637004 -11.349149 2.438 161 19 46
4.134606 -11.606056 2.685 161 19 46
4.048178 -11.562018 2.668 161 19 46
3.882888 -11.478922 2.893 161 19 46
4.108767 -11.59289 2.69 161 19 46
4.177811 -11.629192 2.751 161 19 46
3.874432 -11.473491 2.663 161 19 46
4.030795 -11.554284 2.742 161 19 46
3.831227 -11.450355 2.571 161 19 46
3.902507 -11.486674 2.582 161 19 46
3.98448 -11.528441 2.62 161 19 46
3.739907 -11.402702 2.505 161 19 46
3.87265 -11.472583 2.676 161 19 46
3.726088 -11.396784 2.57 161 19 46
4.11144 -11.594253 2.705 161 19 46
3.812061 -11.441711 2.671 161 19 46
3.911838 -11.494795 2.915 161 19 46
3.958187 -11.516166 2.711 161 19 46
3.559486 -11.309651 2.42 161 19 46
3.841028 -11.455349 2.584 161 19 46
4.089585 -11.586484 2.999 161 19 46
4.099386 -11.591477 2.981 161 19 46
4.02012 -11.5466 2.597 161 19 46
3.62453 -11.342793 2.399 161 19 46
4.006738 -11.542027 2.846 161 19 46
4.143499 -11.612832 2.932 161 19 46
4.01163 -11.545641 2.985 161 19 46
3.50068 -11.279688 2.359 161 19 46
3.828116 -11.447647 2.514 161 19 46
3.883795 -11.477139 2.588 161 19 46
4.186704 -11.635968 3.011 161 19 46
4.178702 -11.629647 2.764 161 19 46
4.19205 -11.638693 3.026 161 19 46
3.813406 -11.441275 2.629 161 19 46
4.119878 -11.601919 2.999 161 19 46
4.006738 -11.542027 2.78 161 19 46
3.827646 -11.450774 2.799 161 19 46
4.194286 -11.638709 2.917 161 19 46
3.744799 -11.406318 2.609 161 19 46
4.086474 -11.583776 2.912 161 19 46
3.849938 -11.459888 2.614 161 19 46
4.181812 -11.632353 2.887 161 19 46
3.482423 -11.269263 2.356 161 19 46
3.944821 -11.509356 2.727 161 19 46
4.10253 -11.589712 2.653 161 19 46
3.57418 -11.31826 2.467 161 19 46
4.027214 -11.554704 3.033 161 19 46
4.196051 -11.641854 3.144 161 19 46
3.751036 -11.409495 2.574 161 19 46
3.774202 -11.421299 2.644 161 19 46
3.973334 -11.523884 2.731 161 19 46
4.012067 -11.546987 3.006 161 19 46
4.18314 -11.634152 3.013 161 19 46
4.167119 -11.623745 2.803 161 19 46
4.06778 -11.572007 2.648 161 19 46
3.942149 -11.507995 2.665 161 19 46
4.015211 -11.545221 2.647 161 19 46
3.80226 -11.436717 2.689 161 19 46
3.548794 -11.304204 2.458 161 19 46
3.732325 -11.399961 2.678 161 19 46
3.541667 -11.300572 2.355 161 19 46
4.053961 -11.566088 2.824 161 19 46
3.971988 -11.524321 2.88 161 19 46
4.160882 -11.620567 2.77 161 19 46
3.987136 -11.532039 2.851 161 19 46
3.892706 -11.48168 2.549 161 19 46
3.700703 -11.382727 2.454 161 19 46
3.901162 -11.48711 2.717 161 19 46
3.923 -11.497116 2.569 161 19 46
3.771092 -11.418591 2.488 161 19 46
3.634768 -11.349132 2.556 161 19 46
3.594236 -11.327357 2.416 161 19 46
4.092711 -11.586954 2.865 161 19 46
3.730542 -11.399054 2.667 161 19 46
3.522955 -11.291039 2.399 161 19 46
3.716741 -11.390899 2.451 161 19 46
4.106514 -11.59511 3.01 161 19 46
4.019229 -11.546146 2.601 161 19 46
3.922983 -11.499352 2.783 161 19 46
3.726542 -11.395892 2.461 161 19 46
3.951496 -11.51388 2.814 161 19 46
3.799587 -11.435355 2.769 161 19 46
4.011176 -11.546533 3.039 161 19 46
4.131025 -11.606476 2.951 161 19 46
3.657044 -11.360481 2.544 161 19 46
3.601801 -11.332334 2.473 161 19 46
3.481532 -11.268809 2.338 161 19 46
4.205416 -11.645503 3.071 161 19 46
4.169792 -11.625107 2.778 161 19 46
3.914981 -11.49303 2.597 161 19 46
3.80226 -11.436717 2.711 161 19 46
4.032577 -11.555192 2.786 161 19 46
3.970644 -11.524757 2.998 161 19 46
3.708267 -11.387704 2.627 161 19 46
3.951512 -11.511643 2.61 161 19 46
4.051742 -11.563835 2.671 161 19 46
3.669518 -11.366838 2.541 161 19 46
3.992499 -11.532527 2.589 161 19 46
4.1475 -11.615993 2.98 161 19 46
4.188941 -11.635985 2.89 161 19 46
4.072672 -11.575622 2.847 161 19 46
3.777766 -11.423116 2.652 161 19 46
3.959077 -11.51662 2.628 161 19 46
4.13548 -11.608746 2.967 161 19 46
3.894471 -11.484824 2.825 161 19 46
4.098074 -11.587442 2.671 161 19 46
4.073564 -11.576077 2.805 161 19 46
3.87576 -11.47529 2.838 161 19 46
3.635659 -11.349586 2.458 161 19 46
3.837918 -11.452641 2.5 161 19 46
3.685555 -11.375009 2.479 161 19 46
3.855283 -11.462612 2.627 161 19 46
3.686901 -11.374573 2.423 161 19 46
3.749254 -11.408587 2.581 161 19 46
3.935457 -11.505707 2.854 161 19 46
4.188032 -11.637768 3.09 161 19 46
3.743016 -11.40541 2.569 161 19 46
3.962625 -11.520672 2.923 161 19 46
3.698921 -11.381819 2.448 161 19 46
4.165337 -11.622837 2.808 161 19 46
4.111877 -11.595598 2.79 161 19 46
4.048615 -11.563364 2.801 161 19 46
3.764401 -11.416306 2.57 161 19 46
4.179139 -11.630991 2.899 161 19 46
3.490442 -11.273349 2.336 161 19 46
3.8281 -11.449883 2.721 161 19 46
3.840136 -11.454894 2.575 161 19 46
3.854392 -11.462158 2.559 161 19 46
3.996046 -11.536579 2.824 161 19 46
4.112751 -11.598288 3.03 161 19 46
4.068671 -11.57246 2.672 161 19 46
3.765292 -11.416759 2.596 161 19 46
4.019666 -11.547491 2.624 161 19 46
3.984462 -11.530677 2.85 161 19 46
3.945259 -11.510701 2.872 161 19 46
4.156426 -11.618297 2.818 161 19 46
3.88958 -11.481209 2.717 161 19 46
3.974225 -11.524338 2.73 161 19 46
4.106093 -11.591528 2.677 161 19 46
3.891361 -11.482117 2.688 161 19 46
4.028121 -11.552922 2.792 161 19 46
3.902054 -11.487565 2.721 161 19 46
4.016976 -11.548365 2.928 161 19 46
4.093619 -11.585173 2.715 161 19 46
3.825443 -11.446285 2.505 161 19 46
3.763073 -11.414506 2.503 161 19 46
3.778204 -11.42446 2.722 161 19 46
3.783566 -11.424948 2.501 161 19 46
4.145718 -11.615085 3.063 161 19 46
3.839246 -11.454441 2.64 161 19 46
3.871321 -11.470784 2.616 161 19 46
4.198725 -11.643216 3.083 161 19 46
4.058416 -11.568358 2.757 161 19 46
3.966189 -11.522488 2.951 161 19 46
3.804934 -11.43808 2.697 161 19 46
4.008502 -11.545171 3.026 161 19 46
4.142171 -11.611033 2.752 161 19 46
3.951496 -11.51388 2.781 161 19 46
3.804934 -11.43808 2.727 161 19 46
3.762619 -11.415398 2.668 161 19 46
4.169792 -11.625107 2.826 161 19 46
3.870431 -11.47033 2.624 161 19 46
4.007646 -11.540245 2.599 161 19 46
3.613384 -11.338236 2.487 161 19 46
3.926564 -11.498932 2.589 161 19 46
3.782658 -11.426729 2.715 161 19 46
3.602255 -11.331443 2.408 161 19 46
4.128789 -11.60646 3.049 161 19 46
3.932785 -11.504346 2.814 161 19 46
3.92922 -11.502529 2.819 161 19 46
3.542557 -11.301025 2.414 161 19 46
3.486878 -11.271533 2.335 161 19 46
4.127915 -11.603769 2.759 161 19 46
4.13279 -11.609621 3.119 161 19 46
4.009394 -11.545625 3.038 161 19 46
4.135934 -11.607855 2.758 161 19 46
3.584434 -11.322363 2.436 161 19 46
3.730997 -11.398162 2.54 161 19 46
3.910526 -11.49076 2.565 161 19 46
3.987136 -11.532039 2.853 161 19 46
4.199179 -11.642324 3.005 161 19 46
4.027214 -11.554704 3.007 161 19 46
3.970661 -11.522522 2.667 161 19 46
3.868195 -11.470313 2.768 161 19 46
4.034813 -11.555209 2.636 161 19 46
4.167539 -11.627326 3.133 161 19 46
3.602692 -11.332788 2.512 161 19 46
3.69223 -11.379532 2.61 161 19 46
3.929237 -11.500294 2.603 161 19 46
3.650369 -11.355959 2.418 161 19 46
4.114533 -11.599195 3.102 161 19 46
3.996937 -11.537033 2.768 161 19 46
3.670846 -11.368636 2.6 161 19 46
3.669518 -11.366838 2.469 161 19 46
4.143482 -11.615068 3.134 161 19 46
3.813844 -11.442619 2.671 161 19 46
3.79915 -11.434011 2.61 161 19 46
4.181375 -11.631008 2.727 161 19 46
4.07089 -11.574714 2.777 161 19 46
4.074454 -11.57653 2.831 161 19 46
3.9907 -11.533854 2.834 161 19 46
3.958641 -11.515275 2.619 161 19 46
3.989809 -11.533401 2.749 161 19 46
4.029904 -11.55383 2.825 161 19 46
3.943039 -11.508448 2.69 161 19 46
4.004955 -11.541119 2.827 161 19 46
4.025432 -11.553796 3.071 161 19 46
4.129243 -11.605568 2.872 161 19 46
4.013866 -11.545658 2.8 161 19 46
4.006301 -11.540681 2.706 161 19 46
3.797805 -11.434447 2.702 161 19 46
3.502462 -11.280596 2.405 161 19 46
4.164446 -11.622383 2.788 161 19 46
4.11766 -11.599667 2.908 161 19 46
4.161336 -11.619676 2.702 161 19 46
3.948386 -11.511172 2.686 161 19 46
4.180047 -11.62921 2.683 161 19 46
4.03525 -11.556555 2.817 161 19 46
4.055289 -11.567886 2.874 161 19 46
3.761291 -11.413598 2.487 161 19 46
3.875777 -11.473054 2.579 161 19 46
3.861067 -11.466681 2.734 161 19 46
3.997828 -11.537487 2.762 161 19 46
4.167119 -11.623745 2.765 161 19 46
4.149736 -11.61601 2.923 161 19 46
3.853939 -11.463049 2.729 161 19 46
3.664625 -11.363222 2.408 161 19 46
4.139497 -11.609671 2.753 161 19 46
3.675755 -11.370015 2.561 161 19 46
3.538102 -11.298756 2.428 161 19 46
3.645914 -11.353688 2.442 161 19 46
4.191613 -11.637347 2.836 161 19 46
4.179593 -11.6301 2.709 161 19 46
3.931019 -11.501202 2.631 161 19 46
3.968425 -11.522505 2.762 161 19 46
3.611165 -11.335983 2.418 161 19 46
4.106531 -11.592874 2.726 161 19 46
3.734561 -11.399979 2.504 161 19 46
4.173793 -11.628267 2.943 161 19 46
3.87265 -11.472583 2.655 161 19 46
4.049052 -11.564709 2.865 161 19 46
4.016976 -11.548365 2.918 161 19 46
3.908291 -11.490743 2.702 161 19 46
3.555922 -11.307836 2.407 161 19 46
4.047708 -11.565146 3.05 161 19 46
4.027668 -11.553813 2.957 161 19 46
3.734998 -11.401323 2.598 161 19 46
3.891361 -11.482117 2.759 161 19 46
4.150189 -11.615119 2.771 161 19 46
4.17423 -11.629613 3.08 161 19 46
3.843264 -11.455365 2.52 161 19 46
4.159537 -11.621004 2.837 161 19 46
4.127897 -11.606005 3.018 161 19 46
3.735889 -11.401777 2.666 161 19 46
4.128352 -11.605114 2.865 161 19 46
4.067327 -11.572898 2.848 161 19 46
4.02634 -11.552014 2.803 161 19 46
3.936348 -11.506162 2.875 161 19 46
4.009394 -11.545625 3.002 161 19 46
3.997844 -11.535251 2.601 161 19 46
4.061526 -11.571065 2.902 161 19 46
3.66908 -11.365493 2.437 161 19 46
3.602255 -11.331443 2.442 161 19 46
4.137716 -11.608763 2.813 161 19 46
4.073546 -11.578312 3.021 161 19 46
4.151063 -11.617808 3.09 161 19 46
3.722087 -11.393622 2.44 161 19 46
4.163101 -11.62282 2.896 161 19 46
3.973317 -11.526119 2.912 161 19 46
3.719851 -11.393606 2.64 161 19 46
3.530974 -11.295124 2.383 161 19 46
4.154628 -11.619625 3.068 161 19 46
4.001375 -11.541539 3.016 161 19 46
3.709613 -11.387267 2.489 161 19 46
3.906962 -11.488944 2.633 161 19 46
4.106968 -11.594218 2.868 161 19 46
4.13326 -11.606493 2.799 161 19 46
4.193396 -11.638255 2.906 161 19 46
3.857503 -11.464865 2.69 161 19 46
4.167119 -11.623745 2.81 161 19 46
3.872213 -11.471238 2.641 161 19 46
4.175575 -11.629175 2.875 161 19 46
4.02054 -11.550181 2.932 161 19 46
4.069091 -11.576041 3.039 161 19 46
3.835681 -11.452624 2.655 161 19 46
4.066889 -11.571552 2.678 161 19 46
3.908291 -11.490743 2.752 161 19 46
3.939476 -11.506632 2.69 161 19 46
4.125679 -11.603752 2.896 161 19 46
3.910055 -11.493886 2.914 161 19 46
4.085146 -11.581978 2.814 161 19 46
4.053053 -11.56787 3.031 161 19 46
3.804496 -11.436735 2.606 161 19 46
3.812953 -11.442165 2.762 161 19 46
3.66017 -11.360952 2.442 161 19 46
4.138589 -11.611453 2.991 161 19 46
3.901599 -11.488456 2.778 161 19 46
3.806732 -11.436751 2.53 161 19 46
3.679318 -11.371831 2.505 161 19 46
3.640568 -11.350965 2.423 161 19 46
4.105639 -11.59242 2.823 161 19 46
3.879324 -11.477106 2.84 161 19 46
4.008537 -11.540699 2.612 161 19 46
3.608492 -11.334621 2.411 161 19 46
3.766637 -11.416322 2.527 161 19 46
3.942603 -11.507104 2.613 161 19 46
3.818298 -11.444889 2.753 161 19 46
3.857939 -11.46621 2.813 161 19 46
4.142625 -11.610142 2.692 161 19 46
3.945713 -11.50981 2.757 161 19 46
4.172465 -11.626469 2.811 161 19 46
4.098948 -11.590132 2.962 161 19 46
4.151535 -11.614682 2.692 161 19 46
3.807607 -11.439442 2.677 161 19 46
3.899834 -11.485312 2.617 161 19 46
4.088257 -11.584684 2.91 161 19 46
3.919419 -11.497536 2.874 161 19 46
3.924312 -11.50115 2.941 161 19 46
4.007629 -11.54248 2.749 161 19 46
4.150627 -11.616464 2.9 161 19 46
3.968879 -11.521614 2.673 161 19 46
3.838792 -11.455331 2.757 161 19 46
4.015211 -11.545221 2.719 161 19 46
3.82899 -11.450337 2.715 161 19 46
4.047287 -11.561564 2.718 161 19 46
3.965314 -11.519797 2.627 161 19 46
3.933239 -11.503454 2.709 161 19 46
3.686447 -11.375463 2.507 161 19 46
3.512263 -11.28559 2.364 161 19 46
4.115441 -11.597414 2.722 161 19 46
3.867758 -11.468968 2.606 161 19 46
4.187141 -11.637314 3.089 161 19 46
3.92922 -11.502529 2.776 161 19 46
4.061543 -11.568829 2.622 161 19 46
3.751927 -11.409949 2.602 161 19 46
3.957749 -11.514821 2.612 161 19 46
4.002737 -11.538865 2.699 161 19 46
3.971098 -11.523868 2.856 161 19 46
4.00541 -11.540227 2.738 161 19 46
4.05618 -11.56834 2.96 161 19 46
3.976881 -11.527936 2.888 161 19 46
4.011192 -11.544296 2.748 161 19 46
4.024104 -11.551997 2.965 161 19 46
4.138153 -11.610107 2.925 161 19 46
4.142171 -11.611033 2.795 161 19 46
4.197833 -11.642762 3.131 161 19 46
3.922983 -11.499352 2.859 161 19 46
4.107876 -11.592437 2.66 161 19 46
3.600019 -11.331426 2.502 161 19 46
3.76662 -11.418558 2.702 161 19 46
4.172902 -11.627813 2.939 161 19 46
3.792913 -11.430833 2.597 161 19 46
4.060636 -11.570611 2.956 161 19 46
3.826754 -11.45032 2.794 161 19 46
3.961314 -11.516638 2.575 161 19 46
4.045942 -11.562002 2.815 161 19 46
4.153737 -11.619171 3.008 161 19 46
3.932801 -11.50211 2.559 161 19 46
4.17692 -11.628739 2.797 161 19 46
4.041924 -11.561077 2.937 161 19 46
4.102513 -11.591949 2.915 161 19 46
3.784003 -11.426293 2.664 161 19 46
3.629876 -11.345517 2.437 161 19 46
3.88736 -11.478956 2.532 161 19 46
3.715396 -11.391336 2.565 161 19 46
4.075346 -11.576984 2.767 161 19 46
3.503353 -11.281051 2.364 161 19 46
4.068217 -11.573352 2.793 161 19 46
3.754163 -11.409966 2.511 161 19 46
3.865976 -11.46806 2.571 161 19 46
3.623185 -11.343229 2.466 161 19 46
4.049069 -11.562473 2.66 161 19 46
4.164866 -11.625964 3.122 161 19 46
4.077127 -11.577892 2.784 161 19 46
4.076236 -11.577437 2.733 161 19 46
4.146155 -11.61643 3.122 161 19 46
4.122552 -11.603281 3.04 161 19 46
3.768402 -11.419466 2.749 161 19 46
4.161319 -11.621912 2.95 161 19 46
4.042832 -11.559295 2.701 161 19 46
3.942585 -11.509339 2.799 161 19 46
3.993356 -11.537453 3.006 161 19 46
3.706486 -11.386796 2.589 161 19 46
4.071764 -11.577404 3.083 161 19 46
4.173793 -11.628267 2.947 161 19 46
4.009865 -11.542497 2.618 161 19 46
3.957749 -11.514821 2.583 161 19 46
3.992936 -11.533872 2.686 161 19 46
3.900254 -11.488893 2.909 161 19 46
4.015211 -11.545221 2.619 161 19 46
3.974225 -11.524338 2.737 161 19 46
3.918075 -11.497972 2.915 161 19 46
4.162647 -11.623711 3.059 161 19 46
3.992045 -11.533418 2.652 161 19 46
4.082911 -11.581961 2.888 161 19 46
3.730089 -11.399944 2.685 161 19 46
4.144826 -11.614631 3.088 161 19 46
4.016085 -11.547911 2.939 161 19 46
3.707376 -11.38725 2.644 161 19 46
3.946149 -11.511155 2.77 161 19 46
4.184048 -11.632371 2.821 161 19 46
3.690011 -11.377279 2.563 161 19 46
3.641896 -11.352763 2.568 161 19 46
3.652134 -11.359102 2.577 161 19 46
3.870868 -11.471675 2.73 161 19 46
4.101185 -11.59015 2.739 161 19 46
3.879341 -11.474871 2.582 161 19 46
3.773765 -11.419954 2.482 161 19 46
4.047724 -11.56291 2.85 161 19 46
3.608038 -11.335512 2.504 161 19 46
4.107859 -11.594672 2.89 161 19 46
4.110532 -11.596034 2.852 161 19 46
4.066873 -11.573789 2.876 161 19 46
4.106077 -11.593764 2.967 161 19 46
3.893143 -11.483025 2.733 161 19 46
3.60671 -11.333714 2.444 161 19 46
4.110515 -11.598271 3.143 161 19 46
4.181375 -11.631008 2.767 161 19 46
3.810297 -11.438568 2.494 161 19 46
4.096258 -11.591007 3.113 161 19 46
3.961296 -11.518873 2.768 161 19 46
4.137245 -11.611891 3.1 161 19 46
4.1591 -11.619659 2.806 161 19 46
4.166665 -11.624636 2.947 161 19 46
3.504244 -11.281505 2.368 161 19 46
3.95015 -11.514316 2.887 161 19 46
3.951496 -11.51388 2.81 161 19 46
3.737671 -11.402686 2.58 161 19 46
3.734561 -11.399979 2.526 161 19 46
4.11186 -11.597834 2.978 161 19 46
3.948822 -11.512517 2.811 161 19 46
4.090039 -11.585592 2.852 161 19 46
3.941711 -11.50665 2.62 161 19 46
4.151501 -11.619154 3.108 161 19 46
3.80226 -11.436717 2.703 161 19 46
3.570178 -11.3151 2.394 161 19 46
4.004519 -11.539773 2.715 161 19 46
3.959952 -11.51931 2.903 161 19 46
4.055743 -11.566996 2.793 161 19 46
3.890033 -11.480318 2.621 161 19 46
4.072236 -11.574277 2.68 161 19 46
3.835665 -11.454861 2.786 161 19 46
3.991607 -11.532073 2.605 161 19 46
3.77822 -11.422224 2.51 161 19 46
4.082474 -11.580616 2.776 161 19 46
3.444109 -11.249742 2.327 161 19 46
4.142154 -11.613269 3.06 161 19 46
3.93502 -11.504362 2.704 161 19 46
3.850828 -11.460342 2.652 161 19 46
3.574633 -11.317369 2.402 161 19 46
4.118551 -11.60012 2.846 161 19 46
4.086492 -11.58154 2.655 161 19 46
4.133698 -11.607838 2.938 161 19 46
4.01163 -11.545641 2.92 161 19 46
3.954169 -11.515242 2.81 161 19 46
4.164866 -11.625964 3.097 161 19 46
4.168447 -11.625544 2.939 161 19 46
3.711831 -11.38952 2.661 161 19 46
3.984462 -11.530677 2.766 161 19 46
4.041941 -11.558841 2.609 161 19 46
3.966643 -11.521597 2.764 161 19 46
3.945259 -11.510701 2.878 161 19 46
3.774202 -11.421299 2.559 161 19 46
4.015194 -11.547457 2.969 161 19 46
3.785331 -11.428092 2.701 161 19 46
4.053053 -11.56787 3.005 161 19 46
4.014757 -11.546113 2.775 161 19 46
4.050397 -11.564272 2.793 161 19 46
3.592 -11.32734 2.523 161 19 46
3.677537 -11.370923 2.474 161 19 46
3.853048 -11.462595 2.775 161 19 46
3.908727 -11.492087 2.818 161 19 46
4.07311 -11.576966 2.892 161 19 46
3.841918 -11.455802 2.598 161 19 46
3.886906 -11.479847 2.767 161 19 46
3.968425 -11.522505 2.833 161 19 46
3.650807 -11.357304 2.568 161 19 46
4.152846 -11.618717 2.974 161 19 46
3.858831 -11.466664 2.824 161 19 46
4.149736 -11.61601 2.84 161 19 46
3.76351 -11.415852 2.595 161 19 46
4.198287 -11.64187 2.964 161 19 46
4.131462 -11.607821 3.015 161 19 46
4.040579 -11.561514 3.074 161 19 46
3.657934 -11.360935 2.469 161 19 46
3.547904 -11.30375 2.381 161 19 46
3.891815 -11.481226 2.575 161 19 46
4.165337 -11.622837 2.819 161 19 46
3.602692 -11.332788 2.482 161 19 46
3.747926 -11.406788 2.521 161 19 46
4.159991 -11.620113 2.732 161 19 46
4.09404 -11.588754 3.078 161 19 46
4.106077 -11.593764 2.873 161 19 46
3.755054 -11.41042 2.546 161 19 46
4.116331 -11.597867 2.795 161 19 46
3.659262 -11.362735 2.602 161 19 46
4.03214 -11.553847 2.633 161 19 46
4.108313 -11.593781 2.808 161 19 46
4.095402 -11.586081 2.692 161 19 46
3.63655 -11.350039 2.515 161 19 46
3.885578 -11.478048 2.608 161 19 46
3.914964 -11.495266 2.791 161 19 46
4.154191 -11.618279 2.887 161 19 46
3.939912 -11.507977 2.841 161 19 46
4.068671 -11.57246 2.709 161 19 46
3.898035 -11.48664 2.861 161 19 46
4.167573 -11.622853 2.7 161 19 46
4.051742 -11.563835 2.684 161 19 46
3.494443 -11.27651 2.369 161 19 46
3.849501 -11.458543 2.511 161 19 46
4.1475 -11.615993 3.045 161 19 46
3.991591 -11.534309 2.864 161 19 46
4.096712 -11.590116 3.006 161 19 46
4.035233 -11.55879 3.002 161 19 46
3.72787 -11.397692 2.607 161 19 46
3.906491 -11.49207 2.917 161 19 46
3.921218 -11.496208 2.552 161 19 46
4.14128 -11.610579 2.826 161 19 46
3.883342 -11.47803 2.7 161 19 46
3.697139 -11.380911 2.477 161 19 46
4.144826 -11.614631 3.091 161 19 46
3.667736 -11.36593 2.448 161 19 46
4.155536 -11.617844 2.815 161 19 46
3.945259 -11.510701 2.851 161 19 46
4.131898 -11.609166 3.142 161 19 46
3.865959 -11.470296 2.808 161 19 46
4.130588 -11.605131 2.808 161 19 46
4.135917 -11.610091 3.046 161 19 46
3.868649 -11.469422 2.576 161 19 46
3.736779 -11.402231 2.581 161 19 46
3.953715 -11.516132 2.936 161 19 46
3.495788 -11.276073 2.334 161 19 46
3.80137 -11.436264 2.746 161 19 46
3.489551 -11.272895 2.334 161 19 46
4.101185 -11.59015 2.784 161 19 46
3.658826 -11.361389 2.541 161 19 46
3.903381 -11.489364 2.879 161 19 46
3.991137 -11.535199 2.897 161 19 46
3.813406 -11.441275 2.603 161 19 46
3.654807 -11.360464 2.592 161 19 46
3.641896 -11.352763 2.558 161 19 46
3.743454 -11.406754 2.701 161 19 46
4.001846 -11.538411 2.637 161 19 46
3.799605 -11.43312 2.497 161 19 46
4.169792 -11.625107 2.715 161 19 46
3.771529 -11.419937 2.61 161 19 46
3.79246 -11.431724 2.694 161 19 46
4.092711 -11.586954 2.885 161 19 46
4.070874 -11.57695 3.008 161 19 46
4.157738 -11.622333 3.122 161 19 46
4.066419 -11.57468 3.05 161 19 46
4.173339 -11.629159 2.974 161 19 46
3.839228 -11.456676 2.827 161 19 46
4.075346 -11.576984 2.834 161 19 46
3.699357 -11.383164 2.622 161 19 46
4.053507 -11.566978 2.868 161 19 46
3.968862 -11.523849 2.98 161 19 46
3.667298 -11.364585 2.419 161 19 46
3.996937 -11.537033 2.776 161 19 46
3.971535 -11.525211 2.98 161 19 46
4.158646 -11.620549 2.915 161 19 46
3.702922 -11.38498 2.618 161 19 46
3.588436 -11.325523 2.483 161 19 46
3.885124 -11.478939 2.763 161 19 46
4.029467 -11.552485 2.714 161 19 46
4.116331 -11.597867 2.731 161 19 46
4.028121 -11.552922 2.757 161 19 46
3.45302 -11.254281 2.348 161 19 46
3.752818 -11.410403 2.588 161 19 46
3.95284 -11.513442 2.654 161 19 46
4.05618 -11.56834 2.935 161 19 46
4.03836 -11.55926 2.919 161 19 46
3.86374 -11.468043 2.691 161 19 46
4.064653 -11.571536 2.857 161 19 46
3.969769 -11.522067 2.741 161 19 46
3.758164 -11.413127 2.647 161 19 46
3.756836 -11.411328 2.466 161 19 46
4.154191 -11.618279 2.929 161 19 46
3.998282 -11.536595 2.631 161 19 46
3.963516 -11.521126 2.975 161 19 46
3.547904 -11.30375 2.41 161 19 46
4.131025 -11.606476 2.901 161 19 46
3.817408 -11.444435 2.77 161 19 46
4.05929 -11.571048 3.03 161 19 46
3.895799 -11.486622 2.905 161 19 46
4.098074 -11.587442 2.702 161 19 46
4.086928 -11.582886 2.811 161 19 46
3.873104 -11.471692 2.546 161 19 46
3.852157 -11.462141 2.717 161 19 46
4.022776 -11.550199 2.78 161 19 46
3.890924 -11.480772 2.595 161 19 46
3.894925 -11.483932 2.759 161 19 46
3.906508 -11.489834 2.674 161 19 46
3.837446 -11.455769 2.837 161 19 46
4.142591 -11.614614 3.13 161 19 46
3.855267 -11.464849 2.798 161 19 46
4.110078 -11.596926 2.975 161 19 46
3.587999 -11.32418 2.38 161 19 46
3.96397 -11.520235 2.832 161 19 46
3.749254 -11.408587 2.602 161 19 46
3.777329 -11.42177 2.511 161 19 46
4.044597 -11.562439 2.924 161 19 46
3.979117 -11.527953 2.756 161 19 46
3.466385 -11.261091 2.348 161 19 46
3.980025 -11.526171 2.617 161 19 46
3.641005 -11.352309 2.545 161 19 46
3.873978 -11.474382 2.821 161 19 46
4.101639 -11.589258 2.676 161 19 46
3.844591 -11.457165 2.53 161 19 46
4.045942 -11.562002 2.763 161 19 46
4.133698 -11.607838 2.859 161 19 46
4.081583 -11.580162 2.843 161 19 46
3.859285 -11.465773 2.768 161 19 46
4.080255 -11.578362 2.677 161 19 46
3.850812 -11.462579 2.796 161 19 46
4.163538 -11.624166 3.045 161 19 46
4.134152 -11.606947 2.809 161 19 46
3.534538 -11.29694 2.393 161 19 46
4.19516 -11.641399 3.144 161 19 46
3.94926 -11.513862 2.926 161 19 46
3.835245 -11.45128 2.505 161 19 46
4.16801 -11.624199 2.753 161 19 46
4.143482 -11.615068 3.142 161 19 46
3.921655 -11.497552 2.683 161 19 46
3.807623 -11.437205 2.493 161 19 46
4.177794 -11.631429 3.067 161 19 46
4.096258 -11.591007 3.118 161 19 46
3.614729 -11.337799 2.414 161 19 46
4.126553 -11.606442 3.139 161 19 46
4.164429 -11.624619 3.088 161 19 46
4.091821 -11.5865 2.9 161 19 46
3.799605 -11.43312 2.479 161 19 46
4.012975 -11.545205 2.841 161 19 46
3.771075 -11.420828 2.675 161 19 46
3.808061 -11.438551 2.548 161 19 46
3.777766 -11.423116 2.587 161 19 46
4.157738 -11.622333 3.125 161 19 46
3.577307 -11.318731 2.445 161 19 46
4.151081 -11.615573 2.787 161 19 46
3.732325 -11.399961 2.612 161 19 46
3.94704 -11.511609 2.778 161 19 46
3.919436 -11.4953 2.572 161 19 46
4.148408 -11.614211 2.829 161 19 46
3.845483 -11.457619 2.595 161 19 46
3.94973 -11.510736 2.626 161 19 46
4.091383 -11.585155 2.748 161 19 46
3.569288 -11.314646 2.393 161 19 46
3.971098 -11.523868 2.801 161 19 46
3.960422 -11.516183 2.617 161 19 46
3.798713 -11.432666 2.527 161 19 46
4.043723 -11.559749 2.661 161 19 46
3.991591 -11.534309 2.806 161 19 46
3.632986 -11.348224 2.516 161 19 46
3.818316 -11.442654 2.516 161 19 46
4.179576 -11.632337 2.97 161 19 46
4.113222 -11.59516 2.691 161 19 46
4.019649 -11.549726 2.956 161 19 46
4.025886 -11.552905 2.946 161 19 46
3.908291 -11.490743 2.649 161 19 46
4.000064 -11.537503 2.717 161 19 46
3.833009 -11.451262 2.635 161 19 46
3.70694 -11.385904 2.464 161 19 46
4.000064 -11.537503 2.659 161 19 46
4.123914 -11.600608 2.702 161 19 46
3.739907 -11.402702 2.522 161 19 46
4.055306 -11.565651 2.67 161 19 46
3.918091 -11.495736 2.64 161 19 46
3.997374 -11.538378 2.881 161 19 46
3.971535 -11.525211 2.936 161 19 46
3.807169 -11.438097 2.652 161 19 46
3.657934 -11.360935 2.462 161 19 46
3.766637 -11.416322 2.495 161 19 46
3.523846 -11.291492 2.366 161 19 46
4.075782 -11.578328 2.93 161 19 46
4.501684 -11.795336 2.598 161 19 46
4.225035 -11.653255 2.649 161 19 46
4.241038 -11.665897 2.478 161 19 46
4.375144 -11.733107 2.512 161 19 46
4.470901 -11.785263 2.348 161 19 46
4.54978 -11.822088 2.489 161 19 46
4.587657 -11.840264 2.532 161 19 46
4.524378 -11.810266 2.426 161 19 46
4.601913 -11.847528 2.543 161 19 46
4.432639 -11.759034 2.631 161 19 46
4.221891 -11.65502 2.484 161 19 46
4.323029 -11.705429 2.541 161 19 46
4.283807 -11.68769 2.436 161 19 46
4.442406 -11.768499 2.428 161 19 46
4.3876 -11.741697 2.414 161 19 46
4.320372 -11.701831 2.654 161 19 46
4.496304 -11.797085 2.361 161 19 46
4.536887 -11.812151 2.629 161 19 46
4.423729 -11.754494 2.655 161 19 46
4.424569 -11.761656 2.322 161 19 46
4.514594 -11.803037 2.548 161 19 46
4.531978 -11.810771 2.6 161 19 46
4.294516 -11.690902 2.576 161 19 46
4.412146 -11.748592 2.622 161 19 46
4.311899 -11.698636 2.608 161 19 46
4.230346 -11.66045 2.444 161 19 46
4.534197 -11.813025 2.533 161 19 46
4.503886 -11.799825 2.425 161 19 46
4.27177 -11.682679 2.411 161 19 46
4.520849 -11.803979 2.64 161 19 46
4.460697 -11.774452 2.592 161 19 46
4.579185 -11.83707 2.478 161 19 46
4.467791 -11.782557 2.369 161 19 46
4.219672 -11.652766 2.582 161 19 46
4.351541 -11.719956 2.532 161 19 46
4.500793 -11.794882 2.601 161 19 46
4.45088 -11.771695 2.482 161 19 46
4.300282 -11.697206 2.402 161 19 46
4.506121 -11.799843 2.501 161 19 46
4.516813 -11.80529 2.476 161 19 46
4.301627 -11.696769 2.444 161 19 46
4.499884 -11.796664 2.503 161 19 46
4.342176 -11.716309 2.522 161 19 46
4.397889 -11.741328 2.636 161 19 46
4.411255 -11.748138 2.629 161 19 46
4.3217 -11.703629 2.589 161 19 46
4.227236 -11.657743 2.498 161 19 46
4.644682 -11.86932 2.519 161 19 46
4.482519 -11.786694 2.536 161 19 46
4.401402 -11.749852 2.322 161 19 46
4.272661 -11.683133 2.414 161 19 46
4.333721 -11.710877 2.542 161 19 46
4.403236 -11.744053 2.632 161 19 46
4.616623 -11.853901 2.568 161 19 46
4.349321 -11.717704 2.575 161 19 46
4.277587 -11.682276 2.555 161 19 46
4.26597 -11.680845 2.342 161 19 46
4.539998 -11.814857 2.603 161 19 46
4.337739 -11.711802 2.619 161 19 46
4.50392 -11.795353 2.62 161 19 46
4.507012 -11.800297 2.472 161 19 46
4.568055 -11.830276 2.542 161 19 46
4.497229 -11.793066 2.606 161 19 46
4.541307 -11.818892 2.44 161 19 46
4.673648 -11.882957 2.574 161 19 46
4.533761 -11.81168 2.561 161 19 46
4.443331 -11.764482 2.646 161 19 46
4.608604 -11.849814 2.586 161 19 46
4.46026 -11.773108 2.626 161 19 46
4.255732 -11.674507 2.415 161 19 46
4.52485 -11.807139 2.592 161 19 46
4.331014 -11.713986 2.351 161 19 46
4.41613 -11.753989 2.482 161 19 46
4.311462 -11.697291 2.654 161 19 46
4.503903 -11.797589 2.53 161 19 46
4.422367 -11.757168 2.476 161 19 46
4.280714 -11.682746 2.625 161 19 46
4.382743 -11.733611 2.651 161 19 46
4.594331 -11.844788 2.485 161 19 46
4.481627 -11.78624 2.556 161 19 46
4.482519 -11.786694 2.535 161 19 46
4.438422 -11.763103 2.607 161 19 46
4.549798 -11.819852 2.58 161 19 46
4.380036 -11.73672 2.45 161 19 46
4.5752 -11.831673 2.615 161 19 46
4.62286 -11.857079 2.583 161 19 46
4.225001 -11.657726 2.475 161 19 46
4.398293 -11.747146 2.392 161 19 46
4.692359 -11.892489 2.588 161 19 46
4.551109 -11.823887 2.433 161 19 46
4.511922 -11.801675 2.555 161 19 46
4.594348 -11.842551 2.57 161 19 46
4.645136 -11.868428 2.551 161 19 46
4.591221 -11.84208 2.517 161 19 46
4.501684 -11.795336 2.604 161 19 46
4.572073 -11.831201 2.569 161 19 46
4.261112 -11.672758 2.601 161 19 46
4.464262 -11.776268 2.568 161 19 46
4.35418 -11.725791 2.364 161 19 46
4.292297 -11.688648 2.604 161 19 46
4.319481 -11.701378 2.662 161 19 46
4.413877 -11.756208 2.362 161 19 46
4.372907 -11.733088 2.468 161 19 46
4.450408 -11.774821 2.347 161 19 46
4.482973 -11.785802 2.577 161 19 46
4.324373 -11.704991 2.583 161 19 46
4.58722 -11.838919 2.595 161 19 46
4.263331 -11.675012 2.544 161 19 46
4.51145 -11.804802 2.377 161 19 46
4.466497 -11.776286 2.649 161 19 46
4.435295 -11.762631 2.565 161 19 46
4.39873 -11.74849 2.333 161 19 46
4.306553 -11.695912 2.616 161 19 46
4.378254 -11.735812 2.46 161 19 46
4.578293 -11.836616 2.474 161 19 46
4.218781 -11.652312 2.547 161 19 46
4.629097 -11.860256 2.554 161 19 46
4.273569 -11.681351 2.523 161 19 46
4.53196 -11.813008 2.478 161 19 46
4.233457 -11.663157 2.413 161 19 46
4.295407 -11.691356 2.566 161 19 46
4.271787 -11.680443 2.487 161 19 46
4.51594 -11.8026 2.581 161 19 46
4.546671 -11.819381 2.556 161 19 46
4.589439 -11.841172 2.55 161 19 46
4.587204 -11.841156 2.468 161 19 46
4.245494 -11.668168 2.443 161 19 46
4.354633 -11.7249 2.391 161 19 46
4.460663 -11.778925 2.395 161 19 46
4.450426 -11.772586 2.413 161 19 46
4.328828 -11.707262 2.616 161 19 46
4.251294 -11.670001 2.519 161 19 46
4.461117 -11.778033 2.422 161 19 46
4.368924 -11.727692 2.583 161 19 46
4.407691 -11.746323 2.655 161 19 46
4.3217 -11.703629 2.621 161 19 46
4.53507 -11.815715 2.425 161 19 46
4.331014 -11.713986 2.341 161 19 46
4.205432 -11.643267 2.672 161 19 46
4.572947 -11.833892 2.497 161 19 46
4.511048 -11.798985 2.64 161 19 46
4.243728 -11.665024 2.564 161 19 46
4.261077 -11.677231 2.382 161 19 46
4.239727 -11.661862 2.603 161 19 46
4.519941 -11.805761 2.536 161 19 46
4.520831 -11.806215 2.517 161 19 46
4.252168 -11.672691 2.38 161 19 46
4.667411 -11.879778 2.553 161 19 46
4.711961 -11.902478 2.578 161 19 46
4.50212 -11.796681 2.542 161 19 46
4.505248 -11.797152 2.579 161 19 46
4.455788 -11.773073 2.523 161 19 46
4.588548 -11.840718 2.542 161 19 46
4.297609 -11.695845 2.385 161 19 46
4.536433 -11.813042 2.593 161 19 46
4.517251 -11.806635 2.441 161 19 46
4.507467 -11.799405 2.518 161 19 46
4.623752 -11.857533 2.601 161 19 46
4.458915 -11.773544 2.584 161 19 46
4.272207 -11.684024 2.357 161 19 46
4.302098 -11.693642 2.581 161 19 46
4.284244 -11.689034 2.389 161 19 46
4.397436 -11.742219 2.585 161 19 46
4.308789 -11.69593 2.654 161 19 46
4.336813 -11.71582 2.389 161 19 46
4.240584 -11.666789 2.411 161 19 46
4.502541 -11.800262 2.402 161 19 46
4.31279 -11.69909 2.613 161 19 46
4.231238 -11.660904 2.438 161 19 46
4.417912 -11.754897 2.513 161 19 46
4.331955 -11.707733 2.66 161 19 46
4.30741 -11.700838 2.386 161 19 46
4.683012 -11.886605 2.614 161 19 46
4.530179 -11.8121 2.494 161 19 46
4.286917 -11.690396 2.411 161 19 46
4.690577 -11.891582 2.56 161 19 46
4.535524 -11.814824 2.502 161 19 46
4.563146 -11.828897 2.489 161 19 46
4.51145 -11.804802 2.382 161 19 46
4.478954 -11.784878 2.557 161 19 46
4.425914 -11.761219 2.385 161 19 46
4.282059 -11.68231 2.672 161 19 46
4.364434 -11.729894 2.411 161 19 46
4.391619 -11.742622 2.436 161 19 46
4.491848 -11.794815 2.365 161 19 46
4.428604 -11.760345 2.475 161 19 46
4.273586 -11.679114 2.604 161 19 46
4.360013 -11.723151 2.616 161 19 46
4.262423 -11.676794 2.444 161 19 46
4.334611 -11.711331 2.547 161 19 46
4.247275 -11.669076 2.436 161 19 46
4.524832 -11.809376 2.498 161 19 46
4.40764 -11.75303 2.323 161 19 46
4.333687 -11.715349 2.369 161 19 46
4.441061 -11.768937 2.412 161 19 46
4.688358 -11.889329 2.616 161 19 46
4.246419 -11.66415 2.657 161 19 46
4.481191 -11.784894 2.596 161 19 46
4.603258 -11.847091 2.558 161 19 46
4.224109 -11.657272 2.459 161 19 46
4.612168 -11.85163 2.566 161 19 46
4.311445 -11.699527 2.574 161 19 46
4.624642 -11.857986 2.574 161 19 46
4.420568 -11.758495 2.379 161 19 46
4.359996 -11.725389 2.492 161 19 46
4.284244 -11.689034 2.418 161 19 46
4.236129 -11.664519 2.426 161 19 46
4.255278 -11.675398 2.331 161 19 46
4.337739 -11.711802 2.602 161 19 46
4.223236 -11.654582 2.559 161 19 46
4.358232 -11.722243 2.581 161 19 46
4.343504 -11.718106 2.423 161 19 46
4.569383 -11.832076 2.495 161 19 46
4.277133 -11.683167 2.489 161 19 46
4.409422 -11.753938 2.357 161 19 46
4.432185 -11.759925 2.595 161 19 46
4.402328 -11.745834 2.558 161 19 46
4.35423 -11.719083 2.662 161 19 46
4.65761 -11.874784 2.569 161 19 46
4.372033 -11.730398 2.557 161 19 46
4.384507 -11.736754 2.539 161 19 46
4.307427 -11.698603 2.517 161 19 46
4.539998 -11.814857 2.561 161 19 46
4.323448 -11.70901 2.404 161 19 46
4.382691 -11.740318 2.316 161 19 46
4.364923 -11.724531 2.656 161 19 46
4.382289 -11.734501 2.621 161 19 46
4.265096 -11.678156 2.436 161 19 46
4.337251 -11.717165 2.348 161 19 46
4.35465 -11.722664 2.484 161 19 46
4.343538 -11.713634 2.625 161 19 46
4.380489 -11.73583 2.504 161 19 46
4.421896 -11.760294 2.323 161 19 46
4.567601 -11.831168 2.492 161 19 46
4.599677 -11.847511 2.476 161 19 46
4.336393 -11.712239 2.541 161 19 46
4.231674 -11.66225 2.414 161 19 46
4.264188 -11.679937 2.348 161 19 46
4.449568 -11.76766 2.618 161 19 46
4.281588 -11.685437 2.483 161 19 46
4.650044 -11.869807 2.615 161 19 46
4.498976 -11.798447 2.375 161 19 46
4.318102 -11.706286 2.391 161 19 46
4.350178 -11.722631 2.413 161 19 46
4.376034 -11.73356 2.498 161 19 46
4.263785 -11.674121 2.613 161 19 46
4.383599 -11.738536 2.458 161 19 46
4.516377 -11.803946 2.554 161 19 46
4.249092 -11.665512 2.659 161 19 46
4.519469 -11.808888 2.39 161 19 46
4.27488 -11.685386 2.353 161 19 46
4.229456 -11.659996 2.45 161 19 46
4.543561 -11.816673 2.582 161 19 46
4.399184 -11.7476 2.413 161 19 46
4.442406 -11.768499 2.438 161 19 46
4.297205 -11.690027 2.666 161 19 46
4.610824 -11.852068 2.507 161 19 46
4.257514 -11.675415 2.411 161 19 46
4.433967 -11.760833 2.612 161 19 46
4.364451 -11.727658 2.487 161 19 46
4.583639 -11.839339 2.495 161 19 46
4.594331 -11.844788 2.462 161 19 46
4.60995 -11.849379 2.607 161 19 46
4.284681 -11.690379 2.353 161 19 46
4.20587 -11.644611 2.599 161 19 46
4.376506 -11.730433 2.625 161 19 46
4.462916 -11.776706 2.522 161 19 46
4.50523 -11.799389 2.488 161 19 46
4.339083 -11.711365 2.653 161 19 46
4.436203 -11.76085 2.639 161 19 46
4.570728 -11.831638 2.528 161 19 46
4.410313 -11.754392 2.35 161 19 46
4.302081 -11.695879 2.493 161 19 46
4.606369 -11.849798 2.508 161 19 46
4.353759 -11.72221 2.478 161 19 46
4.310537 -11.701309 2.442 161 19 46
4.210778 -11.64599 2.644 161 19 46
4.339974 -11.711819 2.666 161 19 46
4.41033 -11.752156 2.423 161 19 46
4.509265 -11.798078 2.64 161 19 46
4.242838 -11.66457 2.573 161 19 46
4.311899 -11.698636 2.615 161 19 46
4.474936 -11.783953 2.469 161 19 46
4.264642 -11.679048 2.424 161 19 46
4.376472 -11.734904 2.435 161 19 46
4.264188 -11.679937 2.331 161 19 46
4.414348 -11.753081 2.508 161 19 46
4.542233 -11.814875 2.62 161 19 46
4.519923 -11.807997 2.45 161 19 46
4.397873 -11.743565 2.546 161 19 46
4.320322 -11.708539 2.349 161 19 46
4.650919 -11.872498 2.515 161 19 46
4.393837 -11.744876 2.411 161 19 46
4.595693 -11.842114 2.614 161 19 46
4.231674 -11.66225 2.403 161 19 46
4.339067 -11.713601 2.526 161 19 46
4.201869 -11.641451 2.676 161 19 46
4.313664 -11.70178 2.51 161 19 46
4.389854 -11.739478 2.522 161 19 46
4.404967 -11.751668 2.338 161 19 46
4.590347 -11.839391 2.625 161 19 46
4.302956 -11.698569 2.377 161 19 46
4.238383 -11.6623 2.54 161 19 46
4.407657 -11.750794 2.427 161 19 46
4.258421 -11.673634 2.52 161 19 46
4.251276 -11.672237 2.424 161 19 46
4.228599 -11.65507 2.64 161 19 46
4.376034 -11.73356 2.472 161 19 46
4.344379 -11.720797 2.318 161 19 46
4.349759 -11.719049 2.563 161 19 46
4.252168 -11.672691 2.388 161 19 46
4.398293 -11.747146 2.381 161 19 46
4.46337 -11.775814 2.602 161 19 46
4.650482 -11.871152 2.564 161 19 46
4.24282 -11.666806 2.476 161 19 46
4.230346 -11.66045 2.474 161 19 46
4.475408 -11.780826 2.618 161 19 46
4.487393 -11.792544 2.365 161 19 46
4.528851 -11.810301 2.558 161 19 46
4.267314 -11.680408 2.419 161 19 46
4.414802 -11.752191 2.531 161 19 46
4.568509 -11.829385 2.596 161 19 46
4.437514 -11.764885 2.513 161 19 46
4.50212 -11.796681 2.52 161 19 46
4.240165 -11.663208 2.555 161 19 46
4.282462 -11.688127 2.416 161 19 46
4.388508 -11.739916 2.481 161 19 46
4.259767 -11.673196 2.547 161 19 46
4.231238 -11.660904 2.458 161 19 46
4.629535 -11.861602 2.547 161 19 46
4.533306 -11.812572 2.535 161 19 46
4.278007 -11.685857 2.376 161 19 46
4.256639 -11.672726 2.489 161 19 46
4.283387 -11.684109 2.607 161 19 46
4.229909 -11.659105 2.488 161 19 46
4.248201 -11.665058 2.658 161 19 46
4.4745 -11.782608 2.534 161 19 46
4.323483 -11.704538 2.607 161 19 46
4.691031 -11.890692 2.607 161 19 46
4.260203 -11.674541 2.506 161 19 46
4.421913 -11.758058 2.427 161 19 46
4.637116 -11.864343 2.591 161 19 46
4.313227 -11.700435 2.527 161 19 46
4.353323 -11.720864 2.523 161 19 46
4.596567 -11.844804 2.524 161 19 46
4.515031 -11.804382 2.482 161 19 46
4.344866 -11.715433 2.599 161 19 46
4.411221 -11.75261 2.464 161 19 46
4.357323 -11.724026 2.516 161 19 46
4.476718 -11.784861 2.463 161 19 46
4.521268 -11.80756 2.468 161 19 46
4.499448 -11.79532 2.552 161 19 46
4.59302 -11.840753 2.609 161 19 46
4.33061 -11.70817 2.621 161 19 46
4.455351 -11.771729 2.584 161 19 46
4.579655 -11.833942 2.623 161 19 46
4.358685 -11.721353 2.633 161 19 46
4.301173 -11.69766 2.4 161 19 46
4.553362 -11.821668 2.563 161 19 46
4.473592 -11.784389 2.425 161 19 46
4.24193 -11.666352 2.431 161 19 46
4.437934 -11.768466 2.322 161 19 46
4.429512 -11.758563 2.6 161 19 46
4.322557 -11.708556 2.386 161 19 46
4.26286 -11.67814 2.388 161 19 46
4.576528 -11.833471 2.572 161 19 46
4.344429 -11.714089 2.657 161 19 46
4.383145 -11.739428 2.368 161 19 46
4.323029 -11.705429 2.541 161 19 46
4.522177 -11.805778 2.571 161 19 46
4.41924 -11.756696 2.418 161 19 46
4.221454 -11.653674 2.571 161 19 46
4.450442 -11.77035 2.52 161 19 46
4.56982 -11.833421 2.453 161 19 46
4.531978 -11.810771 2.598 161 19 46
4.227253 -11.655507 2.597 161 19 46
4.24151 -11.662771 2.618 161 19 46
4.654483 -11.874313 2.523 161 19 46
4.614841 -11.852993 2.581 161 19 46
4.520831 -11.806215 2.555 161 19 46
4.387181 -11.738116 2.537 161 19 46
4.499902 -11.794428 2.578 161 19 46
4.3217 -11.703629 2.603 161 19 46
4.37247 -11.731744 2.472 161 19 46
4.516831 -11.803054 2.572 161 19 46
4.516831 -11.803054 2.575 161 19 46
4.540451 -11.813967 2.625 161 19 46
4.239257 -11.664989 2.447 161 19 46
4.522614 -11.807123 2.535 161 19 46
4.528833 -11.812537 2.414 161 19 46
4.401402 -11.749852 2.336 161 19 46
4.214779 -11.649151 2.592 161 19 46
4.270442 -11.68088 2.454 161 19 46
4.505248 -11.797152 2.597 161 19 46
4.309226 -11.697274 2.614 161 19 46
4.415659 -11.757116 2.324 161 19 46
4.601476 -11.846183 2.563 161 19 46
4.410313 -11.754392 2.341 161 19 46
4.409876 -11.753048 2.366 161 19 46
4.295844 -11.6927 2.515 161 19 46
4.499448 -11.79532 2.534 161 19 46
4.646481 -11.867991 2.614 161 19 46
4.612151 -11.853868 2.501 161 19 46
4.270442 -11.68088 2.451 161 19 46
4.537744 -11.817077 2.418 161 19 46
4.403673 -11.745397 2.619 161 19 46
4.275369 -11.680022 2.59 161 19 46
4.524816 -11.811612 2.4 161 19 46
4.364469 -11.725421 2.618 161 19 46
4.23033 -11.662686 2.376 161 19 46
4.221454 -11.653674 2.534 161 19 46
4.475844 -11.78217 2.58 161 19 46
4.244183 -11.664132 2.609 161 19 46
4.32745 -11.712171 2.324 161 19 46
4.323903 -11.708119 2.435 161 19 46
4.486974 -11.788963 2.517 161 19 46
4.396091 -11.742657 2.527 161 19 46
4.5578 -11.826174 2.457 161 19 46
4.220126 -11.651875 2.625 161 19 46
4.391602 -11.744858 2.343 161 19 46
4.282008 -11.689017 2.361 161 19 46
4.246385 -11.668622 2.439 161 19 46
4.275317 -11.68673 2.323 161 19 46
4.340814 -11.718981 2.363 161 19 46
4.328794 -11.711734 2.392 161 19 46
4.240181 -11.660972 2.671 161 19 46
4.304317 -11.695895 2.57 161 19 46
4.20898 -11.647319 2.56 161 19 46
4.290952 -11.689086 2.553 161 19 46
4.338159 -11.715383 2.433 161 19 46
4.41571 -11.750408 2.636 161 19 46
4.350667 -11.717267 2.645 161 19 46
4.358685 -11.721353 2.629 161 19 46
4.561818 -11.827099 2.532 161 19 46
4.567601 -11.831168 2.465 161 19 46
4.679447 -11.884789 2.615 161 19 46
4.486502 -11.79209 2.393 161 19 46
