ply
format ascii 1.0
element vertex 1303
property double x
property double y
property double z
property uchar red
property uchar green
property uchar blue
element face 0
property list uchar int vertex_indices
end_header
5.471802 -16.261549 1.648 84 170 255
5.421426 -16.358215 1.559 84 170 255
5.401887 -16.398764 1.7 84 170 255
5.399197 -16.399637 1.575 84 170 255
5.381021 -16.437513 1.643 84 170 255
5.508996 -16.192959 1.758 84 170 255
5.38736 -16.427277 1.713 84 170 255
5.322507 -16.545746 1.462 84 170 255
5.314335 -16.561785 1.47 84 170 255
5.321094 -16.555126 1.655 84 170 255
5.352403 -16.495884 1.733 84 170 255
5.413254 -16.374252 1.59 84 170 255
5.33658 -16.518126 1.438 84 170 255
5.326542 -16.544436 1.685 84 170 255
5.320237 -16.550201 1.468 84 170 255
5.325668 -16.541744 1.505 84 170 255
5.321565 -16.552 1.576 84 170 255
5.311611 -16.567131 1.453 84 170 255
5.394658 -16.408546 1.569 84 170 255
5.449103 -16.306099 1.656 84 170 255
5.506272 -16.198303 1.724 84 170 255
5.415524 -16.369797 1.617 84 170 255
5.431397 -16.340849 1.638 84 170 255
5.329249 -16.541325 1.741 84 170 255
5.478158 -16.249075 1.64 84 170 255
5.348368 -16.497194 1.496 84 170 255
5.524885 -16.161774 1.74 84 170 255
5.514897 -16.181376 1.756 84 170 255
5.302497 -16.589422 1.595 84 170 255
5.35469 -16.489193 1.629 84 170 255
5.512173 -16.186722 1.757 84 170 255
5.370125 -16.458899 1.609 84 170 255
5.478124 -16.253548 1.731 84 170 255
5.364189 -16.474955 1.753 84 170 255
5.421864 -16.35956 1.676 84 170 255
5.375573 -16.448206 1.669 84 170 255
5.32249 -16.547981 1.548 84 170 255
5.428219 -16.347086 1.633 84 170 255
5.419122 -16.367142 1.715 84 170 255
5.456349 -16.294079 1.722 84 170 255
5.419576 -16.366251 1.733 84 170 255
5.341978 -16.514141 1.68 84 170 255
5.32291 -16.551563 1.641 84 170 255
5.391917 -16.41613 1.589 84 170 255
5.350603 -16.497211 1.675 84 170 255
5.4963 -16.21567 1.685 84 170 255
5.356068 -16.484283 1.569 84 170 255
5.463176 -16.278479 1.613 84 170 255
5.445925 -16.312336 1.682 84 170 255
5.393699 -16.417038 1.748 84 170 255
5.407773 -16.389416 1.733 84 170 255
5.331116 -16.531054 1.543 84 170 255
5.446362 -16.313681 1.708 84 170 255
5.418231 -16.366688 1.7 84 170 255
5.453625 -16.299425 1.71 84 170 255
5.337 -16.521706 1.573 84 170 255
5.490852 -16.226362 1.688 84 170 255
5.332914 -16.529724 1.611 84 170 255
5.30248 -16.59166 1.688 84 170 255
5.394152 -16.416147 1.741 84 170 255
5.305221 -16.584076 1.629 84 170 255
5.375589 -16.445971 1.548 84 170 255
5.361062 -16.474482 1.548 84 170 255
5.382854 -16.431713 1.573 84 170 255
5.452735 -16.298971 1.677 84 170 255
5.308836 -16.579185 1.68 84 170 255
5.302951 -16.588531 1.625 84 170 255
5.342902 -16.510122 1.558 84 170 255
5.441385 -16.321245 1.627 84 170 255
5.352908 -16.488285 1.477 84 170 255
5.352419 -16.493647 1.631 84 170 255
5.371941 -16.455334 1.613 84 170 255
5.330157 -16.539543 1.746 84 170 255
5.336967 -16.526178 1.725 84 170 255
5.34065 -16.512342 1.529 84 170 255
5.38509 -16.431732 1.688 84 170 255
5.324323 -16.542181 1.425 84 170 255
5.412766 -16.379616 1.715 84 170 255
5.426404 -16.350649 1.675 84 170 255
5.445941 -16.310101 1.58 84 170 255
5.328795 -16.542215 1.744 84 170 255
5.438643 -16.328829 1.724 84 170 255
5.475417 -16.256657 1.667 84 170 255
5.38963 -16.422821 1.658 84 170 255
5.474963 -16.257547 1.72 84 170 255
5.359246 -16.478046 1.599 84 170 255
5.452281 -16.299862 1.643 84 170 255
5.420484 -16.364468 1.757 84 170 255
5.354673 -16.491428 1.753 84 170 255
5.50718 -16.196522 1.722 84 170 255
5.323835 -16.547544 1.635 84 170 255
5.406461 -16.385382 1.56 84 170 255
5.35062 -16.494976 1.612 84 170 255
5.409622 -16.381382 1.616 84 170 255
5.394203 -16.409439 1.538 84 170 255
5.381929 -16.435732 1.659 84 170 255
5.339708 -16.518595 1.694 84 170 255
5.459545 -16.285606 1.642 84 170 255
5.322961 -16.544855 1.486 84 170 255
5.36651 -16.463791 1.56 84 170 255
5.377843 -16.44375 1.654 84 170 255
5.337943 -16.515451 1.436 84 170 255
5.336092 -16.523487 1.564 84 170 255
5.444545 -16.317245 1.747 84 170 255
5.335622 -16.526615 1.688 84 170 255
5.299353 -16.591187 1.462 84 170 255
5.425041 -16.353323 1.633 84 170 255
5.409588 -16.385853 1.757 84 170 255
5.331116 -16.531054 1.494 84 170 255
5.366055 -16.464682 1.56 84 170 255
5.417794 -16.365343 1.607 84 170 255
5.345644 -16.502541 1.479 84 170 255
5.332932 -16.527489 1.54 84 170 255
5.404158 -16.39431 1.652 84 170 255
5.370109 -16.461134 1.705 84 170 255
5.323364 -16.550673 1.651 84 170 255
5.386014 -16.427713 1.659 84 170 255
5.396473 -16.404984 1.513 84 170 255
5.401467 -16.395184 1.541 84 170 255
5.464084 -16.276697 1.644 84 170 255
5.406007 -16.386272 1.544 84 170 255
5.346097 -16.50165 1.536 84 170 255
5.301169 -16.587624 1.449 84 170 255
5.466808 -16.271351 1.658 84 170 255
5.305675 -16.583185 1.642 84 170 255
5.351041 -16.498556 1.75 84 170 255
5.34561 -16.507013 1.689 84 170 255
5.392841 -16.412111 1.577 84 170 255
5.396457 -16.407219 1.605 84 170 255
5.315209 -16.564474 1.589 84 170 255
5.493106 -16.224144 1.73 84 170 255
5.430052 -16.341286 1.612 84 170 255
5.499478 -16.209433 1.665 84 170 255
5.450465 -16.303427 1.616 84 170 255
5.454533 -16.297644 1.745 84 170 255
5.462268 -16.28026 1.645 84 170 255
5.312956 -16.566692 1.565 84 170 255
5.442729 -16.320808 1.735 84 170 255
5.350183 -16.493631 1.476 84 170 255
5.361029 -16.478954 1.709 84 170 255
5.411892 -16.376926 1.626 84 170 255
5.380129 -16.437059 1.571 84 170 255
5.31383 -16.569384 1.656 84 170 255
5.356994 -16.480265 1.517 84 170 255
5.494484 -16.219234 1.667 84 170 255
5.499932 -16.208542 1.678 84 170 255
5.360591 -16.47761 1.673 84 170 255
5.384182 -16.433514 1.695 84 170 255
5.451355 -16.303881 1.718 84 170 255
5.376969 -16.441061 1.485 84 170 255
5.484497 -16.238836 1.658 84 170 255
5.390554 -16.418802 1.622 84 170 255
5.340145 -16.519941 1.755 84 170 255
5.355581 -16.489647 1.688 84 170 255
5.531241 -16.1493 1.739 84 170 255
5.349258 -16.497648 1.608 84 170 255
5.304313 -16.585857 1.589 84 170 255
5.352016 -16.487829 1.45 84 170 255
5.522615 -16.166229 1.759 84 170 255
5.320203 -16.554672 1.588 84 170 255
5.30248 -16.59166 1.682 84 170 255
5.464084 -16.276697 1.658 84 170 255
5.320203 -16.554672 1.626 84 170 255
5.427782 -16.345741 1.625 84 170 255
5.340599 -16.519049 1.711 84 170 255
5.401434 -16.399654 1.67 84 170 255
5.378767 -16.439734 1.587 84 170 255
5.402829 -16.392509 1.548 84 170 255
5.400526 -16.401436 1.659 84 170 255
5.492215 -16.22369 1.702 84 170 255
5.300227 -16.593878 1.603 84 170 255
5.305273 -16.57737 1.43 84 170 255
5.348317 -16.503902 1.744 84 170 255
5.347879 -16.502558 1.673 84 170 255
5.488583 -16.230818 1.664 84 170 255
5.353362 -16.487394 1.486 84 170 255
5.313898 -16.56044 1.427 84 170 255
5.320203 -16.554672 1.61 84 170 255
5.332444 -16.532852 1.701 84 170 255
5.320657 -16.553782 1.608 84 170 255
5.479049 -16.249529 1.675 84 170 255
5.423242 -16.35465 1.592 84 170 255
5.479503 -16.248638 1.682 84 170 255
5.455459 -16.293625 1.668 84 170 255
5.335151 -16.529741 1.741 84 170 255
5.312939 -16.56893 1.641 84 170 255
5.308853 -16.576948 1.602 84 170 255
5.405083 -16.390291 1.635 84 170 255
5.370579 -16.458008 1.645 84 170 255
5.298899 -16.592079 1.447 84 170 255
5.356489 -16.487865 1.755 84 170 255
5.297991 -16.593861 1.481 84 170 255
5.491307 -16.225471 1.668 84 170 255
5.338396 -16.514561 1.453 84 170 255
5.423696 -16.35376 1.619 84 170 255
5.527609 -16.156427 1.701 84 170 255
5.492198 -16.225925 1.76 84 170 255
5.321565 -16.552 1.596 84 170 255
5.330174 -16.537306 1.679 84 170 255
5.411858 -16.381397 1.727 84 170 255
5.328846 -16.535507 1.535 84 170 255
5.431851 -16.339958 1.687 84 170 255
5.447723 -16.311008 1.749 84 170 255
5.347409 -16.505686 1.751 84 170 255
5.445941 -16.310101 1.577 84 170 255
5.325685 -16.539509 1.433 84 170 255
5.545315 -16.121677 1.73 84 170 255
5.319767 -16.553328 1.539 84 170 255
5.367401 -16.464245 1.623 84 170 255
5.439586 -16.322575 1.568 84 170 255
5.303843 -16.588985 1.684 84 170 255
5.355144 -16.488302 1.649 84 170 255
5.408698 -16.385399 1.714 84 170 255
5.386032 -16.425476 1.578 84 170 255
5.472257 -16.260658 1.639 84 170 255
5.374245 -16.446407 1.489 84 170 255
5.410076 -16.380489 1.594 84 170 255
5.32972 -16.538198 1.643 84 170 255
5.451827 -16.300753 1.609 84 170 255
5.346114 -16.499414 1.458 84 170 255
5.437736 -16.33061 1.728 84 170 255
5.418214 -16.368923 1.743 84 170 255
5.298429 -16.595205 1.564 84 170 255
5.505363 -16.200087 1.759 84 170 255
5.50264 -16.205433 1.727 84 170 255
5.326576 -16.539963 1.544 84 170 255
5.375589 -16.445971 1.551 84 170 255
5.482226 -16.243292 1.674 84 170 255
5.407773 -16.389416 1.726 84 170 255
5.417778 -16.367579 1.705 84 170 255
5.342869 -16.514595 1.703 84 170 255
5.36197 -16.4727 1.559 84 170 255
5.354723 -16.48472 1.496 84 170 255
5.41734 -16.366234 1.599 84 170 255
5.410984 -16.378708 1.6 84 170 255
5.49356 -16.223253 1.735 84 170 255
5.484951 -16.237946 1.675 84 170 255
5.314301 -16.566256 1.64 84 170 255
5.476779 -16.253984 1.729 84 170 255
5.329317 -16.532381 1.425 84 170 255
5.350603 -16.497211 1.65 84 170 255
5.323835 -16.547544 1.64 84 170 255
5.337909 -16.519922 1.56 84 170 255
5.332006 -16.531507 1.563 84 170 255
5.326122 -16.540854 1.527 84 170 255
5.40641 -16.39209 1.731 84 170 255
5.349242 -16.499884 1.63 84 170 255
5.42684 -16.351994 1.748 84 170 255
5.423242 -16.35465 1.558 84 170 255
5.385544 -16.43084 1.714 84 170 255
5.309761 -16.575167 1.588 84 170 255
5.517622 -16.176029 1.75 84 170 255
5.440459 -16.325264 1.703 84 170 255
5.317966 -16.554657 1.468 84 170 255
5.327938 -16.537291 1.552 84 170 255
5.460453 -16.283823 1.599 84 170 255
5.438224 -16.325247 1.574 84 170 255
5.346518 -16.50523 1.675 84 170 255
5.425966 -16.349304 1.613 84 170 255
5.326979 -16.54578 1.736 84 170 255
5.467717 -16.269567 1.63 84 170 255
5.361516 -16.473591 1.539 84 170 255
5.523069 -16.165337 1.694 84 170 255
5.424116 -16.357342 1.747 84 170 255
5.516259 -16.178703 1.707 84 170 255
5.357413 -16.483847 1.65 84 170 255
5.400962 -16.402782 1.759 84 170 255
5.34561 -16.507013 1.669 84 170 255
5.305658 -16.585423 1.714 84 170 255
5.496737 -16.217016 1.728 84 170 255
5.350603 -16.497211 1.666 84 170 255
5.304313 -16.585857 1.639 84 170 255
5.35015 -16.498102 1.645 84 170 255
5.302935 -16.590767 1.7 84 170 255
5.391428 -16.421494 1.738 84 170 255
5.482226 -16.243292 1.656 84 170 255
5.311611 -16.567131 1.466 84 170 255
5.409606 -16.383617 1.654 84 170 255
5.467245 -16.272696 1.689 84 170 255
5.319715 -16.560036 1.718 84 170 255
5.360154 -16.476265 1.543 84 170 255
5.406865 -16.391199 1.747 84 170 255
5.351091 -16.49185 1.502 84 170 255
5.361029 -16.478954 1.734 84 170 255
5.47952 -16.246403 1.63 84 170 255
5.351495 -16.497665 1.705 84 170 255
5.428673 -16.346195 1.629 84 170 255
5.359229 -16.480284 1.63 84 170 255
5.520799 -16.169792 1.726 84 170 255
5.323852 -16.545309 1.565 84 170 255
5.360625 -16.473139 1.495 84 170 255
5.359263 -16.475811 1.497 84 170 255
5.374665 -16.449987 1.621 84 170 255
5.433667 -16.336393 1.684 84 170 255
5.323835 -16.547544 1.585 84 170 255
5.440494 -16.320791 1.59 84 170 255
5.506272 -16.198303 1.744 84 170 255
5.32792 -16.539526 1.567 84 170 255
5.460907 -16.282934 1.628 84 170 255
5.337018 -16.51947 1.542 84 170 255
5.370596 -16.45577 1.58 84 170 255
5.308836 -16.579185 1.724 84 170 255
5.375589 -16.445971 1.578 84 170 255
5.34154 -16.512796 1.554 84 170 255
5.505834 -16.196959 1.691 84 170 255
5.322507 -16.545746 1.492 84 170 255
5.517622 -16.176029 1.715 84 170 255
5.543045 -16.126133 1.731 84 170 255
5.322927 -16.549328 1.578 84 170 255
5.31568 -16.561348 1.553 84 170 255
5.456367 -16.291843 1.664 84 170 255
5.312065 -16.566238 1.498 84 170 255
5.489928 -16.230381 1.759 84 170 255
5.364677 -16.469591 1.608 84 170 255
5.379659 -16.440187 1.626 84 170 255
5.337943 -16.515451 1.455 84 170 255
5.3919 -16.418365 1.705 84 170 255
5.40372 -16.392963 1.588 84 170 255
5.39237 -16.415239 1.631 84 170 255
5.310198 -16.576511 1.691 84 170 255
5.316168 -16.555984 1.412 84 170 255
5.318841 -16.557346 1.611 84 170 255
5.306583 -16.581404 1.649 84 170 255
5.310215 -16.574276 1.607 84 170 255
5.362442 -16.469574 1.532 84 170 255
5.481773 -16.244183 1.675 84 170 255
5.424587 -16.354214 1.695 84 170 255
5.406898 -16.386726 1.61 84 170 255
5.393749 -16.41033 1.54 84 170 255
5.321599 -16.547527 1.436 84 170 255
5.299353 -16.591187 1.481 84 170 255
5.337472 -16.518579 1.494 84 170 255
5.372378 -16.45668 1.686 84 170 255
5.361029 -16.478954 1.728 84 170 255
5.296613 -16.59877 1.575 84 170 255
5.331553 -16.532398 1.585 84 170 255
5.326559 -16.542198 1.567 84 170 255
5.513082 -16.18494 1.711 84 170 255
5.526247 -16.1591 1.761 84 170 255
5.404612 -16.393417 1.668 84 170 255
5.425058 -16.351086 1.61 84 170 255
5.389227 -16.417004 1.497 84 170 255
5.395986 -16.410347 1.708 84 170 255
5.301641 -16.584496 1.434 84 170 255
5.439569 -16.32481 1.666 84 170 255
5.324726 -16.547998 1.7 84 170 255
5.35701 -16.478029 1.455 84 170 255
5.355178 -16.483829 1.476 84 170 255
5.347409 -16.505686 1.753 84 170 255
5.326979 -16.54578 1.742 84 170 255
5.354235 -16.490084 1.626 84 170 255
5.344685 -16.51103 1.715 84 170 255
5.502656 -16.203196 1.695 84 170 255
5.373303 -16.452662 1.648 84 170 255
5.4128 -16.375145 1.584 84 170 255
5.467262 -16.27046 1.612 84 170 255
5.321548 -16.554235 1.686 84 170 255
5.353765 -16.493212 1.725 84 170 255
5.330191 -16.53507 1.573 84 170 255
5.484026 -16.241964 1.741 84 170 255
5.354252 -16.487848 1.547 84 170 255
5.481756 -16.24642 1.748 84 170 255
5.336076 -16.525724 1.631 84 170 255
5.384199 -16.431276 1.635 84 170 255
5.450919 -16.302534 1.635 84 170 255
5.38694 -16.423695 1.527 84 170 255
5.373757 -16.451771 1.603 84 170 255
5.338817 -16.518141 1.607 84 170 255
5.307071 -16.57604 1.488 84 170 255
5.518075 -16.175138 1.723 84 170 255
5.417306 -16.370705 1.742 84 170 255
5.326592 -16.537727 1.449 84 170 255
5.306617 -16.576931 1.477 84 170 255
5.351091 -16.49185 1.479 84 170 255
5.505834 -16.196959 1.682 84 170 255
5.307055 -16.578278 1.545 84 170 255
5.435466 -16.335066 1.747 84 170 255
5.364223 -16.470482 1.661 84 170 255
5.316605 -16.557329 1.444 84 170 255
5.534873 -16.142172 1.711 84 170 255
5.366527 -16.461554 1.518 84 170 255
5.372395 -16.454443 1.601 84 170 255
5.458165 -16.290514 1.721 84 170 255
5.368746 -16.463808 1.731 84 170 255
5.522615 -16.166229 1.735 84 170 255
5.384182 -16.433514 1.686 84 170 255
5.327938 -16.537291 1.51 84 170 255
5.393262 -16.415693 1.725 84 170 255
5.386923 -16.42593 1.59 84 170 255
5.424116 -16.357342 1.74 84 170 255
5.525793 -16.159992 1.705 84 170 255
5.312939 -16.56893 1.584 84 170 255
5.329283 -16.536852 1.58 84 170 255
5.392825 -16.414349 1.594 84 170 255
5.340632 -16.514578 1.607 84 170 255
5.318841 -16.557346 1.581 84 170 255
5.340178 -16.515469 1.593 84 170 255
5.385544 -16.43084 1.674 84 170 255
5.410968 -16.380943 1.682 84 170 255
5.312082 -16.564003 1.406 84 170 255
5.537597 -16.136826 1.713 84 170 255
5.430018 -16.345757 1.722 84 170 255
5.468171 -16.268677 1.664 84 170 255
5.433229 -16.335049 1.585 84 170 255
5.360154 -16.476265 1.569 84 170 255
5.455913 -16.292734 1.651 84 170 255
5.477686 -16.252203 1.668 84 170 255
5.371924 -16.457571 1.678 84 170 255
5.314755 -16.565365 1.626 84 170 255
5.363316 -16.472263 1.627 84 170 255
5.478595 -16.25042 1.681 84 170 255
5.367435 -16.459772 1.499 84 170 255
5.32338 -16.548435 1.609 84 170 255
5.310636 -16.577856 1.728 84 170 255
5.411404 -16.38229 1.727 84 170 255
5.476325 -16.254875 1.725 84 170 255
5.297991 -16.593861 1.467 84 170 255
5.393733 -16.412565 1.634 84 170 255
5.400072 -16.402328 1.721 84 170 255
5.429582 -16.344412 1.659 84 170 255
5.305238 -16.581841 1.523 84 170 255
5.317966 -16.554657 1.44 84 170 255
5.354219 -16.492319 1.74 84 170 255
5.398743 -16.400528 1.568 84 170 255
5.467717 -16.269567 1.636 84 170 255
5.374699 -16.445517 1.501 84 170 255
5.352908 -16.488285 1.516 84 170 255
5.42188 -16.357323 1.559 84 170 255
5.378734 -16.444206 1.714 84 170 255
5.521707 -16.168011 1.704 84 170 255
5.350638 -16.492739 1.511 84 170 255
5.423208 -16.359123 1.723 84 170 255
5.41549 -16.374269 1.724 84 170 255
5.469498 -16.270475 1.757 84 170 255
5.322507 -16.545746 1.467 84 170 255
5.302969 -16.586296 1.516 84 170 255
5.351965 -16.494539 1.634 84 170 255
5.304785 -16.582731 1.541 84 170 255
5.359684 -16.479391 1.646 84 170 255
5.331116 -16.531054 1.559 84 170 255
5.324743 -16.545763 1.578 84 170 255
5.402342 -16.397873 1.698 84 170 255
5.339758 -16.511889 1.44 84 170 255
5.330628 -16.536415 1.691 84 170 255
5.407336 -16.388073 1.655 84 170 255
5.335202 -16.523033 1.531 84 170 255
5.33838 -16.516796 1.522 84 170 255
5.356035 -16.488756 1.723 84 170 255
5.329249 -16.541325 1.712 84 170 255
5.415524 -16.369797 1.57 84 170 255
5.321531 -16.556473 1.72 84 170 255
5.405974 -16.390745 1.692 84 170 255
5.4128 -16.375145 1.631 84 170 255
5.494938 -16.218344 1.711 84 170 255
5.322019 -16.551109 1.63 84 170 255
5.462234 -16.284733 1.755 84 170 255
5.321145 -16.54842 1.493 84 170 255
5.351495 -16.497665 1.753 84 170 255
5.357884 -16.480719 1.6 84 170 255
5.312485 -16.56982 1.631 84 170 255
5.339691 -16.520832 1.708 84 170 255
5.386452 -16.429058 1.663 84 170 255
5.359684 -16.479391 1.657 84 170 255
5.356522 -16.483393 1.576 84 170 255
5.401905 -16.396528 1.646 84 170 255
5.519437 -16.172466 1.718 84 170 255
5.310249 -16.569803 1.467 84 170 255
5.372429 -16.449972 1.486 84 170 255
5.319715 -16.560036 1.722 84 170 255
5.376918 -16.447769 1.707 84 170 255
5.312939 -16.56893 1.605 84 170 255
5.308383 -16.580074 1.671 84 170 255
5.374699 -16.445517 1.502 84 170 255
5.334277 -16.527052 1.623 84 170 255
5.391009 -16.417912 1.593 84 170 255
5.375119 -16.449097 1.644 84 170 255
5.393295 -16.411221 1.528 84 170 255
5.411858 -16.381397 1.718 84 170 255
5.512628 -16.185829 1.735 84 170 255
5.362424 -16.471809 1.586 84 170 255
5.312048 -16.568476 1.542 84 170 255
5.330174 -16.537306 1.673 84 170 255
5.512628 -16.185829 1.718 84 170 255
5.443218 -16.315447 1.583 84 170 255
5.36012 -16.480738 1.718 84 170 255
5.406461 -16.385382 1.541 84 170 255
5.330645 -16.53418 1.581 84 170 255
5.424587 -16.354214 1.699 84 170 255
5.322944 -16.547091 1.52 84 170 255
5.367838 -16.46559 1.695 84 170 255
5.295268 -16.599207 1.472 84 170 255
5.501748 -16.204979 1.669 84 170 255
5.303843 -16.588985 1.711 84 170 255
5.40414 -16.396545 1.735 84 170 255
5.4146 -16.373816 1.644 84 170 255
5.453171 -16.300316 1.732 84 170 255
5.439097 -16.327938 1.716 84 170 255
5.393279 -16.413456 1.612 84 170 255
5.337454 -16.520815 1.607 84 170 255
5.390135 -16.415222 1.507 84 170 255
5.330662 -16.531944 1.533 84 170 255
5.469986 -16.265114 1.618 84 170 255
5.451355 -16.303881 1.724 84 170 255
5.328358 -16.540871 1.684 84 170 255
5.35427 -16.485613 1.468 84 170 255
5.378314 -16.440624 1.572 84 170 255
5.329771 -16.53149 1.466 84 170 255
5.347879 -16.502558 1.646 84 170 255
5.371907 -16.459806 1.76 84 170 255
5.531695 -16.148409 1.716 84 170 255
5.491744 -16.226816 1.723 84 170 255
5.310198 -16.576511 1.679 84 170 255
5.386452 -16.429058 1.669 84 170 255
5.342937 -16.505651 1.43 84 170 255
5.468153 -16.270914 1.692 84 170 255
5.311106 -16.57473 1.675 84 170 255
5.47767 -16.254438 1.736 84 170 255
5.362861 -16.473154 1.654 84 170 255
5.310198 -16.576511 1.714 84 170 255
5.374649 -16.452225 1.674 84 170 255
5.353344 -16.48963 1.591 84 170 255
5.302497 -16.589422 1.605 84 170 255
5.429598 -16.342176 1.586 84 170 255
5.434575 -16.334612 1.674 84 170 255
5.358321 -16.482065 1.654 84 170 255
5.32291 -16.551563 1.653 84 170 255
5.445891 -16.316809 1.759 84 170 255
5.33157 -16.530161 1.512 84 170 255
5.42415 -16.352869 1.609 84 170 255
5.366947 -16.465136 1.674 84 170 255
5.342012 -16.509668 1.51 84 170 255
5.447269 -16.311899 1.754 84 170 255
5.370596 -16.45577 1.531 84 170 255
5.384199 -16.431276 1.59 84 170 255
5.402796 -16.396982 1.65 84 170 255
5.33204 -16.527035 1.438 84 170 255
5.400105 -16.397856 1.532 84 170 255
5.468625 -16.267786 1.623 84 170 255
5.337926 -16.517687 1.542 84 170 255
5.366963 -16.4629 1.594 84 170 255
5.3919 -16.418365 1.71 84 170 255
5.338346 -16.521269 1.652 84 170 255
5.493123 -16.221907 1.71 84 170 255
5.479503 -16.248638 1.721 84 170 255
5.306112 -16.58453 1.706 84 170 255
5.363803 -16.466902 1.481 84 170 255
5.382837 -16.43395 1.654 84 170 255
5.361062 -16.474482 1.598 84 170 255
5.319295 -16.556456 1.636 84 170 255
5.393262 -16.415693 1.67 84 170 255
5.455913 -16.292734 1.672 84 170 255
5.310249 -16.569803 1.457 84 170 255
5.49176 -16.224581 1.662 84 170 255
5.349712 -16.496758 1.579 84 170 255
5.489508 -16.226799 1.644 84 170 255
5.446815 -16.31279 1.741 84 170 255
5.362442 -16.469574 1.522 84 170 255
5.324726 -16.547998 1.646 84 170 255
5.356051 -16.486521 1.613 84 170 255
5.420938 -16.363579 1.736 84 170 255
5.302951 -16.588531 1.607 84 170 255
5.434103 -16.337738 1.745 84 170 255
5.448195 -16.307882 1.648 84 170 255
5.363769 -16.471373 1.639 84 170 255
5.376464 -16.44866 1.7 84 170 255
5.41961 -16.361778 1.57 84 170 255
5.380601 -16.433933 1.51 84 170 255
5.438207 -16.327484 1.646 84 170 255
5.3388 -16.520378 1.661 84 170 255
5.446833 -16.310555 1.675 84 170 255
5.369705 -16.455317 1.485 84 170 255
5.390554 -16.418802 1.62 84 170 255
5.361062 -16.474482 1.559 84 170 255
5.466808 -16.271351 1.64 84 170 255
5.506272 -16.198303 1.709 84 170 255
5.336127 -16.519014 1.475 84 170 255
5.333403 -16.524363 1.472 84 170 255
5.435029 -16.333721 1.629 84 170 255
5.379189 -16.443314 1.675 84 170 255
5.523523 -16.164446 1.712 84 170 255
5.395111 -16.407658 1.537 84 170 255
5.364257 -16.466009 1.512 84 170 255
5.323348 -16.552908 1.727 84 170 255
5.3388 -16.520378 1.641 84 170 255
5.382383 -16.434841 1.609 84 170 255
5.320203 -16.554672 1.597 84 170 255
5.328795 -16.542215 1.742 84 170 255
5.43819 -16.32972 1.746 84 170 255
5.350166 -16.495867 1.559 84 170 255
5.485858 -16.236164 1.656 84 170 255
5.374211 -16.45088 1.656 84 170 255
5.400105 -16.397856 1.571 84 170 255
5.344685 -16.51103 1.717 84 170 255
5.406461 -16.385382 1.542 84 170 255
5.392808 -16.416584 1.721 84 170 255
5.368326 -16.460226 1.582 84 170 255
5.522615 -16.166229 1.708 84 170 255
5.431414 -16.338612 1.604 84 170 255
5.346972 -16.504339 1.663 84 170 255
5.443655 -16.316792 1.617 84 170 255
5.517638 -16.173794 1.69 84 170 255
5.432305 -16.339067 1.694 84 170 255
5.303389 -16.589876 1.708 84 170 255
5.401921 -16.394291 1.513 84 170 255
5.411438 -16.377817 1.567 84 170 255
5.366947 -16.465136 1.64 84 170 255
5.308399 -16.577839 1.646 84 170 255
5.415524 -16.369797 1.629 84 170 255
5.359717 -16.47492 1.516 84 170 255
5.339254 -16.519487 1.684 84 170 255
5.446815 -16.31279 1.7 84 170 255
5.31072 -16.566677 1.416 84 170 255
5.384653 -16.430386 1.647 84 170 255
5.447758 -16.306536 1.606 84 170 255
5.453643 -16.29719 1.641 84 170 255
5.371924 -16.457571 1.711 84 170 255
5.345156 -16.507904 1.682 84 170 255
5.393295 -16.411221 1.57 84 170 255
5.445941 -16.310101 1.594 84 170 255
5.447303 -16.307426 1.588 84 170 255
5.371958 -16.453098 1.558 84 170 255
5.358776 -16.481173 1.671 84 170 255
5.523977 -16.163555 1.727 84 170 255
5.430018 -16.345757 1.722 84 170 255
5.459545 -16.285606 1.649 84 170 255
5.367435 -16.459772 1.525 84 170 255
5.365551 -16.472281 1.753 84 170 255
5.373757 -16.451771 1.632 84 170 255
5.377877 -16.43928 1.518 84 170 255
5.332006 -16.531507 1.57 84 170 255
5.417794 -16.365343 1.588 84 170 255
5.3293 -16.534616 1.536 84 170 255
5.303389 -16.589876 1.68 84 170 255
5.330679 -16.529707 1.434 84 170 255
5.397348 -16.407673 1.717 84 170 255
5.499478 -16.209433 1.677 84 170 255
5.321162 -16.546183 1.42 84 170 255
5.509012 -16.190722 1.694 84 170 255
5.480882 -16.243729 1.65 84 170 255
5.371941 -16.455334 1.625 84 170 255
5.343356 -16.509232 1.562 84 170 255
5.417794 -16.365343 1.598 84 170 255
5.316134 -16.560455 1.566 84 170 255
5.334311 -16.522579 1.44 84 170 255
5.350603 -16.497211 1.69 84 170 255
5.329754 -16.533726 1.496 84 170 255
5.373774 -16.449533 1.574 84 170 255
5.34973 -16.494522 1.516 84 170 255
5.515351 -16.180485 1.722 84 170 255
5.306601 -16.579166 1.524 84 170 255
5.463613 -16.279823 1.678 84 170 255
5.492668 -16.222799 1.716 84 170 255
5.485858 -16.236164 1.68 84 170 255
5.358792 -16.478937 1.576 84 170 255
5.440006 -16.326155 1.695 84 170 255
5.329737 -16.535961 1.569 84 170 255
5.379189 -16.443314 1.719 84 170 255
5.318841 -16.557346 1.615 84 170 255
5.334243 -16.531523 1.761 84 170 255
5.346534 -16.502995 1.609 84 170 255
5.417324 -16.368469 1.682 84 170 255
5.298849 -16.598785 1.678 84 170 255
5.455459 -16.293625 1.631 84 170 255
5.375136 -16.446861 1.529 84 170 255
5.337926 -16.517687 1.514 84 170 255
5.424587 -16.354214 1.672 84 170 255
5.373337 -16.448189 1.503 84 170 255
5.483572 -16.242855 1.741 84 170 255
5.489928 -16.230381 1.742 84 170 255
5.446379 -16.311445 1.657 84 170 255
5.353378 -16.485157 1.466 84 170 255
5.463631 -16.277588 1.666 84 170 255
5.451373 -16.301645 1.661 84 170 255
5.41322 -16.378725 1.72 84 170 255
5.405066 -16.392527 1.707 84 170 255
5.485388 -16.23929 1.756 84 170 255
5.316571 -16.561802 1.628 84 170 255
5.383274 -16.435295 1.719 84 170 255
5.456787 -16.295424 1.76 84 170 255
5.367401 -16.464245 1.676 84 170 255
5.386452 -16.429058 1.733 84 170 255
5.342465 -16.508778 1.483 84 170 255
5.381475 -16.436623 1.6 84 170 255
5.442276 -16.321699 1.701 84 170 255
5.434137 -16.333267 1.61 84 170 255
5.432742 -16.340412 1.737 84 170 255
5.313898 -16.56044 1.392 84 170 255
5.397348 -16.407673 1.717 84 170 255
5.451827 -16.300753 1.666 84 170 255
5.40868 -16.387634 1.738 84 170 255
5.308853 -16.576948 1.628 84 170 255
5.463176 -16.278479 1.629 84 170 255
5.361045 -16.476719 1.656 84 170 255
5.338783 -16.522614 1.742 84 170 255
5.354673 -16.491428 1.698 84 170 255
5.476342 -16.25264 1.647 84 170 255
5.440494 -16.320791 1.581 84 170 255
5.373757 -16.451771 1.655 84 170 255
5.425041 -16.353323 1.683 84 170 255
5.425932 -16.353777 1.736 84 170 255
5.342869 -16.514595 1.716 84 170 255
5.302061 -16.588078 1.541 84 170 255
5.409622 -16.381382 1.57 84 170 255
5.510357 -16.190285 1.734 84 170 255
5.306601 -16.579166 1.58 84 170 255
5.297991 -16.593861 1.502 84 170 255
5.35516 -16.486065 1.606 84 170 255
5.505834 -16.196959 1.69 84 170 255
5.34608 -16.503885 1.596 84 170 255
5.343828 -16.506105 1.492 84 170 255
5.411876 -16.379162 1.696 84 170 255
5.47725 -16.250856 1.655 84 170 255
5.30929 -16.578293 1.658 84 170 255
5.418702 -16.36356 1.606 84 170 255
5.508541 -16.19385 1.73 84 170 255
5.500386 -16.207651 1.671 84 170 255
5.503548 -16.203651 1.726 84 170 255
5.306112 -16.58453 1.7 84 170 255
5.410984 -16.378708 1.577 84 170 255
5.43138 -16.343084 1.748 84 170 255
5.466791 -16.273586 1.702 84 170 255
5.352873 -16.492758 1.628 84 170 255
5.505817 -16.199196 1.75 84 170 255
5.365115 -16.470936 1.732 84 170 255
5.420938 -16.363579 1.714 84 170 255
5.313376 -16.570274 1.716 84 170 255
5.376481 -16.446424 1.661 84 170 255
5.332478 -16.528379 1.556 84 170 255
5.301589 -16.591204 1.634 84 170 255
5.521707 -16.168011 1.698 84 170 255
5.502185 -16.206324 1.759 84 170 255
5.479503 -16.248638 1.659 84 170 255
5.411438 -16.377817 1.632 84 170 255
5.319767 -16.553328 1.546 84 170 255
5.321077 -16.557364 1.725 84 170 255
5.374699 -16.445517 1.498 84 170 255
5.344752 -16.502087 1.453 84 170 255
5.385107 -16.429495 1.642 84 170 255
5.298865 -16.59655 1.633 84 170 255
5.396473 -16.404984 1.526 84 170 255
5.408226 -16.388527 1.755 84 170 255
5.327434 -16.544889 1.747 84 170 255
5.334311 -16.522579 1.446 84 170 255
5.306112 -16.58453 1.672 84 170 255
5.520799 -16.169792 1.719 84 170 255
5.410968 -16.380943 1.711 84 170 255
5.519891 -16.171574 1.712 84 170 255
5.330679 -16.529707 1.486 84 170 255
5.337438 -16.52305 1.682 84 170 255
5.363316 -16.472263 1.655 84 170 255
5.360575 -16.479845 1.704 84 170 255
5.344718 -16.506559 1.597 84 170 255
5.311594 -16.569366 1.536 84 170 255
5.329771 -16.53149 1.468 84 170 255
5.514897 -16.181376 1.72 84 170 255
5.44954 -16.307444 1.692 84 170 255
5.338817 -16.518141 1.593 84 170 255
5.446362 -16.313681 1.729 84 170 255
5.439551 -16.327045 1.715 84 170 255
5.418231 -16.366688 1.666 84 170 255
5.405553 -16.387163 1.554 84 170 255
5.368293 -16.464699 1.701 84 170 255
5.406428 -16.389854 1.696 84 170 255
5.383728 -16.434404 1.703 84 170 255
5.344752 -16.502087 1.466 84 170 255
5.386923 -16.42593 1.595 84 170 255
5.300211 -16.596113 1.725 84 170 255
5.325196 -16.544872 1.567 84 170 255
5.405974 -16.390745 1.649 84 170 255
5.467717 -16.269567 1.626 84 170 255
5.499024 -16.210323 1.698 84 170 255
5.320237 -16.550201 1.466 84 170 255
5.395968 -16.412582 1.73 84 170 255
5.372429 -16.449972 1.495 84 170 255
5.340196 -16.513233 1.521 84 170 255
5.397331 -16.40991 1.735 84 170 255
5.366527 -16.461554 1.5 84 170 255
5.32291 -16.551563 1.665 84 170 255
5.299337 -16.593424 1.533 84 170 255
5.344685 -16.51103 1.761 84 170 255
5.487221 -16.23349 1.668 84 170 255
5.30929 -16.578293 1.706 84 170 255
5.43138 -16.343084 1.724 84 170 255
5.409588 -16.385853 1.745 84 170 255
5.38694 -16.423695 1.548 84 170 255
5.389663 -16.418348 1.523 84 170 255
5.319346 -16.549747 1.412 84 170 255
5.415995 -16.366671 1.546 84 170 255
5.437736 -16.33061 1.749 84 170 255
5.433684 -16.334158 1.573 84 170 255
5.527609 -16.156427 1.717 84 170 255
5.312502 -16.567585 1.549 84 170 255
5.359212 -16.482519 1.725 84 170 255
5.39464 -16.410784 1.618 84 170 255
5.371504 -16.453989 1.562 84 170 255
5.454533 -16.297644 1.719 84 170 255
5.336076 -16.525724 1.701 84 170 255
5.351511 -16.49543 1.645 84 170 255
5.307475 -16.581858 1.72 84 170 255
5.310687 -16.571148 1.548 84 170 255
5.359229 -16.480284 1.643 84 170 255
5.377826 -16.445988 1.709 84 170 255
5.332461 -16.530615 1.605 84 170 255
5.304767 -16.584967 1.619 84 170 255
5.429564 -16.346649 1.716 84 170 255
5.455005 -16.294516 1.629 84 170 255
5.313376 -16.570274 1.685 84 170 255
5.435483 -16.33283 1.668 84 170 255
5.401921 -16.394291 1.529 84 170 255
5.326996 -16.543543 1.681 84 170 255
5.307055 -16.578278 1.522 84 170 255
5.418214 -16.368923 1.719 84 170 255
5.33384 -16.525707 1.546 84 170 255
5.518983 -16.173357 1.716 84 170 255
5.451389 -16.299408 1.595 84 170 255
5.401416 -16.40189 1.757 84 170 255
5.302515 -16.587187 1.569 84 170 255
5.47271 -16.259768 1.625 84 170 255
5.415978 -16.368908 1.621 84 170 255
5.483589 -16.240618 1.655 84 170 255
5.398289 -16.401421 1.542 84 170 255
5.508104 -16.192505 1.693 84 170 255
5.346552 -16.500759 1.521 84 170 255
5.431851 -16.339958 1.653 84 170 255
5.403266 -16.393854 1.583 84 170 255
5.451843 -16.298517 1.591 84 170 255
5.437736 -16.33061 1.695 84 170 255
5.338346 -16.521269 1.672 84 170 255
5.368746 -16.463808 1.738 84 170 255
5.488112 -16.233944 1.761 84 170 255
5.351965 -16.494539 1.653 84 170 255
5.384619 -16.434858 1.747 84 170 255
5.37601 -16.449551 1.714 84 170 255
5.431834 -16.342194 1.711 84 170 255
5.361045 -16.476719 1.651 84 170 255
5.386032 -16.425476 1.537 84 170 255
5.472257 -16.260658 1.641 84 170 255
5.333335 -16.533306 1.758 84 170 255
5.318404 -16.556002 1.511 84 170 255
5.381929 -16.435732 1.65 84 170 255
5.413271 -16.372017 1.542 84 170 255
5.435011 -16.335957 1.741 84 170 255
5.333789 -16.532415 1.733 84 170 255
5.537126 -16.139952 1.759 84 170 255
5.349746 -16.492285 1.443 84 170 255
5.494938 -16.218344 1.706 84 170 255
5.434137 -16.333267 1.605 84 170 255
5.441367 -16.323483 1.704 84 170 255
5.306146 -16.580059 1.515 84 170 255
5.343777 -16.512812 1.719 84 170 255
5.343356 -16.509232 1.559 84 170 255
5.331536 -16.534634 1.649 84 170 255
5.326576 -16.539963 1.533 84 170 255
5.469079 -16.266895 1.611 84 170 255
5.301135 -16.592094 1.63 84 170 255
5.479049 -16.249529 1.689 84 170 255
5.331132 -16.528816 1.424 84 170 255
5.375085 -16.453569 1.75 84 170 255
5.375607 -16.443735 1.501 84 170 255
5.382854 -16.431713 1.555 84 170 255
5.305204 -16.586311 1.692 84 170 255
5.462705 -16.281605 1.732 84 170 255
5.352419 -16.493647 1.65 84 170 255
5.429144 -16.343067 1.557 84 170 255
5.468153 -16.270914 1.69 84 170 255
5.382837 -16.43395 1.629 84 170 255
5.369705 -16.455317 1.487 84 170 255
5.376952 -16.443296 1.564 84 170 255
5.350133 -16.50034 1.71 84 170 255
5.484026 -16.241964 1.732 84 170 255
5.320674 -16.551546 1.508 84 170 255
5.314319 -16.56402 1.529 84 170 255
5.412784 -16.37738 1.698 84 170 255
5.467245 -16.272696 1.689 84 170 255
5.360154 -16.476265 1.552 84 170 255
5.464993 -16.274914 1.656 84 170 255
5.364223 -16.470482 1.654 84 170 255
5.316117 -16.562693 1.621 84 170 255
5.417356 -16.363998 1.544 84 170 255
5.445487 -16.310991 1.586 84 170 255
5.399618 -16.403219 1.692 84 170 255
5.509449 -16.192066 1.727 84 170 255
5.36693 -16.467371 1.685 84 170 255
5.410531 -16.379599 1.621 84 170 255
5.330191 -16.53507 1.588 84 170 255
5.524431 -16.162664 1.701 84 170 255
5.440023 -16.323919 1.631 84 170 255
5.471785 -16.263784 1.726 84 170 255
5.426874 -16.347523 1.555 84 170 255
5.33204 -16.527035 1.414 84 170 255
5.514897 -16.181376 1.723 84 170 255
5.516259 -16.178703 1.734 84 170 255
5.299807 -16.590296 1.499 84 170 255
5.297083 -16.595642 1.5 84 170 255
5.420484 -16.364468 1.735 84 170 255
5.312519 -16.565348 1.493 84 170 255
5.300211 -16.596113 1.665 84 170 255
5.303422 -16.585403 1.552 84 170 255
5.519891 -16.171574 1.701 84 170 255
5.314319 -16.56402 1.536 84 170 255
5.315243 -16.560001 1.471 84 170 255
5.380533 -16.442877 1.75 84 170 255
5.301572 -16.593441 1.713 84 170 255
5.298882 -16.594315 1.565 84 170 255
5.332932 -16.527489 1.553 84 170 255
5.330157 -16.539543 1.753 84 170 255
5.334311 -16.522579 1.471 84 170 255
5.370563 -16.460243 1.685 84 170 255
5.373303 -16.452662 1.608 84 170 255
5.522161 -16.16712 1.73 84 170 255
5.491307 -16.225471 1.673 84 170 255
5.298899 -16.592079 1.507 84 170 255
5.331082 -16.535524 1.694 84 170 255
5.366055 -16.464682 1.588 84 170 255
5.373303 -16.452662 1.635 84 170 255
5.458183 -16.288279 1.648 84 170 255
5.455913 -16.292734 1.666 84 170 255
5.334714 -16.528397 1.702 84 170 255
5.489491 -16.229036 1.711 84 170 255
5.313427 -16.563566 1.493 84 170 255
5.456803 -16.293188 1.735 84 170 255
5.36878 -16.459335 1.578 84 170 255
5.362391 -16.476282 1.712 84 170 255
5.498554 -16.213451 1.719 84 170 255
5.35247 -16.48694 1.454 84 170 255
5.314319 -16.56402 1.514 84 170 255
5.318404 -16.556002 1.567 84 170 255
5.381021 -16.437513 1.601 84 170 255
5.456349 -16.294079 1.731 84 170 255
5.400088 -16.400091 1.583 84 170 255
5.49403 -16.220125 1.706 84 170 255
5.329317 -16.532381 1.453 84 170 255
5.500824 -16.208996 1.738 84 170 255
5.33611 -16.521252 1.529 84 170 255
5.494938 -16.218344 1.678 84 170 255
5.441839 -16.320356 1.667 84 170 255
5.307071 -16.57604 1.459 84 170 255
5.400543 -16.3992 1.577 84 170 255
5.311544 -16.576075 1.74 84 170 255
5.37828 -16.445097 1.694 84 170 255
5.511282 -16.186268 1.682 84 170 255
5.437753 -16.328375 1.679 84 170 255
5.43049 -16.34263 1.663 84 170 255
5.370159 -16.454426 1.473 84 170 255
5.466791 -16.273586 1.727 84 170 255
5.321582 -16.549765 1.563 84 170 255
5.376952 -16.443296 1.567 84 170 255
5.323852 -16.545309 1.55 84 170 255
5.331587 -16.527925 1.436 84 170 255
5.366982 -16.460663 1.48 84 170 255
5.36012 -16.480738 1.709 84 170 255
5.434137 -16.333267 1.578 84 170 255
5.389613 -16.425056 1.747 84 170 255
5.493123 -16.221907 1.696 84 170 255
5.34154 -16.512796 1.568 84 170 255
5.482681 -16.242401 1.659 84 170 255
5.415087 -16.368452 1.548 84 170 255
5.321548 -16.554235 1.683 84 170 255
5.351074 -16.494085 1.546 84 170 255
5.425966 -16.349304 1.561 84 170 255
5.382854 -16.431713 1.561 84 170 255
5.385561 -16.428604 1.607 84 170 255
5.50037 -16.209888 1.73 84 170 255
5.370563 -16.460243 1.73 84 170 255
5.318353 -16.56271 1.73 84 170 255
5.456837 -16.288715 1.595 84 170 255
5.314738 -16.5676 1.65 84 170 255
5.450431 -16.307898 1.761 84 170 255
5.435483 -16.33283 1.658 84 170 255
5.445 -16.316355 1.747 84 170 255
5.406898 -16.386726 1.592 84 170 255
5.399618 -16.403219 1.706 84 170 255
5.377389 -16.444643 1.654 84 170 255
5.345139 -16.510139 1.701 84 170 255
5.504018 -16.200523 1.7 84 170 255
5.436391 -16.331047 1.631 84 170 255
5.404645 -16.388947 1.559 84 170 255
5.38509 -16.431732 1.68 84 170 255
5.303843 -16.588985 1.688 84 170 255
5.352454 -16.489176 1.486 84 170 255
5.375085 -16.453569 1.748 84 170 255
5.390571 -16.416567 1.556 84 170 255
5.307962 -16.576494 1.547 84 170 255
5.372412 -16.452208 1.598 84 170 255
5.314319 -16.56402 1.512 84 170 255
5.332478 -16.528379 1.494 84 170 255
5.41006 -16.382727 1.668 84 170 255
5.337018 -16.51947 1.503 84 170 255
5.421896 -16.355087 1.555 84 170 255
5.51446 -16.180031 1.68 84 170 255
5.355581 -16.489647 1.69 84 170 255
5.427294 -16.351103 1.714 84 170 255
5.358776 -16.481173 1.626 84 170 255
5.470894 -16.26333 1.655 84 170 255
5.450011 -16.304317 1.651 84 170 255
5.455441 -16.29586 1.744 84 170 255
5.370596 -16.45577 1.583 84 170 255
5.519437 -16.172466 1.735 84 170 255
5.335185 -16.52527 1.585 84 170 255
5.458165 -16.290514 1.68 84 170 255
5.339288 -16.515015 1.482 84 170 255
5.384215 -16.429041 1.566 84 170 255
5.401905 -16.396528 1.61 84 170 255
5.408244 -16.38629 1.642 84 170 255
5.371958 -16.453098 1.568 84 170 255
5.337454 -16.520815 1.558 84 170 255
5.349276 -16.495413 1.526 84 170 255
5.411422 -16.380053 1.649 84 170 255
5.42415 -16.352869 1.593 84 170 255
5.377355 -16.449114 1.76 84 170 255
5.492652 -16.225035 1.744 84 170 255
5.393295 -16.411221 1.552 84 170 255
5.420972 -16.359106 1.608 84 170 255
5.340145 -16.519941 1.735 84 170 255
5.367872 -16.461117 1.588 84 170 255
5.434575 -16.334612 1.633 84 170 255
5.322524 -16.54351 1.404 84 170 255
5.440006 -16.326155 1.76 84 170 255
5.455005 -16.294516 1.644 84 170 255
5.406007 -16.386272 1.553 84 170 255
5.328409 -16.534163 1.487 84 170 255
5.406882 -16.388964 1.647 84 170 255
5.418685 -16.365797 1.647 84 170 255
5.30248 -16.59166 1.722 84 170 255
5.405083 -16.390291 1.619 84 170 255
5.362861 -16.473154 1.623 84 170 255
5.355614 -16.485174 1.585 84 170 255
5.338783 -16.522614 1.722 84 170 255
5.388301 -16.421022 1.58 84 170 255
5.494484 -16.219234 1.656 84 170 255
5.506725 -16.197414 1.733 84 170 255
5.500824 -16.208996 1.728 84 170 255
5.378331 -16.438389 1.518 84 170 255
5.341507 -16.517267 1.724 84 170 255
5.33204 -16.527035 1.414 84 170 255
5.388301 -16.421022 1.58 84 170 255
5.341558 -16.510559 1.495 84 170 255
5.505363 -16.200087 1.722 84 170 255
5.454971 -16.298988 1.756 84 170 255
5.404628 -16.391182 1.599 84 170 255
5.374228 -16.448643 1.585 84 170 255
5.371017 -16.459352 1.7 84 170 255
5.31383 -16.569384 1.72 84 170 255
5.441385 -16.321245 1.675 84 170 255
5.332024 -16.52927 1.522 84 170 255
5.388319 -16.418785 1.497 84 170 255
5.308836 -16.579185 1.686 84 170 255
5.305204 -16.586311 1.661 84 170 255
5.417778 -16.367579 1.64 84 170 255
5.356051 -16.486521 1.65 84 170 255
5.37332 -16.450426 1.54 84 170 255
5.385073 -16.433968 1.738 84 170 255
5.470423 -16.266459 1.68 84 170 255
5.375993 -16.451788 1.752 84 170 255
5.330225 -16.5306 1.456 84 170 255
5.41233 -16.378271 1.642 84 170 255
5.34292 -16.507887 1.527 84 170 255
5.360608 -16.475374 1.543 84 170 255
5.431414 -16.338612 1.617 84 170 255
5.306601 -16.579166 1.529 84 170 255
5.426857 -16.349758 1.675 84 170 255
5.528971 -16.153755 1.719 84 170 255
5.444075 -16.320372 1.759 84 170 255
5.441385 -16.321245 1.623 84 170 255
5.329771 -16.53149 1.428 84 170 255
5.362424 -16.471809 1.567 84 170 255
5.495846 -16.216562 1.676 84 170 255
5.419139 -16.364906 1.693 84 170 255
5.371504 -16.453989 1.57 84 170 255
5.415541 -16.367561 1.555 84 170 255
5.477686 -16.252203 1.703 84 170 255
5.512173 -16.186722 1.712 84 170 255
5.388268 -16.425495 1.712 84 170 255
5.312502 -16.567585 1.548 84 170 255
5.445 -16.316355 1.719 84 170 255
5.327955 -16.535053 1.484 84 170 255
5.33426 -16.529287 1.693 84 170 255
5.327501 -16.535944 1.483 84 170 255
5.46136 -16.282042 1.661 84 170 255
5.313445 -16.561331 1.393 84 170 255
5.306567 -16.583639 1.715 84 170 255
5.469515 -16.26824 1.674 84 170 255
5.460453 -16.283823 1.653 84 170 255
5.31795 -16.556892 1.534 84 170 255
5.336513 -16.527069 1.711 84 170 255
5.372849 -16.453552 1.608 84 170 255
5.478578 -16.252657 1.735 84 170 255
5.372849 -16.453552 1.607 84 170 255
5.409622 -16.381382 1.596 84 170 255
5.43049 -16.34263 1.678 84 170 255
5.466354 -16.272242 1.612 84 170 255
5.500386 -16.207651 1.702 84 170 255
5.332461 -16.530615 1.618 84 170 255
5.328392 -16.536398 1.557 84 170 255
5.392841 -16.412111 1.564 84 170 255
5.381895 -16.440205 1.757 84 170 255
5.365115 -16.470936 1.682 84 170 255
5.518529 -16.174248 1.736 84 170 255
5.452263 -16.302097 1.749 84 170 255
5.44004 -16.321684 1.58 84 170 255
5.312082 -16.564003 1.402 84 170 255
5.439569 -16.32481 1.681 84 170 255
5.32434 -16.539946 1.406 84 170 255
5.29979 -16.592533 1.539 84 170 255
5.321531 -16.556473 1.726 84 170 255
5.405587 -16.38269 1.19 84 170 255
5.371992 -16.448626 1.207 84 170 255
5.324323 -16.542181 1.26 84 170 255
5.296193 -16.595188 1.313 84 170 255
5.452785 -16.292263 1.17 84 170 255
5.381979 -16.429024 1.212 84 170 255
5.307542 -16.572914 1.302 84 170 255
5.35928 -16.473574 1.109 84 170 255
5.300733 -16.586279 1.303 84 170 255
5.401031 -16.393837 1.086 84 170 255
5.316151 -16.55822 1.112 84 170 255
5.426454 -16.343941 1.205 84 170 255
5.355631 -16.482939 1.067 84 170 255
5.340212 -16.510996 1.191 84 170 255
5.396945 -16.401857 1.085 84 170 255
5.352924 -16.486048 1.148 84 170 255
5.337052 -16.514997 1.334 84 170 255
5.312973 -16.564457 1.225 84 170 255
5.327047 -16.536837 1.2 84 170 255
5.316605 -16.557329 1.062 84 170 255
5.330679 -16.529707 1.137 84 170 255
5.370613 -16.453535 1.087 84 170 255
5.340212 -16.510996 1.197 84 170 255
5.388319 -16.418785 1.087 84 170 255
5.326156 -16.536383 1.279 84 170 255
5.31072 -16.566677 1.34 84 170 255
5.464135 -16.269987 1.147 84 170 255
5.33658 -16.518126 1.268 84 170 255
5.422822 -16.35107 1.142 84 170 255
5.502253 -16.19738 1.052 84 170 255
5.481387 -16.23613 1.113 84 170 255
5.355178 -16.483829 1.077 84 170 255
5.376986 -16.438826 1.166 84 170 255
5.458233 -16.28157 1.179 84 170 255
5.371992 -16.448626 1.213 84 170 255
5.362458 -16.467337 1.213 84 170 255
5.379693 -16.435715 1.043 84 170 255
5.394221 -16.407204 1.046 84 170 255
5.346114 -16.499414 1.115 84 170 255
5.448699 -16.300282 1.045 84 170 255
5.325702 -16.537273 1.287 84 170 255
5.379255 -16.43437 1.204 84 170 255
5.342483 -16.50654 1.271 84 170 255
5.327518 -16.533709 1.275 84 170 255
5.365636 -16.4611 1.214 84 170 255
5.304801 -16.580496 1.198 84 170 255
5.298463 -16.590733 1.269 84 170 255
5.359734 -16.472683 1.226 84 170 255
5.416482 -16.361307 1.21 84 170 255
5.508155 -16.185795 1.088 84 170 255
5.297555 -16.592516 1.269 84 170 255
5.390152 -16.412987 1.198 84 170 255
5.332495 -16.526144 1.238 84 170 255
5.357918 -16.476248 1.261 84 170 255
5.378785 -16.437498 1.098 84 170 255
5.36609 -16.460209 1.315 84 170 255
5.345661 -16.500303 1.227 84 170 255
5.314335 -16.561785 1.092 84 170 255
5.365636 -16.4611 1.271 84 170 255
5.420552 -16.355526 1.11 84 170 255
5.418753 -16.356853 1.204 84 170 255
5.495007 -16.2094 1.137 84 170 255
5.384704 -16.423677 1.146 84 170 255
5.298463 -16.590733 1.322 84 170 255
5.31753 -16.55331 1.29 84 170 255
5.509517 -16.183123 1.109 84 170 255
5.441436 -16.314539 1.114 84 170 255
5.510425 -16.181341 1.113 84 170 255
5.387411 -16.420568 1.088 84 170 255
5.380601 -16.433933 1.054 84 170 255
5.316605 -16.557329 1.166 84 170 255
5.301169 -16.587624 1.192 84 170 255
5.301641 -16.584496 1.271 84 170 255
5.383341 -16.426352 1.274 84 170 255
5.42146 -16.353743 1.088 84 170 255
5.337506 -16.514107 1.342 84 170 255
5.40557 -16.384928 1.06 84 170 255
5.462319 -16.273552 1.083 84 170 255
5.324323 -16.542181 1.141 84 170 255
5.474577 -16.249495 1.134 84 170 255
5.536302 -16.130554 1.077 84 170 255
5.507701 -16.186687 1.038 84 170 255
5.322507 -16.545746 1.247 84 170 255
5.554008 -16.095804 1.08 84 170 255
5.305255 -16.579605 1.093 84 170 255
5.553554 -16.096695 1.084 84 170 255
5.386503 -16.42235 1.128 84 170 255
5.33885 -16.51367 1.097 84 170 255
5.446429 -16.304737 1.065 84 170 255
5.418283 -16.35998 1.138 84 170 255
5.457325 -16.283354 1.105 84 170 255
5.533578 -16.1359 1.056 84 170 255
5.365165 -16.464228 1.098 84 170 255
5.333857 -16.52347 1.241 84 170 255
5.491828 -16.215637 1.103 84 170 255
5.416012 -16.364435 1.101 84 170 255
5.369722 -16.453081 1.116 84 170 255
5.299807 -16.590296 1.14 84 170 255
5.338396 -16.514561 1.121 84 170 255
5.320237 -16.550201 1.242 84 170 255
5.367435 -16.459772 1.097 84 170 255
5.378802 -16.435261 1.129 84 170 255
5.301641 -16.584496 1.314 84 170 255
5.415104 -16.366217 1.132 84 170 255
5.394691 -16.404076 1.213 84 170 255
5.393313 -16.408985 1.05 84 170 255
5.441436 -16.314539 1.046 84 170 255
5.355648 -16.480703 1.137 84 170 255
5.33796 -16.513216 1.312 84 170 255
5.41465 -16.367107 1.072 84 170 255
5.3729 -16.446844 1.282 84 170 255
5.401938 -16.392056 1.089 84 170 255
5.330242 -16.528362 1.277 84 170 255
5.306181 -16.575586 1.358 84 170 255
5.376078 -16.440607 1.247 84 170 255
5.328863 -16.533272 1.18 84 170 255
5.415558 -16.365326 1.173 84 170 255
5.329788 -16.529253 1.344 84 170 255
5.355178 -16.483829 1.065 84 170 255
5.404679 -16.384474 1.267 84 170 255
5.388319 -16.418785 1.063 84 170 255
5.366527 -16.461554 1.069 84 170 255
5.364728 -16.462883 1.128 84 170 255
5.40557 -16.384928 1.069 84 170 255
5.425546 -16.345724 1.192 84 170 255
5.348838 -16.494066 1.294 84 170 255
5.489104 -16.220984 1.102 84 170 255
5.298899 -16.592079 1.216 84 170 255
5.451878 -16.294044 1.082 84 170 255
5.389227 -16.417004 1.076 84 170 255
5.38425 -16.424568 1.177 84 170 255
5.485473 -16.228111 1.144 84 170 255
5.320237 -16.550201 1.238 84 170 255
5.441436 -16.314539 1.065 84 170 255
5.383796 -16.425461 1.231 84 170 255
5.371068 -16.452644 1.097 84 170 255
5.333403 -16.524363 1.125 84 170 255
5.35701 -16.478029 1.092 84 170 255
5.509063 -16.184013 1.069 84 170 255
5.402392 -16.391165 1.163 84 170 255
5.309359 -16.569349 1.311 84 170 255
5.484093 -16.233019 1.074 84 170 255
5.306634 -16.574696 1.34 84 170 255
5.536757 -16.129663 1.067 84 170 255
5.329771 -16.53149 1.266 84 170 255
5.416937 -16.360416 1.228 84 170 255
5.407403 -16.379128 1.209 84 170 255
5.383779 -16.427696 1.081 84 170 255
5.411035 -16.372 1.235 84 170 255
5.521775 -16.159065 1.063 84 170 255
5.470474 -16.25975 1.037 84 170 255
5.3502 -16.491394 1.161 84 170 255
5.300715 -16.588514 1.118 84 170 255
5.348838 -16.494066 1.271 84 170 255
5.431448 -16.334141 1.124 84 170 255
5.41692 -16.362652 1.121 84 170 255
5.309359 -16.569349 1.313 84 170 255
5.341138 -16.506979 1.297 84 170 255
5.358826 -16.474466 1.227 84 170 255
5.536757 -16.129663 1.039 84 170 255
5.333403 -16.524363 1.162 84 170 255
5.321145 -16.54842 1.074 84 170 255
5.366982 -16.460663 1.097 84 170 255
5.327064 -16.534599 1.356 84 170 255
5.378785 -16.437498 1.041 84 170 255
5.351109 -16.489613 1.158 84 170 255
5.342465 -16.508778 1.043 84 170 255
5.307089 -16.573805 1.328 84 170 255
5.314335 -16.561785 1.144 84 170 255
5.480916 -16.239256 1.048 84 170 255
5.427362 -16.342159 1.209 84 170 255
5.483185 -16.234802 1.078 84 170 255
5.421914 -16.352852 1.103 84 170 255
5.297537 -16.594751 1.186 84 170 255
5.448246 -16.301172 1.17 84 170 255
5.343844 -16.503868 1.258 84 170 255
5.353378 -16.485157 1.155 84 170 255
5.381526 -16.429914 1.145 84 170 255
5.424184 -16.348396 1.071 84 170 255
5.313445 -16.561331 1.34 84 170 255
5.398306 -16.399183 1.085 84 170 255
5.395583 -16.40453 1.051 84 170 255
5.339304 -16.512777 1.182 84 170 255
5.503615 -16.194706 1.098 84 170 255
5.322961 -16.544855 1.213 84 170 255
5.300715 -16.588514 1.186 84 170 255
5.3729 -16.446844 1.178 84 170 255
5.397853 -16.400074 1.087 84 170 255
5.439166 -16.318993 1.175 84 170 255
5.424184 -16.348396 1.18 84 170 255
5.539026 -16.125208 1.095 84 170 255
5.405587 -16.38269 1.199 84 170 255
5.349292 -16.493177 1.254 84 170 255
5.500891 -16.200052 1.104 84 170 255
5.528584 -16.1457 1.096 84 170 255
5.329788 -16.529253 1.289 84 170 255
5.362458 -16.467337 1.258 84 170 255
5.375624 -16.441498 1.295 84 170 255
