ply
format ascii 1.0
element vertex 1302
property double x
property double y
property double z
property uchar red
property uchar green
property uchar blue
element face 0
property list uchar int vertex_indices
end_header
3.256207 -19.506351 0.631 255 84 127
3.465547 -19.324579 0.636 255 84 127
3.424544 -19.305931 0.643 255 84 127
3.444307 -19.412521 0.626 255 84 127
3.498222 -19.20318 0.65 255 84 127
3.320436 -19.411133 0.638 255 84 127
3.396151 -19.275751 0.649 255 84 127
3.569998 -19.350863 0.622 255 84 127
3.569502 -19.2395 0.638 255 84 127
3.59916 -19.220942 0.638 255 84 127
3.399443 -19.313343 0.644 255 84 127
3.337149 -19.389345 0.639 255 84 127
3.45396 -19.378157 0.63 255 84 127
3.31996 -19.473742 0.629 255 84 127
3.496897 -19.141901 0.659 255 84 127
3.460061 -19.163534 0.659 255 84 127
3.444078 -19.324862 0.638 255 84 127
3.519228 -19.32275 0.631 255 84 127
3.529152 -19.252611 0.64 255 84 127
3.349551 -19.464127 0.628 255 84 127
3.478866 -19.278614 0.641 255 84 127
3.436929 -19.382948 0.631 255 84 127
3.406435 -19.334864 0.64 255 84 127
3.568624 -19.296291 0.63 255 84 127
3.517522 -19.193935 0.649 255 84 127
3.482395 -19.284903 0.64 255 84 127
3.393427 -19.281097 0.649 255 84 127
3.432139 -19.365917 0.634 255 84 127
3.618274 -19.236292 0.634 255 84 127
3.521897 -19.147905 0.655 255 84 127
3.341604 -19.391615 0.639 255 84 127
3.525452 -19.268682 0.638 255 84 127
3.439296 -19.188869 0.658 255 84 127
3.44418 -19.311447 0.64 255 84 127
3.485985 -19.165522 0.656 255 84 127
3.508952 -19.380363 0.624 255 84 127
3.438057 -19.352098 0.635 255 84 127
3.596364 -19.294712 0.628 255 84 127
3.600455 -19.227213 0.637 255 84 127
3.490376 -19.117254 0.663 255 84 127
3.673313 -19.291271 0.621 255 84 127
3.378742 -19.389214 0.635 255 84 127
3.457727 -19.353142 0.633 255 84 127
3.595371 -19.307674 0.626 255 84 127
3.452797 -19.413479 0.625 255 84 127
3.569044 -19.299873 0.63 255 84 127
3.407092 -19.30714 0.644 255 84 127
3.480122 -19.348839 0.631 255 84 127
3.401327 -19.300835 0.646 255 84 127
3.342478 -19.394306 0.638 255 84 127
3.536896 -19.351954 0.625 255 84 127
3.599355 -19.313072 0.625 255 84 127
3.509784 -19.2708 0.639 255 84 127
3.617582 -19.268488 0.63 255 84 127
3.65139 -19.292446 0.623 255 84 127
3.367498 -19.338593 0.644 255 84 127
3.451113 -19.222948 0.652 255 84 127
3.653961 -19.307224 0.621 255 84 127
3.53967 -19.339899 0.627 255 84 127
3.679453 -19.248384 0.626 255 84 127
3.511663 -19.317774 0.633 255 84 127
3.481263 -19.375235 0.628 255 84 127
3.53286 -19.353266 0.626 255 84 127
3.642514 -19.283436 0.625 255 84 127
3.422316 -19.42264 0.627 255 84 127
3.381665 -19.416517 0.631 255 84 127
3.417819 -19.308117 0.643 255 84 127
3.641016 -19.303997 0.622 255 84 127
3.532063 -19.222668 0.644 255 84 127
3.508328 -19.167927 0.654 255 84 127
3.439139 -19.268475 0.646 255 84 127
3.646799 -19.308065 0.621 255 84 127
3.64063 -19.295942 0.623 255 84 127
3.522754 -19.15283 0.655 255 84 127
3.474593 -19.31123 0.637 255 84 127
3.422575 -19.329618 0.639 255 84 127
3.432507 -19.376205 0.632 255 84 127
3.363289 -19.421745 0.632 255 84 127
3.487906 -19.324749 0.634 255 84 127
3.472709 -19.323738 0.636 255 84 127
3.290052 -19.466358 0.633 255 84 127
3.402663 -19.419361 0.629 255 84 127
3.687149 -19.294954 0.619 255 84 127
3.472629 -19.275436 0.642 255 84 127
3.480694 -19.332296 0.634 255 84 127
3.477054 -19.222698 0.649 255 84 127
3.581488 -19.251219 0.635 255 84 127
3.477847 -19.177088 0.656 255 84 127
3.696751 -19.2673 0.622 255 84 127
3.535436 -19.308561 0.632 255 84 127
3.331679 -19.461756 0.63 255 84 127
3.46441 -19.238703 0.648 255 84 127
3.447129 -19.21755 0.653 255 84 127
3.550685 -19.302864 0.631 255 84 127
3.445919 -19.2001 0.655 255 84 127
3.488616 -19.290318 0.639 255 84 127
3.617922 -19.223768 0.636 255 84 127
3.462688 -19.347813 0.633 255 84 127
3.45396 -19.378157 0.63 255 84 127
3.372569 -19.436573 0.629 255 84 127
3.450998 -19.414808 0.625 255 84 127
3.463663 -19.337086 0.634 255 84 127
3.719463 -19.279995 0.618 255 84 127
3.609415 -19.225044 0.636 255 84 127
3.516576 -19.25967 0.64 255 84 127
3.625733 -19.314167 0.622 255 84 127
3.255299 -19.508135 0.631 255 84 127
3.534286 -19.165442 0.652 255 84 127
3.502363 -19.128973 0.66 255 84 127
3.443238 -19.317701 0.639 255 84 127
3.485145 -19.394047 0.625 255 84 127
3.347102 -19.374216 0.641 255 84 127
3.613111 -19.268454 0.63 255 84 127
3.331666 -19.40451 0.638 255 84 127
3.56638 -19.179548 0.647 255 84 127
3.401959 -19.39431 0.632 255 84 127
3.55304 -19.287228 0.633 255 84 127
3.4388 -19.313194 0.64 255 84 127
3.373765 -19.39678 0.635 255 84 127
3.474886 -19.213737 0.651 255 84 127
3.506775 -19.254677 0.642 255 84 127
3.434748 -19.316742 0.64 255 84 127
3.4991 -19.382078 0.625 255 84 127
3.411866 -19.326406 0.641 255 84 127
3.476727 -19.324663 0.635 255 84 127
3.390172 -19.415241 0.631 255 84 127
3.345553 -19.401484 0.637 255 84 127
3.545916 -19.224115 0.642 255 84 127
3.478875 -19.159653 0.658 255 84 127
3.338494 -19.388908 0.639 255 84 127
3.520047 -19.155941 0.654 255 84 127
3.490524 -19.3923 0.624 255 84 127
3.631486 -19.263227 0.629 255 84 127
3.507433 -19.226954 0.646 255 84 127
3.528745 -19.306274 0.633 255 84 127
3.400991 -19.286074 0.648 255 84 127
3.617663 -19.31679 0.623 255 84 127
3.569854 -19.252026 0.636 255 84 127
3.5717 -19.303471 0.629 255 84 127
3.404462 -19.418032 0.629 255 84 127
3.524243 -19.251232 0.641 255 84 127
3.559952 -19.260447 0.636 255 84 127
3.663835 -19.243793 0.628 255 84 127
3.507768 -19.241714 0.644 255 84 127
3.549951 -19.222805 0.642 255 84 127
3.486146 -19.262123 0.643 255 84 127
3.598673 -19.226305 0.637 255 84 127
3.59193 -19.230726 0.637 255 84 127
3.525805 -19.281208 0.636 255 84 127
3.610319 -19.282743 0.628 255 84 127
3.501145 -19.230484 0.646 255 84 127
3.625114 -19.277937 0.627 255 84 127
3.643235 -19.30625 0.622 255 84 127
3.55598 -19.312296 0.629 255 84 127
3.558156 -19.202293 0.644 255 84 127
3.476379 -19.252657 0.645 255 84 127
3.43743 -19.199141 0.656 255 84 127
3.465819 -19.288803 0.641 255 84 127
3.471839 -19.261568 0.644 255 84 127
3.537651 -19.370296 0.623 255 84 127
3.516131 -19.1416 0.657 255 84 127
3.31097 -19.4209 0.637 255 84 127
3.637655 -19.275349 0.627 255 84 127
3.478459 -19.332279 0.634 255 84 127
3.359661 -19.36939 0.64 255 84 127
3.501034 -19.362862 0.627 255 84 127
3.563838 -19.21978 0.641 255 84 127
3.420216 -19.404736 0.629 255 84 127
3.528698 -19.253502 0.64 255 84 127
3.467766 -19.326832 0.636 255 84 127
3.524074 -19.273592 0.638 255 84 127
3.469468 -19.279438 0.642 255 84 127
3.361422 -19.432016 0.631 255 84 127
3.464511 -19.225286 0.65 255 84 127
3.423776 -19.230343 0.653 255 84 127
3.60322 -19.33412 0.622 255 84 127
3.520446 -19.221239 0.645 255 84 127
3.380274 -19.364182 0.639 255 84 127
3.521125 -19.131798 0.658 255 84 127
3.618813 -19.224222 0.635 255 84 127
3.55508 -19.195116 0.646 255 84 127
3.361392 -19.377008 0.639 255 84 127
3.530527 -19.307182 0.632 255 84 127
3.500661 -19.176365 0.653 255 84 127
3.563367 -19.222906 0.641 255 84 127
3.686258 -19.2945 0.619 255 84 127
3.361002 -19.428436 0.632 255 84 127
3.46601 -19.204725 0.653 255 84 127
3.463951 -19.299074 0.64 255 84 127
3.571603 -19.257404 0.635 255 84 127
3.546268 -19.236639 0.641 255 84 127
3.491696 -19.238014 0.646 255 84 127
3.36995 -19.369022 0.639 255 84 127
3.608201 -19.267075 0.631 255 84 127
3.466918 -19.202944 0.653 255 84 127
3.437841 -19.321684 0.639 255 84 127
3.282301 -19.485977 0.631 255 84 127
3.474487 -19.384127 0.627 255 84 127
3.538105 -19.369406 0.623 255 84 127
3.626153 -19.317747 0.622 255 84 127
3.337887 -19.409924 0.636 255 84 127
3.710638 -19.264275 0.621 255 84 127
3.44645 -19.306992 0.64 255 84 127
3.300154 -19.490585 0.629 255 84 127
3.372755 -19.411978 0.633 255 84 127
3.320588 -19.39101 0.641 255 84 127
3.573112 -19.294088 0.63 255 84 127
3.391801 -19.436272 0.628 255 84 127
3.698448 -19.279387 0.62 255 84 127
3.464461 -19.231995 0.649 255 84 127
3.598129 -19.297857 0.627 255 84 127
3.369793 -19.448627 0.628 255 84 127
3.477741 -19.249985 0.645 255 84 127
3.405188 -19.381365 0.634 255 84 127
3.418018 -19.340765 0.638 255 84 127
3.685133 -19.265869 0.623 255 84 127
3.505082 -19.183107 0.652 255 84 127
3.59877 -19.272369 0.631 255 84 127
3.523068 -19.229309 0.644 255 84 127
3.340708 -19.450644 0.63 255 84 127
3.521608 -19.185917 0.65 255 84 127
3.569787 -19.260969 0.635 255 84 127
3.636667 -19.22883 0.633 255 84 127
3.441516 -19.191122 0.657 255 84 127
3.550244 -19.361 0.623 255 84 127
3.547604 -19.355165 0.624 255 84 127
3.462522 -19.310692 0.638 255 84 127
3.619216 -19.230038 0.635 255 84 127
3.36676 -19.318014 0.646 255 84 127
3.318586 -19.419168 0.637 255 84 127
3.488425 -19.374393 0.627 255 84 127
3.312548 -19.448641 0.633 255 84 127
3.382861 -19.376724 0.637 255 84 127
3.379251 -19.322134 0.645 255 84 127
3.525193 -19.361704 0.625 255 84 127
3.508383 -19.337425 0.63 255 84 127
3.54828 -19.325207 0.628 255 84 127
3.367171 -19.440557 0.629 255 84 127
3.489837 -19.129324 0.661 255 84 127
3.416792 -19.32555 0.641 255 84 127
3.512143 -19.195683 0.65 255 84 127
3.668506 -19.276478 0.623 255 84 127
3.534117 -19.187799 0.649 255 84 127
3.429898 -19.425381 0.625 255 84 127
3.569295 -19.325813 0.626 255 84 127
3.620591 -19.284611 0.627 255 84 127
3.48618 -19.25765 0.643 255 84 127
3.3667 -19.443684 0.629 255 84 127
3.300965 -19.442738 0.635 255 84 127
3.292204 -19.477556 0.631 255 84 127
3.601948 -19.266132 0.631 255 84 127
3.580072 -19.320082 0.626 255 84 127
3.442291 -19.383436 0.63 255 84 127
3.525877 -19.212782 0.646 255 84 127
3.558806 -19.293533 0.632 255 84 127
3.425371 -19.255848 0.649 255 84 127
3.575315 -19.298578 0.629 255 84 127
3.430369 -19.422255 0.626 255 84 127
3.532895 -19.348793 0.626 255 84 127
3.464792 -19.306236 0.639 255 84 127
3.378385 -19.436171 0.629 255 84 127
3.591052 -19.287518 0.629 255 84 127
3.345079 -19.464094 0.628 255 84 127
3.490996 -19.153484 0.658 255 84 127
3.491166 -19.366812 0.628 255 84 127
3.695826 -19.271318 0.622 255 84 127
3.485901 -19.176701 0.655 255 84 127
3.357404 -19.431091 0.632 255 84 127
3.602474 -19.196817 0.641 255 84 127
3.611311 -19.269781 0.63 255 84 127
3.401861 -19.348246 0.639 255 84 127
3.450917 -19.366507 0.632 255 84 127
3.340118 -19.469421 0.628 255 84 127
3.523445 -19.356323 0.626 255 84 127
3.607077 -19.238443 0.635 255 84 127
3.560096 -19.359285 0.622 255 84 127
3.526984 -19.24365 0.642 255 84 127
3.581158 -19.176977 0.646 255 84 127
3.592656 -19.194059 0.642 255 84 127
3.462641 -19.29504 0.641 255 84 127
3.45045 -19.310152 0.64 255 84 127
3.578667 -19.210499 0.641 255 84 127
3.659931 -19.286697 0.623 255 84 127
3.646451 -19.236059 0.631 255 84 127
3.590178 -19.284828 0.63 255 84 127
3.453298 -19.229673 0.65 255 84 127
3.506818 -19.131243 0.659 255 84 127
3.462063 -19.371063 0.63 255 84 127
3.44818 -19.314608 0.639 255 84 127
3.323575 -19.468849 0.629 255 84 127
3.622729 -19.238562 0.633 255 84 127
3.432745 -19.344902 0.636 255 84 127
3.579537 -19.272671 0.633 255 84 127
3.440981 -19.3794 0.631 255 84 127
3.604735 -19.311323 0.625 255 84 127
3.55629 -19.212566 0.643 255 84 127
3.348965 -19.423426 0.633 255 84 127
3.59395 -19.200329 0.641 255 84 127
3.609478 -19.275581 0.629 255 84 127
3.392675 -19.438961 0.627 255 84 127
3.570393 -19.239954 0.638 255 84 127
3.582345 -19.256145 0.634 255 84 127
3.67644 -19.291744 0.621 255 84 127
3.542246 -19.295197 0.633 255 84 127
3.491068 -19.320747 0.634 255 84 127
3.587475 -19.228455 0.638 255 84 127
3.271205 -19.474712 0.634 255 84 127
3.543192 -19.229462 0.642 255 84 127
3.371164 -19.326992 0.645 255 84 127
3.579854 -19.289667 0.63 255 84 127
3.347739 -19.408209 0.636 255 84 127
3.64122 -19.277164 0.626 255 84 127
3.326036 -19.380318 0.642 255 84 127
3.362635 -19.389986 0.637 255 84 127
3.588158 -19.315224 0.626 255 84 127
3.656672 -19.244635 0.629 255 84 127
3.442568 -19.288179 0.643 255 84 127
3.426843 -19.356485 0.635 255 84 127
3.445126 -19.24571 0.649 255 84 127
3.618847 -19.219749 0.636 255 84 127
3.461915 -19.331707 0.635 255 84 127
3.435168 -19.320322 0.64 255 84 127
3.608423 -19.238007 0.635 255 84 127
3.556374 -19.201385 0.645 255 84 127
3.486418 -19.226347 0.648 255 84 127
3.483109 -19.19099 0.653 255 84 127
3.589728 -19.226236 0.638 255 84 127
3.607752 -19.208485 0.639 255 84 127
3.513814 -19.32897 0.631 255 84 127
3.379871 -19.358364 0.64 255 84 127
3.600653 -19.259861 0.632 255 84 127
3.496413 -19.323471 0.633 255 84 127
3.323563 -19.411604 0.637 255 84 127
3.534154 -19.359535 0.625 255 84 127
3.575375 -19.172909 0.647 255 84 127
3.39119 -19.28108 0.649 255 84 127
3.480516 -19.23793 0.647 255 84 127
3.539551 -19.355551 0.625 255 84 127
3.679316 -19.266273 0.624 255 84 127
3.563999 -19.316381 0.628 255 84 127
3.446823 -19.257799 0.647 255 84 127
3.392646 -19.383953 0.635 255 84 127
3.356114 -19.365339 0.641 255 84 127
3.677132 -19.259548 0.625 255 84 127
3.55102 -19.317625 0.629 255 84 127
3.5861 -19.173883 0.646 255 84 127
3.406554 -19.31921 0.642 255 84 127
3.285024 -19.480631 0.632 255 84 127
3.494679 -19.139648 0.659 255 84 127
3.363191 -19.375681 0.639 255 84 127
3.475934 -19.370274 0.629 255 84 127
3.601935 -19.208887 0.639 255 84 127
3.47405 -19.147095 0.66 255 84 127
3.468763 -19.254389 0.646 255 84 127
3.398704 -19.292765 0.647 255 84 127
3.49557 -19.140102 0.659 255 84 127
3.361817 -19.321108 0.646 255 84 127
3.614604 -19.307373 0.624 255 84 127
3.446496 -19.359764 0.633 255 84 127
3.36945 -19.317141 0.646 255 84 127
3.357637 -19.459269 0.628 255 84 127
3.472679 -19.26873 0.643 255 84 127
3.552259 -19.154396 0.652 255 84 127
3.50022 -19.234501 0.645 255 84 127
3.267557 -19.484077 0.633 255 84 127
3.463719 -19.270897 0.644 255 84 127
3.688311 -19.259632 0.624 255 84 127
3.500798 -19.158478 0.656 255 84 127
3.55934 -19.340942 0.625 255 84 127
3.608626 -19.211174 0.638 255 84 127
3.514434 -19.129513 0.659 255 84 127
3.424917 -19.256739 0.65 255 84 127
3.2857 -19.450672 0.636 255 84 127
3.465335 -19.234684 0.649 255 84 127
3.495222 -19.303783 0.636 255 84 127
3.603462 -19.243336 0.634 255 84 127
3.498476 -19.16964 0.655 255 84 127
3.653642 -19.290228 0.623 255 84 127
3.459968 -19.293676 0.641 255 84 127
3.500717 -19.345865 0.63 255 84 127
3.323461 -19.42502 0.636 255 84 127
3.507942 -19.159874 0.655 255 84 127
3.420314 -19.215111 0.656 255 84 127
3.547915 -19.255436 0.638 255 84 127
3.384814 -19.35527 0.64 255 84 127
3.407373 -19.38809 0.633 255 84 127
3.650846 -19.363998 0.619 255 84 127
3.59358 -19.42573 0.62 255 84 127
3.616899 -19.41741 0.62 255 84 127
3.602002 -19.435633 0.62 255 84 127
3.570108 -19.454174 0.621 255 84 127
3.605618 -19.43074 0.62 255 84 127
3.326511 -19.553396 0.627 255 84 127
3.586071 -19.354563 0.621 255 84 127
3.548219 -19.450876 0.621 255 84 127
3.484678 -19.573381 0.622 255 84 127
3.487979 -19.492012 0.623 255 84 127
3.455304 -19.613409 0.623 255 84 127
3.710905 -19.287979 0.618 255 84 127
3.535389 -19.491476 0.621 255 84 127
3.31276 -19.538534 0.628 255 84 127
3.65811 -19.349743 0.619 255 84 127
3.643502 -19.329954 0.62 255 84 127
3.293328 -19.506187 0.629 255 84 127
3.585532 -19.366634 0.621 255 84 127
3.620569 -19.346327 0.62 255 84 127
3.387083 -19.586504 0.625 255 84 127
3.608528 -19.400797 0.62 255 84 127
3.683313 -19.328915 0.619 255 84 127
3.413614 -19.567476 0.624 255 84 127
3.503533 -19.446066 0.623 255 84 127
3.540807 -19.425776 0.622 255 84 127
3.547066 -19.367237 0.622 255 84 127
3.610174 -19.419594 0.62 255 84 127
3.327525 -19.478718 0.628 255 84 127
3.499982 -19.501493 0.622 255 84 127
3.590738 -19.446726 0.62 255 84 127
3.614226 -19.416048 0.62 255 84 127
3.469157 -19.614857 0.622 255 84 127
3.396184 -19.506968 0.626 255 84 127
3.530764 -19.511566 0.621 255 84 127
3.342117 -19.500744 0.627 255 84 127
3.312374 -19.530481 0.628 255 84 127
3.554928 -19.450928 0.621 255 84 127
3.695134 -19.303513 0.619 255 84 127
3.358134 -19.570633 0.626 255 84 127
3.401025 -19.51729 0.625 255 84 127
3.540047 -19.466915 0.622 255 84 127
3.643435 -19.338898 0.62 255 84 127
3.420093 -19.479868 0.625 255 84 127
3.58815 -19.434185 0.62 255 84 127
3.459615 -19.51684 0.623 255 84 127
3.445817 -19.449205 0.625 255 84 127
3.400457 -19.474352 0.626 255 84 127
3.420169 -19.58765 0.624 255 84 127
3.509754 -19.451479 0.623 255 84 127
3.392581 -19.569105 0.625 255 84 127
3.677161 -19.314556 0.619 255 84 127
3.340768 -19.560661 0.627 255 84 127
3.422791 -19.59572 0.624 255 84 127
3.431455 -19.514837 0.624 255 84 127
3.513143 -19.535135 0.622 255 84 127
3.409465 -19.524958 0.625 255 84 127
3.312374 -19.530481 0.628 255 84 127
3.668786 -19.357428 0.619 255 84 127
3.514611 -19.459566 0.622 255 84 127
3.485404 -19.536715 0.623 255 84 127
3.3948 -19.571358 0.625 255 84 127
3.338952 -19.564226 0.627 255 84 127
3.595837 -19.364029 0.621 255 84 127
3.516996 -19.498941 0.622 255 84 127
3.414407 -19.521864 0.625 255 84 127
3.439016 -19.579296 0.623 255 84 127
3.509249 -19.459078 0.623 255 84 127
3.366107 -19.521946 0.626 255 84 127
3.714923 -19.288904 0.618 255 84 127
3.386027 -19.548929 0.625 255 84 127
3.598795 -19.38686 0.621 255 84 127
3.632607 -19.351339 0.62 255 84 127
3.477775 -19.481201 0.623 255 84 127
3.456021 -19.460016 0.624 255 84 127
3.504407 -19.448755 0.623 255 84 127
3.469522 -19.448936 0.624 255 84 127
3.701944 -19.290148 0.618 255 84 127
3.524727 -19.541039 0.621 255 84 127
3.479205 -19.469584 0.623 255 84 127
3.357697 -19.569286 0.626 255 84 127
3.36076 -19.51922 0.626 255 84 127
3.472849 -19.482058 0.623 255 84 127
3.345392 -19.540571 0.627 255 84 127
3.603517 -19.412836 0.62 255 84 127
3.363149 -19.499113 0.627 255 84 127
3.515592 -19.389359 0.623 255 84 127
3.655573 -19.330494 0.619 255 84 127
3.499413 -19.458555 0.623 255 84 127
3.426228 -19.496462 0.625 255 84 127
3.444565 -19.555187 0.624 255 84 127
3.472624 -19.570606 0.623 255 84 127
3.560273 -19.453651 0.621 255 84 127
3.639752 -19.352734 0.62 255 84 127
3.416579 -19.471344 0.625 255 84 127
3.403516 -19.483767 0.626 255 84 127
3.343496 -19.495834 0.627 255 84 127
3.538054 -19.376112 0.623 255 84 127
3.471393 -19.614872 0.622 255 84 127
3.460366 -19.594664 0.623 255 84 127
3.627244 -19.350851 0.62 255 84 127
3.480732 -19.504032 0.623 255 84 127
3.504459 -19.442047 0.623 255 84 127
3.365249 -19.517019 0.626 255 84 127
3.558747 -19.419205 0.621 255 84 127
3.435579 -19.442865 0.625 255 84 127
3.377451 -19.559151 0.626 255 84 127
3.50456 -19.428631 0.623 255 84 127
3.516546 -19.44035 0.623 255 84 127
3.446505 -19.47649 0.624 255 84 127
3.417165 -19.512045 0.625 255 84 127
3.468864 -19.47666 0.624 255 84 127
3.390732 -19.577141 0.625 255 84 127
3.620183 -19.338274 0.62 255 84 127
3.486163 -19.495575 0.623 255 84 127
3.512881 -19.45195 0.623 255 84 127
3.617964 -19.336021 0.621 255 84 127
3.620535 -19.3508 0.62 255 84 127
3.400677 -19.445284 0.626 255 84 127
3.447341 -19.543133 0.624 255 84 127
3.479298 -19.57513 0.622 255 84 127
3.3442 -19.520884 0.627 255 84 127
3.589143 -19.421223 0.621 255 84 127
3.417563 -19.577345 0.624 255 84 127
3.243546 -19.524591 0.63 255 84 127
3.58963 -19.415859 0.621 255 84 127
3.48243 -19.516119 0.623 255 84 127
3.412057 -19.478018 0.625 255 84 127
3.374965 -19.533192 0.626 255 84 127
3.400198 -19.567373 0.625 255 84 127
3.392336 -19.483683 0.626 255 84 127
3.700582 -19.29282 0.618 255 84 127
3.358672 -19.558561 0.626 255 84 127
3.300069 -19.501766 0.629 255 84 127
3.672604 -19.325703 0.619 255 84 127
3.35802 -19.526802 0.626 255 84 127
3.462208 -19.469902 0.624 255 84 127
3.679363 -19.319046 0.619 255 84 127
3.472633 -19.451645 0.624 255 84 127
3.539225 -19.457516 0.622 255 84 127
3.610446 -19.383818 0.62 255 84 127
3.299145 -19.505783 0.628 255 84 127
3.370494 -19.533159 0.626 255 84 127
3.331153 -19.531071 0.627 255 84 127
3.274061 -19.51096 0.629 255 84 127
3.576766 -19.460932 0.62 255 84 127
3.547147 -19.415539 0.622 255 84 127
3.428528 -19.547016 0.624 255 84 127
3.503834 -19.465298 0.623 255 84 127
3.569273 -19.387531 0.621 255 84 127
3.603284 -19.384657 0.62 255 84 127
3.474304 -19.58493 0.622 255 84 127
3.418204 -19.551857 0.624 255 84 127
3.599992 -19.347067 0.621 255 84 127
3.425834 -19.607372 0.624 255 84 127
3.54645 -19.507214 0.621 255 84 127
3.413249 -19.497705 0.625 255 84 127
3.528749 -19.482483 0.622 255 84 127
3.501544 -19.531469 0.622 255 84 127
3.320983 -19.515787 0.628 255 84 127
3.495862 -19.513985 0.622 255 84 127
3.545581 -19.445042 0.622 255 84 127
3.359364 -19.526365 0.626 255 84 127
3.423907 -19.507626 0.625 255 84 127
3.666435 -19.313581 0.619 255 84 127
3.337306 -19.545429 0.627 255 84 127
3.58714 -19.449383 0.62 255 84 127
3.400486 -19.529362 0.625 255 84 127
3.588154 -19.374704 0.621 255 84 127
3.491378 -19.456707 0.623 255 84 127
3.473235 -19.49011 0.623 255 84 127
3.583194 -19.380033 0.621 255 84 127
3.671526 -19.349846 0.619 255 84 127
3.511031 -19.459986 0.623 255 84 127
3.588307 -19.35458 0.621 255 84 127
3.469972 -19.507528 0.623 255 84 127
3.471431 -19.550919 0.623 255 84 127
3.402812 -19.458717 0.626 255 84 127
3.486409 -19.580997 0.622 255 84 127
3.555352 -19.395027 0.622 255 84 127
3.562009 -19.401787 0.622 255 84 127
3.504908 -19.500637 0.622 255 84 127
3.437395 -19.439302 0.625 255 84 127
3.459259 -19.563797 0.623 255 84 127
3.476069 -19.588074 0.622 255 84 127
3.570143 -19.449701 0.621 255 84 127
3.286013 -19.527151 0.629 255 84 127
3.605265 -19.418215 0.62 255 84 127
3.455389 -19.602228 0.623 255 84 127
3.39682 -19.540962 0.625 255 84 127
3.431812 -19.467882 0.625 255 84 127
3.482213 -19.485706 0.623 255 84 127
3.527293 -19.379608 0.623 255 84 127
3.29077 -19.548655 0.628 255 84 127
3.663308 -19.31311 0.619 255 84 127
3.457184 -19.424694 0.625 255 84 127
3.579121 -19.445297 0.621 255 84 127
3.509346 -19.505144 0.622 255 84 127
3.440246 -19.53503 0.624 255 84 127
3.499069 -19.562757 0.622 255 84 127
3.495493 -19.503696 0.623 255 84 127
3.679716 -19.331572 0.619 255 84 127
3.433136 -19.529161 0.624 255 84 127
3.39259 -19.450142 0.626 255 84 127
3.566846 -19.47159 0.621 255 84 127
3.290871 -19.535236 0.628 255 84 127
3.368423 -19.570263 0.626 255 84 127
3.443055 -19.518503 0.624 255 84 127
3.544745 -19.378399 0.622 255 84 127
3.477673 -19.494617 0.623 255 84 127
3.395713 -19.510094 0.625 255 84 127
3.327055 -19.481844 0.628 255 84 127
3.501288 -19.56501 0.622 255 84 127
3.337913 -19.524414 0.627 255 84 127
3.538474 -19.379694 0.623 255 84 127
3.374392 -19.549736 0.626 255 84 127
3.333355 -19.535561 0.627 255 84 127
3.449131 -19.425079 0.625 255 84 127
3.338684 -19.54052 0.627 255 84 127
3.388704 -19.49081 0.626 255 84 127
3.421866 -19.599737 0.624 255 84 127
3.482752 -19.473637 0.623 255 84 127
3.370409 -19.544338 0.626 255 84 127
3.488971 -19.47905 0.623 255 84 127
3.396286 -19.493551 0.626 255 84 127
3.545568 -19.387798 0.622 255 84 127
3.505328 -19.504217 0.622 255 84 127
3.557253 -19.380283 0.622 255 84 127
3.456803 -19.592848 0.623 255 84 127
3.407436 -19.438627 0.626 255 84 127
3.405498 -19.517324 0.625 255 84 127
3.392352 -19.481445 0.626 255 84 127
3.684625 -19.332951 0.619 255 84 127
3.563787 -19.462175 0.621 255 84 127
3.349729 -19.558493 0.626 255 84 127
3.632976 -19.361628 0.62 255 84 127
3.434426 -19.594913 0.623 255 84 127
3.595719 -19.379681 0.621 255 84 127
3.381168 -19.540842 0.626 255 84 127
3.416075 -19.478943 0.625 255 84 127
3.373857 -19.502325 0.626 255 84 127
3.312273 -19.543898 0.628 255 84 127
3.624163 -19.403152 0.62 255 84 127
3.691116 -19.302588 0.619 255 84 127
3.443738 -19.60527 0.623 255 84 127
3.330029 -19.502439 0.628 255 84 127
3.434629 -19.568083 0.624 255 84 127
3.562692 -19.488554 0.621 255 84 127
3.595549 -19.40204 0.621 255 84 127
3.393494 -19.507841 0.626 255 84 127
3.53477 -19.455246 0.622 255 84 127
3.493003 -19.53722 0.622 255 84 127
3.345464 -19.472147 0.627 255 84 127
3.467562 -19.589352 0.622 255 84 127
3.605287 -19.356497 0.621 255 84 127
3.467681 -19.5737 0.623 255 84 127
3.507644 -19.552536 0.622 255 84 127
3.421319 -19.495083 0.625 255 84 127
3.446666 -19.573093 0.623 255 84 127
3.316681 -19.493395 0.628 255 84 127
3.394202 -19.473412 0.626 255 84 127
3.508782 -19.402723 0.623 255 84 127
3.473782 -19.594767 0.622 255 84 127
3.500627 -19.416527 0.623 255 84 127
3.633243 -19.385332 0.62 255 84 127
3.508862 -19.451025 0.623 255 84 127
3.609356 -19.350716 0.621 255 84 127
3.63326 -19.383097 0.62 255 84 127
3.328934 -19.528818 0.627 255 84 127
3.409227 -19.556261 0.625 255 84 127
3.555704 -19.407553 0.622 255 84 127
3.668366 -19.353848 0.619 255 84 127
3.584955 -19.442657 0.62 255 84 127
3.373739 -19.517979 0.626 255 84 127
3.526687 -19.400623 0.623 255 84 127
3.476052 -19.590311 0.622 255 84 127
3.59723 -19.416365 0.62 255 84 127
3.42596 -19.472757 0.625 255 84 127
3.365873 -19.493767 0.627 255 84 127
3.57324 -19.395164 0.621 255 84 127
3.425052 -19.474539 0.625 255 84 127
3.562077 -19.392841 0.622 255 84 127
3.454163 -19.587013 0.623 255 84 127
3.444752 -19.530592 0.624 255 84 127
3.442725 -19.444262 0.625 255 84 127
3.582549 -19.465002 0.62 255 84 127
3.504874 -19.50511 0.622 255 84 127
3.415769 -19.51919 0.625 255 84 127
3.451507 -19.583416 0.623 255 84 127
3.277001 -19.536026 0.629 255 84 127
3.473218 -19.492348 0.623 255 84 127
3.388199 -19.498409 0.626 255 84 127
3.535847 -19.431105 0.622 255 84 127
3.46104 -19.564705 0.623 255 84 127
3.505451 -19.429085 0.623 255 84 127
3.502656 -19.502855 0.622 255 84 127
3.521659 -19.414896 0.623 255 84 127
3.578926 -19.353168 0.622 255 84 127
3.688006 -19.299881 0.619 255 84 127
3.572094 -19.428249 0.621 255 84 127
3.479142 -19.419046 0.624 255 84 127
3.360225 -19.471811 0.627 255 84 127
3.441918 -19.432627 0.625 255 84 127
3.374796 -19.555553 0.626 255 84 127
3.523356 -19.426985 0.622 255 84 127
3.59215 -19.437346 0.62 255 84 127
3.470553 -19.607712 0.622 255 84 127
3.502774 -19.487204 0.622 255 84 127
3.506109 -19.401361 0.623 255 84 127
3.406728 -19.473059 0.626 255 84 127
3.438537 -19.465696 0.625 255 84 127
3.598829 -19.382387 0.621 255 84 127
3.495994 -19.555578 0.622 255 84 127
3.414958 -19.567038 0.624 255 84 127
3.290133 -19.51466 0.629 255 84 127
3.351044 -19.503046 0.627 255 84 127
3.62536 -19.363359 0.62 255 84 127
3.471534 -19.537504 0.623 255 84 127
3.341642 -19.563351 0.627 255 84 127
3.402854 -19.570971 0.625 255 84 127
3.539314 -19.386856 0.622 255 84 127
3.371486 -19.520197 0.626 255 84 127
3.420415 -19.437384 0.625 255 84 127
3.551529 -19.486233 0.621 255 84 127
3.372648 -19.484875 0.626 255 84 127
3.627006 -19.382154 0.62 255 84 127
3.423687 -19.536694 0.624 255 84 127
3.463629 -19.577248 0.623 255 84 127
3.306841 -19.552353 0.628 255 84 127
3.616195 -19.392359 0.62 255 84 127
3.470286 -19.584005 0.622 255 84 127
3.639399 -19.34021 0.62 255 84 127
3.414594 -19.497269 0.625 255 84 127
3.31747 -19.507265 0.628 255 84 127
3.413486 -19.466402 0.625 255 84 127
3.580432 -19.449333 0.621 255 84 127
3.681934 -19.333824 0.619 255 84 127
3.424904 -19.435183 0.625 255 84 127
3.522461 -19.486012 0.622 255 84 127
3.345829 -19.541916 0.627 255 84 127
3.525218 -19.476194 0.622 255 84 127
3.329185 -19.554758 0.627 255 84 127
3.463866 -19.545942 0.623 255 84 127
3.428485 -19.434763 0.625 255 84 127
3.585931 -19.431932 0.621 255 84 127
3.435418 -19.581951 0.624 255 84 127
3.322226 -19.528769 0.628 255 84 127
3.457604 -19.428274 0.624 255 84 127
3.452823 -19.527969 0.624 255 84 127
3.51591 -19.406355 0.623 255 84 127
3.399879 -19.550377 0.625 255 84 127
3.43958 -19.446028 0.625 255 84 127
3.482293 -19.534008 0.623 255 84 127
3.444918 -19.567713 0.623 255 84 127
3.44981 -19.571327 0.623 255 84 127
3.618919 -19.387012 0.62 255 84 127
3.685214 -19.314171 0.619 255 84 127
3.484589 -19.408356 0.624 255 84 127
3.533726 -19.474916 0.622 255 84 127
3.637329 -19.377314 0.62 255 84 127
3.381219 -19.534134 0.626 255 84 127
3.66038 -19.345287 0.619 255 84 127
3.471839 -19.497255 0.623 255 84 127
3.623747 -19.34009 0.62 255 84 127
3.463366 -19.494061 0.624 255 84 127
3.31957 -19.525169 0.628 255 84 127
3.585307 -19.455183 0.62 255 84 127
3.459251 -19.447071 0.624 255 84 127
3.598659 -19.404749 0.62 255 84 127
3.323469 -19.541746 0.627 255 84 127
3.446211 -19.573984 0.623 255 84 127
3.380952 -19.510429 0.626 255 84 127
3.628503 -19.361593 0.62 255 84 127
3.62393 -19.374975 0.62 255 84 127
3.578722 -19.379999 0.621 255 84 127
3.557733 -19.493883 0.621 255 84 127
3.415069 -19.43466 0.626 255 84 127
3.496002 -19.436617 0.623 255 84 127
3.569973 -19.472061 0.621 255 84 127
3.353343 -19.5536 0.626 255 84 127
3.419689 -19.474051 0.625 255 84 127
3.658365 -19.316204 0.62 255 84 127
3.34933 -19.493195 0.627 255 84 127
3.356136 -19.53931 0.626 255 84 127
3.415637 -19.477598 0.625 255 84 127
3.433772 -19.563156 0.624 255 84 127
3.393494 -19.507841 0.626 255 84 127
3.481225 -19.439188 0.624 255 84 127
3.469993 -19.44581 0.624 255 84 127
3.434998 -19.578371 0.624 255 84 127
3.51423 -19.392033 0.623 255 84 127
3.610985 -19.371748 0.62 255 84 127
3.492413 -19.555998 0.622 255 84 127
3.458639 -19.527567 0.623 255 84 127
3.307346 -19.544754 0.628 255 84 127
3.344081 -19.536535 0.627 255 84 127
3.303312 -19.546066 0.628 255 84 127
3.329762 -19.478735 0.628 255 84 127
3.482739 -19.416389 0.624 255 84 127
3.291024 -19.515114 0.629 255 84 127
3.665981 -19.314472 0.619 255 84 127
3.269084 -19.518524 0.629 255 84 127
3.684794 -19.310591 0.619 255 84 127
3.419944 -19.440512 0.625 255 84 127
3.366929 -19.531342 0.626 255 84 127
3.387274 -19.502428 0.626 255 84 127
3.472802 -19.429285 0.624 255 84 127
3.401767 -19.478388 0.626 255 84 127
3.39517 -19.581646 0.625 255 84 127
3.31315 -19.487106 0.628 255 84 127
3.402502 -19.558447 0.625 255 84 127
3.50173 -19.506874 0.622 255 84 127
3.683398 -19.317736 0.619 255 84 127
3.401194 -19.49493 0.625 255 84 127
3.3289 -19.533289 0.627 255 84 127
3.565921 -19.475609 0.621 255 84 127
3.480427 -19.544279 0.623 255 84 127
3.527964 -19.409132 0.622 255 84 127
3.337224 -19.497128 0.627 255 84 127
3.488018 -19.428059 0.624 255 84 127
3.59456 -19.355522 0.621 255 84 127
3.38531 -19.466635 0.626 255 84 127
3.319315 -19.55871 0.627 255 84 127
3.476434 -19.422157 0.624 255 84 127
3.537328 -19.412779 0.622 255 84 127
3.61838 -19.399084 0.62 255 84 127
3.460166 -19.562016 0.623 255 84 127
3.477146 -19.563932 0.622 255 84 127
3.490414 -19.524677 0.622 255 84 127
3.549785 -19.421371 0.622 255 84 127
3.541177 -19.436066 0.622 255 84 127
3.457778 -19.582123 0.623 255 84 127
3.624702 -19.391081 0.62 255 84 127
3.398148 -19.542761 0.625 255 84 127
3.491735 -19.40975 0.624 255 84 127
3.449733 -19.463545 0.624 255 84 127
3.438261 -19.560955 0.624 255 84 127
3.521188 -19.418024 0.623 255 84 127
3.390583 -19.537785 0.625 255 84 127
3.297681 -19.521873 0.628 255 84 127
3.460863 -19.470339 0.624 255 84 127
3.565017 -19.41791 0.621 255 84 127
3.452954 -19.569563 0.623 255 84 127
3.479608 -19.475401 0.623 255 84 127
3.279759 -19.526209 0.629 255 84 127
3.353747 -19.559418 0.626 255 84 127
3.426903 -19.466503 0.625 255 84 127
3.394856 -19.505169 0.626 255 84 127
3.515537 -19.455549 0.622 255 84 127
3.50176 -19.561884 0.622 255 84 127
3.436856 -19.451372 0.625 255 84 127
3.604642 -19.441465 0.62 255 84 127
3.41473 -19.47938 0.625 255 84 127
3.40072 -19.557539 0.625 255 84 127
3.348724 -19.51421 0.627 255 84 127
3.529389 -19.456995 0.622 255 84 127
3.434603 -19.453592 0.625 255 84 127
3.518532 -19.414427 0.623 255 84 127
3.58753 -19.397955 0.621 255 84 127
3.293243 -19.517366 0.629 255 84 127
3.352457 -19.493666 0.627 255 84 127
3.407937 -19.490509 0.625 255 84 127
3.466166 -19.596497 0.622 255 84 127
3.366514 -19.468281 0.627 255 84 127
3.368491 -19.561319 0.626 255 84 127
3.389641 -19.544037 0.625 255 84 127
3.394885 -19.560177 0.625 255 84 127
3.564478 -19.429981 0.621 255 84 127
3.432685 -19.470572 0.625 255 84 127
3.351447 -19.508863 0.627 255 84 127
3.539242 -19.45528 0.622 255 84 127
3.472917 -19.473114 0.624 255 84 127
3.496308 -19.396368 0.624 255 84 127
3.462195 -19.412657 0.624 255 84 127
3.472255 -19.560318 0.623 255 84 127
3.496804 -19.50773 0.622 255 84 127
3.303498 -19.521469 0.628 255 84 127
3.548589 -19.461166 0.621 255 84 127
3.586571 -19.406445 0.621 255 84 127
3.605283 -19.415979 0.62 255 84 127
3.435193 -19.434813 0.625 255 84 127
3.285729 -19.505682 0.629 255 84 127
3.469798 -19.589369 0.622 255 84 127
3.511591 -19.386198 0.623 255 84 127
3.517879 -19.382668 0.623 255 84 127
3.410686 -19.599653 0.624 255 84 127
3.434973 -19.463881 0.625 255 84 127
3.418952 -19.453474 0.625 255 84 127
3.436292 -19.584642 0.623 255 84 127
3.471253 -19.456554 0.624 255 84 127
3.547316 -19.393177 0.622 255 84 127
3.571021 -19.39291 0.621 255 84 127
3.536454 -19.410089 0.622 255 84 127
3.516186 -19.546787 0.621 255 84 127
3.342791 -19.470785 0.628 255 84 127
3.56007 -19.480484 0.621 255 84 127
3.404352 -19.550409 0.625 255 84 127
3.345935 -19.469019 0.627 255 84 127
3.336032 -19.477442 0.628 255 84 127
3.581072 -19.423845 0.621 255 84 127
3.511781 -19.537809 0.622 255 84 127
3.359059 -19.566614 0.626 255 84 127
3.68308 -19.300737 0.619 255 84 127
3.638084 -19.395655 0.619 255 84 127
3.49526 -19.475519 0.623 255 84 127
3.571072 -19.386202 0.621 255 84 127
3.428651 -19.471884 0.625 255 84 127
3.435685 -19.605658 0.623 255 84 127
3.358007 -19.469559 0.627 255 84 127
3.291359 -19.529875 0.628 255 84 127
3.482536 -19.443222 0.624 255 84 127
3.570813 -19.479223 0.62 255 84 127
3.536925 -19.406963 0.622 255 84 127
3.630269 -19.364738 0.62 255 84 127
3.423368 -19.519697 0.625 255 84 127
3.459708 -19.622387 0.622 255 84 127
3.425019 -19.479012 0.625 255 84 127
3.59997 -19.408783 0.62 255 84 127
3.385034 -19.561892 0.625 255 84 127
3.517467 -19.495813 0.622 255 84 127
3.446042 -19.596344 0.623 255 84 127
3.409787 -19.482473 0.625 255 84 127
3.570618 -19.387093 0.621 255 84 127
3.516381 -19.403229 0.623 255 84 127
3.402405 -19.512381 0.625 255 84 127
3.539785 -19.383728 0.622 255 84 127
3.426517 -19.45845 0.625 255 84 127
3.649468 -19.368908 0.619 255 84 127
3.341125 -19.513704 0.627 255 84 127
3.375407 -19.475056 0.626 255 84 127
3.277069 -19.527082 0.629 255 84 127
3.481788 -19.541607 0.623 255 84 127
3.536738 -19.431559 0.622 255 84 127
3.413529 -19.578655 0.624 255 84 127
3.444014 -19.510014 0.624 255 84 127
3.39635 -19.544088 0.625 255 84 127
3.499782 -19.468845 0.623 255 84 127
3.608227 -19.381565 0.151 255 84 127
3.594692 -19.397116 0.058 255 84 127
3.656023 -19.389084 0.084 255 84 127
3.616263 -19.383415 0.137 255 84 127
3.608142 -19.392744 0.077 255 84 127
3.627375 -19.392445 0.077 255 84 127
3.605889 -19.394964 0.068 255 84 127
3.612648 -19.388308 0.107 255 84 127
3.607722 -19.389164 0.103 255 84 127
3.600089 -19.393131 0.079 255 84 127
3.608142 -19.392744 0.08 255 84 127
3.627426 -19.385736 0.117 255 84 127
3.65873 -19.385973 0.103 255 84 127
3.594238 -19.398006 0.051 255 84 127
3.600559 -19.390003 0.1 255 84 127
3.605083 -19.383329 0.141 255 84 127
3.621626 -19.383904 0.133 255 84 127
3.617574 -19.387449 0.108 255 84 127
3.622466 -19.391066 0.085 255 84 127
3.608108 -19.397217 0.055 255 84 127
3.616179 -19.394594 0.062 255 84 127
3.60636 -19.391836 0.088 255 84 127
3.594811 -19.381462 0.159 255 84 127
3.605973 -19.383783 0.137 255 84 127
3.597501 -19.380589 0.162 255 84 127
3.610798 -19.396343 0.056 255 84 127
3.616229 -19.387888 0.107 255 84 127
3.596996 -19.388187 0.115 255 84 127
3.611269 -19.393217 0.075 255 84 127
3.595196 -19.389515 0.103 255 84 127
3.616666 -19.389231 0.1 255 84 127
3.604595 -19.388693 0.104 255 84 127
3.606008 -19.379313 0.164 255 84 127
3.627375 -19.392445 0.073 255 84 127
3.599181 -19.394913 0.07 255 84 127
3.613539 -19.388762 0.105 255 84 127
3.630048 -19.393805 0.066 255 84 127
3.650677 -19.38636 0.1 255 84 127
3.619323 -19.39283 0.073 255 84 127
3.649298 -19.39127 0.07 255 84 127
3.626518 -19.387518 0.107 255 84 127
3.619827 -19.385231 0.121 255 84 127
3.648878 -19.387688 0.096 255 84 127
3.668111 -19.387386 0.091 255 84 127
3.602813 -19.387785 0.114 255 84 127
3.629662 -19.385752 0.113 255 84 127
3.630099 -19.387098 0.106 255 84 127
3.606326 -19.396309 0.06 255 84 127
3.646659 -19.385435 0.109 255 84 127
3.619844 -19.382994 0.139 255 84 127
3.625139 -19.392427 0.075 255 84 127
3.636824 -19.384912 0.119 255 84 127
3.602864 -19.381077 0.154 255 84 127
3.617977 -19.393267 0.071 255 84 127
3.618868 -19.393721 0.067 255 84 127
3.596088 -19.389971 0.103 255 84 127
3.640859 -19.383602 0.126 255 84 127
3.63452 -19.393839 0.063 255 84 127
3.594306 -19.389063 0.107 255 84 127
3.714495 -19.404285 0.064 255 84 127
3.689898 -19.404099 0.052 255 84 127
3.708206 -19.407816 0.052 255 84 127
3.747512 -19.414375 0.051 255 84 127
3.669808 -19.399475 0.057 255 84 127
3.706896 -19.40378 0.061 255 84 127
3.706912 -19.401545 0.069 255 84 127
3.698002 -19.397005 0.077 255 84 127
3.636739 -19.396091 0.051 255 84 127
3.71673 -19.404303 0.067 255 84 127
3.716293 -19.402958 0.07 255 84 127
3.697531 -19.400133 0.069 255 84 127
3.702877 -19.402857 0.062 255 84 127
3.702407 -19.405983 0.055 255 84 127
3.70513 -19.400637 0.069 255 84 127
3.66764 -19.390514 0.082 255 84 127
3.689007 -19.403645 0.055 255 84 127
3.678752 -19.399542 0.063 255 84 127
3.697078 -19.401022 0.066 255 84 127
3.676131 -19.391472 0.082 255 84 127
3.705585 -19.399746 0.073 255 84 127
3.644338 -19.396599 0.052 255 84 127
3.709568 -19.405142 0.06 255 84 127
3.641212 -19.396126 0.053 255 84 127
3.66853 -19.390968 0.08 255 84 127
3.686368 -19.39781 0.07 255 84 127
3.654627 -19.396229 0.058 255 84 127
3.657351 -19.390882 0.074 255 84 127
3.710493 -19.401125 0.072 255 84 127
3.672112 -19.390547 0.082 255 84 127
3.676045 -19.402653 0.052 255 84 127
3.713149 -19.404722 0.062 255 84 127
3.677895 -19.394615 0.075 255 84 127
3.268189 -19.341864 0.56 255 84 127
3.255574 -19.412876 0.586 255 84 127
3.268727 -19.329792 0.56 255 84 127
3.255167 -19.466541 0.579 255 84 127
3.25759 -19.441961 0.576 255 84 127
3.253487 -19.452217 0.587 255 84 127
3.239209 -19.50667 0.623 255 84 127
3.267684 -19.349463 0.56 255 84 127
3.249991 -19.441458 0.599 255 84 127
3.256801 -19.428091 0.581 255 84 127
3.259813 -19.384733 0.581 255 84 127
3.249033 -19.449947 0.601 255 84 127
3.247636 -19.457092 0.606 255 84 127
3.252965 -19.462053 0.587 255 84 127
3.256665 -19.44598 0.579 255 84 127
3.258651 -19.420055 0.574 255 84 127
3.24977 -19.470526 0.595 255 84 127
3.248256 -19.493322 0.595 255 84 127
3.261613 -19.383406 0.573 255 84 127
3.252057 -19.463835 0.59 255 84 127
3.256178 -19.451344 0.577 255 84 127
3.255218 -19.459833 0.578 255 84 127
3.251302 -19.445492 0.596 255 84 127
3.256228 -19.444635 0.58 255 84 127
3.251739 -19.446836 0.594 255 84 127
3.262015 -19.389223 0.573 255 84 127
3.245986 -19.497778 0.602 255 84 127
3.241531 -19.495508 0.619 255 84 127
3.243295 -19.498652 0.611 255 84 127
3.25734 -19.416021 0.579 255 84 127
3.257929 -19.397242 0.582 255 84 127
3.248107 -19.453964 0.605 255 84 127
3.241009 -19.505342 0.619 255 84 127
3.248272 -19.491087 0.595 255 84 127
3.243716 -19.502234 0.608 255 84 127
3.247365 -19.492868 0.598 255 84 127
3.256381 -19.424511 0.581 255 84 127
3.25877 -19.404404 0.578 255 84 127
3.260671 -19.38966 0.576 255 84 127
3.251921 -19.481722 0.586 255 84 127
3.254412 -19.448198 0.583 255 84 127
3.245599 -19.489725 0.607 255 84 127
3.265045 -19.34363 0.568 255 84 127
3.257323 -19.418257 0.58 255 84 127
3.598999 -19.360027 0.127 255 84 127
3.599436 -19.361372 0.105 255 84 127
3.598981 -19.362265 0.106 255 84 127
3.602716 -19.341719 0.137 255 84 127
3.604514 -19.340391 0.088 255 84 127
3.599436 -19.361372 0.105 255 84 127
3.616539 -19.288157 0.072 255 84 127
3.606364 -19.332355 0.102 255 84 127
3.596207 -19.374317 0.112 255 84 127
3.606836 -19.329229 0.096 255 84 127
3.599923 -19.35601 0.11 255 84 127
3.598931 -19.368971 0.059 255 84 127
3.619331 -19.273867 0.059 255 84 127
3.610989 -19.312265 0.056 255 84 127
3.597081 -19.377008 0.08 255 84 127
3.62071 -19.268959 0.058 255 84 127
3.60502 -19.332792 0.122 255 84 127
3.596644 -19.375662 0.113 255 84 127
3.602698 -19.343956 0.119 255 84 127
3.60502 -19.332792 0.127 255 84 127
3.611931 -19.306011 0.104 255 84 127
3.594323 -19.386826 0.074 255 84 127
3.604027 -19.345755 0.057 255 84 127
3.605928 -19.331011 0.092 255 84 127
3.605894 -19.335482 0.054 255 84 127
3.596644 -19.375662 0.088 255 84 127
3.600849 -19.351992 0.131 255 84 127
3.595736 -19.377445 0.108 255 84 127
3.601723 -19.354681 0.089 255 84 127
3.604043 -19.343519 0.091 255 84 127
3.598511 -19.365391 0.098 255 84 127
3.602211 -19.349319 0.087 255 84 127
3.599873 -19.362719 0.07 255 84 127
3.62071 -19.268959 0.059 255 84 127
3.593381 -19.39308 0.06 255 84 127
3.600361 -19.357355 0.122 255 84 127
3.607324 -19.323866 0.122 255 84 127
3.593381 -19.39308 0.072 255 84 127
3.60776 -19.325211 0.099 255 84 127
3.614235 -19.297085 0.089 255 84 127
3.593937 -19.378773 0.159 255 84 127
3.606836 -19.329229 0.101 255 84 127
3.617481 -19.281904 0.058 255 84 127
3.604514 -19.340391 0.086 255 84 127
3.616556 -19.285921 0.057 255 84 127
3.616556 -19.285921 0.079 255 84 127
3.599469 -19.356901 0.128 255 84 127
3.609156 -19.318066 0.092 255 84 127
3.60406 -19.341282 0.112 255 84 127
3.595231 -19.385044 0.084 255 84 127
3.606347 -19.334593 0.072 255 84 127
3.593886 -19.385481 0.115 255 84 127
3.597115 -19.372536 0.101 255 84 127
3.616085 -19.289049 0.063 255 84 127
3.598477 -19.369864 0.073 255 84 127
3.594357 -19.382353 0.118 255 84 127
3.623484 -19.256905 0.051 255 84 127
3.614689 -19.296194 0.082 255 84 127
3.608719 -19.316721 0.114 255 84 127
3.603136 -19.345301 0.101 255 84 127
3.59392 -19.38101 0.143 255 84 127
3.623014 -19.260031 0.056 255 84 127
3.610552 -19.310921 0.107 255 84 127
3.611006 -19.31003 0.085 255 84 127
3.593937 -19.378773 0.165 255 84 127
3.60591 -19.333246 0.074 255 84 127
3.594811 -19.381462 0.101 255 84 127
3.614252 -19.294847 0.077 255 84 127
3.611897 -19.310484 0.055 255 84 127
3.594777 -19.385935 0.092 255 84 127
3.601774 -19.347975 0.124 255 84 127
3.597603 -19.367172 0.131 255 84 127
3.601251 -19.357809 0.078 255 84 127
3.610047 -19.31852 0.065 255 84 127
3.599873 -19.362719 0.073 255 84 127
3.603119 -19.347536 0.066 255 84 127
3.59476 -19.38817 0.065 255 84 127
3.605894 -19.335482 0.084 255 84 127
3.59577 -19.372972 0.134 255 84 127
3.607744 -19.327448 0.085 255 84 127
3.604481 -19.344864 0.066 255 84 127
3.606364 -19.332355 0.101 255 84 127
3.594289 -19.391298 0.066 255 84 127
3.600327 -19.361826 0.07 255 84 127
3.602211 -19.349319 0.107 255 84 127
3.598981 -19.362265 0.106 255 84 127
3.606398 -19.327883 0.123 255 84 127
3.607306 -19.326101 0.086 255 84 127
3.614235 -19.297085 0.088 255 84 127
3.620239 -19.272085 0.057 255 84 127
3.592995 -19.385027 0.135 255 84 127
3.60179 -19.345737 0.137 255 84 127
3.610047 -19.31852 0.08 255 84 127
3.608198 -19.326555 0.059 255 84 127
3.609139 -19.320303 0.079 255 84 127
3.597619 -19.364937 0.138 255 84 127
3.621652 -19.262705 0.065 255 84 127
3.611443 -19.311375 0.052 255 84 127
3.602159 -19.356028 0.054 255 84 127
3.613764 -19.300211 0.076 255 84 127
3.60401 -19.34799 0.057 255 84 127
3.601251 -19.357809 0.071 255 84 127
3.603152 -19.343065 0.101 255 84 127
3.609627 -19.314939 0.087 255 84 127
3.598073 -19.364046 0.151 255 84 127
3.597081 -19.377008 0.062 255 84 127
3.601285 -19.353336 0.103 255 84 127
3.620239 -19.272085 0.068 255 84 127
3.599436 -19.361372 0.112 255 84 127
3.599419 -19.363609 0.1 255 84 127
3.735819 -19.540852 0.51 255 84 127
3.755086 -19.536077 0.561 255 84 127
3.762719 -19.53211 0.589 255 84 127
3.759121 -19.534767 0.574 255 84 127
3.75285 -19.536062 0.554 255 84 127
3.763207 -19.526749 0.611 255 84 127
3.743015 -19.53554 0.542 255 84 127
3.769847 -19.535744 0.583 255 84 127
3.76319 -19.528984 0.601 255 84 127
3.735836 -19.538616 0.519 255 84 127
3.748361 -19.538263 0.539 255 84 127
3.764098 -19.527203 0.611 255 84 127
3.751101 -19.530682 0.573 255 84 127
3.76361 -19.532564 0.588 255 84 127
3.765897 -19.525873 0.618 255 84 127
3.743889 -19.538229 0.532 255 84 127
3.763575 -19.537037 0.569 255 84 127
3.729985 -19.543491 0.489 255 84 127
3.764081 -19.529438 0.599 255 84 127
3.771192 -19.535307 0.589 255 84 127
3.734775 -19.560522 0.486 255 84 127
3.745183 -19.5445 0.51 255 84 127
3.763911 -19.551798 0.535 255 84 127
3.746426 -19.55748 0.506 255 84 127
3.740677 -19.548939 0.501 255 84 127
3.738912 -19.545795 0.5 255 84 127
3.742897 -19.551191 0.503 255 84 127
3.750932 -19.553041 0.514 255 84 127
3.728152 -19.54929 0.481 255 84 127
3.726705 -19.563145 0.472 255 84 127
3.748713 -19.550789 0.513 255 84 127
3.490775 -19.41824 0.211 255 84 127
3.520161 -19.435457 0.179 255 84 127
3.545377 -19.471874 0.059 255 84 127
3.555314 -19.458981 0.128 255 84 127
3.435193 -19.434813 0.066 255 84 127
3.477626 -19.441843 0.093 255 84 127
3.534685 -19.466427 0.068 255 84 127
3.486939 -19.4522 0.065 255 84 127
3.416466 -19.427515 0.069 255 84 127
3.449602 -19.421953 0.141 255 84 127
3.513941 -19.430044 0.194 255 84 127
3.467911 -19.425671 0.148 255 84 127
3.479073 -19.42799 0.156 255 84 127
3.447769 -19.427753 0.115 255 84 127
3.549968 -19.456257 0.129 255 84 127
3.506359 -19.427303 0.195 255 84 127
3.520161 -19.435457 0.178 255 84 127
3.420046 -19.427095 0.075 255 84 127
3.509991 -19.420176 0.229 255 84 127
3.504492 -19.437574 0.15 255 84 127
3.484436 -19.428478 0.161 255 84 127
3.520615 -19.434566 0.182 255 84 127
3.541359 -19.470949 0.058 255 84 127
3.527256 -19.443562 0.155 255 84 127
3.552555 -19.4688 0.082 255 84 127
3.534366 -19.44943 0.137 255 84 127
3.43126 -19.422709 0.111 255 84 127
3.52734 -19.432383 0.2 255 84 127
3.545462 -19.460695 0.105 255 84 127
3.513084 -19.425117 0.211 255 84 127
3.45093 -19.423752 0.132 255 84 127
3.417322 -19.43244 0.051 255 84 127
3.459352 -19.433655 0.103 255 84 127
3.491077 -19.437473 0.131 255 84 127
3.4959 -19.450031 0.084 255 84 127
3.524213 -19.431911 0.2 255 84 127
3.528027 -19.459667 0.086 255 84 127
3.51838 -19.434549 0.182 255 84 127
3.564139 -19.474701 0.074 255 84 127
3.533408 -19.45792 0.1 255 84 127
3.52443 -19.462324 0.071 255 84 127
3.507789 -19.415686 0.244 255 84 127
3.474113 -19.433319 0.126 255 84 127
3.461503 -19.444851 0.059 255 84 127
3.47867 -19.422173 0.176 255 84 127
3.566795 -19.478298 0.06 255 84 127
3.496876 -19.439306 0.132 255 84 127
3.487024 -19.441021 0.109 255 84 127
3.446322 -19.441607 0.053 255 84 127
3.532602 -19.446285 0.151 255 84 127
3.530416 -19.439562 0.178 255 84 127
3.483829 -19.449493 0.071 255 84 127
3.503652 -19.430412 0.179 255 84 127
3.500373 -19.450066 0.092 255 84 127
3.467422 -19.431032 0.126 255 84 127
3.505434 -19.43132 0.175 255 84 127
3.498307 -19.427689 0.183 255 84 127
3.454477 -19.427803 0.12 255 84 127
3.536013 -19.468225 0.062 255 84 127
3.515337 -19.422899 0.227 255 84 127
3.565013 -19.47739 0.063 255 84 127
3.457082 -19.43811 0.08 255 84 127
3.412464 -19.424355 0.077 255 84 127
3.489413 -19.420914 0.198 255 84 127
3.501751 -19.445158 0.111 255 84 127
3.55881 -19.469742 0.086 255 84 127
3.482484 -19.44993 0.067 255 84 127
3.401284 -19.424269 0.062 255 84 127
3.481377 -19.419064 0.197 255 84 127
3.464227 -19.439505 0.086 255 84 127
3.560643 -19.46394 0.115 255 84 127
3.470549 -19.431503 0.13 255 84 127
3.43252 -19.433451 0.068 255 84 127
3.454494 -19.425568 0.132 255 84 127
3.515973 -19.456892 0.084 255 84 127
3.447685 -19.438932 0.067 255 84 127
3.558356 -19.470631 0.082 255 84 127
3.46685 -19.447575 0.055 255 84 127
3.527573 -19.460558 0.084 255 84 127
3.418247 -19.428423 0.068 255 84 127
3.508965 -19.437609 0.156 255 84 127
3.447265 -19.435352 0.078 255 84 127
3.496558 -19.42231 0.204 255 84 127
3.444541 -19.440699 0.054 255 84 127
3.519691 -19.438585 0.164 255 84 127
3.537341 -19.470024 0.057 255 84 127
3.436975 -19.43572 0.065 255 84 127
3.565013 -19.47739 0.062 255 84 127
3.470918 -19.441792 0.085 255 84 127
3.565047 -19.472919 0.083 255 84 127
3.470617 -19.42256 0.165 255 84 127
3.56108 -19.465286 0.109 255 84 127
3.438421 -19.421867 0.122 255 84 127
3.530382 -19.444033 0.159 255 84 127
3.453468 -19.443001 0.057 255 84 127
3.514747 -19.441679 0.144 255 84 127
3.567283 -19.472935 0.085 255 84 127
3.557028 -19.468834 0.089 255 84 127
3.47825 -19.418592 0.194 255 84 127
3.515337 -19.422899 0.224 255 84 127
3.464211 -19.441742 0.075 255 84 127
3.518027 -19.422026 0.233 255 84 127
