ply
format ascii 1.0
element vertex 1340
property double x
property double y
property double z
property uchar red
property uchar green
property uchar blue
element face 0
property list uchar int vertex_indices
end_header
4.406125 -18.491827 0.723 255 255 0
4.419621 -18.54023 0.735 255 255 0
4.528604 -18.440878 0.729 255 255 0
4.642628 -18.384499 0.733 255 255 0
4.600258 -18.428007 0.736 255 255 0
4.637197 -18.392956 0.734 255 255 0
4.437548 -18.476414 0.724 255 255 0
4.583397 -18.410437 0.731 255 255 0
4.556599 -18.405762 0.726 255 255 0
4.411789 -18.511549 0.728 255 255 0
4.612936 -18.40753 0.734 255 255 0
4.494453 -18.52112 0.741 255 255 0
4.443347 -18.478245 0.725 255 255 0
4.529512 -18.439096 0.729 255 255 0
4.602983 -18.422661 0.736 255 255 0
4.401466 -18.51639 0.727 255 255 0
4.573545 -18.412151 0.73 255 255 0
4.385933 -18.500618 0.722 255 255 0
4.415641 -18.475351 0.721 255 255 0
4.446674 -18.511366 0.732 255 255 0
4.430263 -18.552385 0.738 255 255 0
4.579982 -18.447977 0.738 255 255 0
4.411488 -18.492315 0.724 255 255 0
4.367842 -18.527315 0.725 255 255 0
4.450289 -18.506474 0.732 255 255 0
4.30651 -18.535347 0.718 255 255 0
4.53188 -18.480707 0.738 255 255 0
4.4224 -18.468695 0.721 255 255 0
4.351451 -18.506618 0.719 255 255 0
4.537128 -18.437366 0.73 255 255 0
4.660249 -18.360931 0.731 255 255 0
4.462292 -18.515957 0.735 255 255 0
4.573075 -18.415277 0.73 255 255 0
4.661543 -18.367201 0.732 255 255 0
4.277307 -18.553015 0.718 255 255 0
4.606296 -18.398535 0.731 255 255 0
4.44731 -18.545361 0.739 255 255 0
4.308225 -18.545198 0.72 255 255 0
4.473829 -18.469086 0.728 255 255 0
4.50347 -18.452765 0.728 255 255 0
4.539496 -18.478975 0.738 255 255 0
4.387546 -18.523886 0.727 255 255 0
4.659778 -18.364058 0.732 255 255 0
4.428162 -18.534481 0.735 255 255 0
4.437276 -18.512188 0.731 255 255 0
4.484737 -18.504946 0.736 255 255 0
4.315017 -18.534069 0.719 255 255 0
4.419609 -18.482985 0.723 255 255 0
4.57862 -18.450651 0.738 255 255 0
4.588154 -18.43194 0.736 255 255 0
4.370986 -18.525551 0.725 255 255 0
4.645823 -18.376026 0.732 255 255 0
4.547167 -18.411057 0.726 255 255 0
4.488573 -18.470987 0.73 255 255 0
4.495064 -18.440624 0.725 255 255 0
4.566451 -18.404047 0.727 255 255 0
4.436924 -18.499664 0.729 255 255 0
4.576303 -18.402332 0.728 255 255 0
4.414276 -18.537506 0.733 255 255 0
4.501717 -18.506865 0.739 255 255 0
4.480219 -18.452139 0.725 255 255 0
4.470396 -18.508862 0.735 255 255 0
4.4421 -18.524748 0.734 255 255 0
4.482619 -18.489277 0.733 255 255 0
4.535868 -18.426622 0.728 255 255 0
4.582943 -18.411327 0.731 255 255 0
4.380956 -18.508183 0.723 255 255 0
4.405298 -18.54191 0.733 255 255 0
4.388572 -18.506453 0.724 255 255 0
4.508565 -18.429546 0.724 255 255 0
4.392239 -18.494852 0.722 255 255 0
4.430365 -18.538971 0.736 255 255 0
4.603136 -18.402536 0.732 255 255 0
4.65618 -18.366714 0.732 255 255 0
4.530557 -18.419426 0.725 255 255 0
4.570957 -18.399609 0.727 255 255 0
4.378839 -18.492516 0.719 255 255 0
4.362194 -18.505358 0.72 255 255 0
4.657877 -18.378801 0.734 255 255 0
4.515155 -18.44525 0.728 255 255 0
4.410308 -18.529873 0.731 255 255 0
4.395111 -18.528864 0.729 255 255 0
4.474011 -18.503971 0.735 255 255 0
4.455385 -18.483257 0.728 255 255 0
4.452576 -18.499783 0.731 255 255 0
4.55836 -18.468386 0.739 255 255 0
4.584187 -18.424307 0.733 255 255 0
4.464278 -18.490032 0.73 255 255 0
4.530052 -18.427027 0.727 255 255 0
4.423928 -18.503143 0.728 255 255 0
4.578183 -18.449305 0.738 255 255 0
4.62415 -18.403143 0.735 255 255 0
4.481729 -18.488823 0.733 255 255 0
4.279474 -18.561975 0.72 255 255 0
4.54844 -18.479044 0.74 255 255 0
4.512295 -18.468483 0.733 255 255 0
4.262024 -18.563185 0.718 255 255 0
4.495973 -18.438841 0.724 255 255 0
4.571962 -18.443892 0.736 255 255 0
4.541766 -18.474522 0.738 255 255 0
4.557655 -18.443336 0.734 255 255 0
4.368648 -18.538948 0.727 255 255 0
4.485145 -18.451283 0.726 255 255 0
4.653473 -18.369823 0.732 255 255 0
4.347649 -18.536106 0.724 255 255 0
4.448473 -18.510036 0.732 255 255 0
4.549534 -18.452665 0.735 255 255 0
4.43462 -18.508591 0.73 255 255 0
4.558984 -18.445135 0.734 255 255 0
4.404831 -18.485556 0.722 255 255 0
4.456916 -18.458223 0.723 255 255 0
4.392709 -18.491726 0.721 255 255 0
4.473257 -18.485628 0.731 255 255 0
4.693033 -18.342844 0.732 255 255 0
4.511234 -18.490389 0.737 255 255 0
4.24106 -18.55587 0.714 255 255 0
4.515694 -18.433178 0.726 255 255 0
4.630858 -18.403194 0.736 255 255 0
4.53748 -18.44989 0.732 255 255 0
4.611171 -18.404387 0.733 255 255 0
4.513962 -18.425562 0.724 255 255 0
4.444795 -18.464394 0.723 255 255 0
4.611273 -18.39097 0.73 255 255 0
4.619258 -18.399529 0.733 255 255 0
4.444472 -18.506878 0.731 255 255 0
4.44597 -18.486317 0.727 255 255 0
4.568131 -18.418371 0.73 255 255 0
4.54244 -18.444561 0.732 255 255 0
4.252625 -18.564007 0.717 255 255 0
4.350878 -18.523161 0.722 255 255 0
4.464096 -18.455147 0.724 255 255 0
4.428162 -18.534481 0.734 255 255 0
4.394186 -18.532881 0.73 255 255 0
4.391881 -18.541809 0.731 255 255 0
4.477139 -18.504442 0.735 255 255 0
4.430988 -18.515718 0.731 255 255 0
4.541715 -18.481228 0.739 255 255 0
4.483329 -18.454847 0.726 255 255 0
4.458041 -18.486855 0.729 255 255 0
4.56887 -18.438948 0.734 255 255 0
4.622487 -18.386583 0.731 255 255 0
4.447849 -18.533289 0.737 255 255 0
4.283998 -18.555302 0.719 255 255 0
4.43395 -18.479069 0.724 255 255 0
4.295245 -18.546442 0.719 255 255 0
4.285949 -18.533848 0.715 255 255 0
4.425795 -18.492872 0.726 255 255 0
4.635568 -18.371923 0.73 255 255 0
4.387817 -18.488111 0.72 255 255 0
4.640761 -18.394772 0.735 255 255 0
4.460107 -18.509232 0.734 255 255 0
4.620688 -18.387911 0.731 255 255 0
4.491717 -18.469221 0.73 255 255 0
4.455482 -18.529322 0.737 255 255 0
4.60927 -18.41913 0.736 255 255 0
4.510665 -18.447451 0.728 255 255 0
4.420568 -18.474495 0.722 255 255 0
4.570838 -18.41526 0.73 255 255 0
4.358863 -18.531719 0.725 255 255 0
4.522346 -18.499418 0.74 255 255 0
4.460243 -18.491344 0.73 255 255 0
4.50254 -18.516262 0.741 255 255 0
4.545767 -18.477682 0.739 255 255 0
4.527777 -18.490961 0.739 255 255 0
4.307787 -18.543854 0.72 255 255 0
4.403617 -18.527586 0.73 255 255 0
4.623412 -18.382565 0.731 255 255 0
4.625682 -18.378109 0.73 255 255 0
4.414933 -18.509783 0.728 255 255 0
4.497466 -18.477762 0.732 255 255 0
4.563876 -18.44875 0.736 255 255 0
4.675918 -18.358812 0.733 255 255 0
4.568267 -18.400482 0.727 255 255 0
4.437022 -18.545729 0.738 255 255 0
4.490173 -18.43701 0.723 255 255 0
4.456055 -18.512779 0.734 255 255 0
4.436148 -18.543039 0.737 255 255 0
4.308156 -18.554142 0.722 255 255 0
4.27339 -18.538673 0.715 255 255 0
4.444103 -18.496588 0.729 255 255 0
4.428366 -18.507648 0.729 255 255 0
4.653524 -18.363115 0.731 255 255 0
4.335765 -18.510971 0.717 255 255 0
4.488186 -18.462933 0.728 255 255 0
4.605689 -18.41955 0.735 255 255 0
4.635835 -18.39563 0.735 255 255 0
4.340538 -18.530237 0.722 255 255 0
4.593856 -18.387707 0.727 255 255 0
4.375139 -18.508587 0.722 255 255 0
4.314041 -18.544794 0.721 255 255 0
4.364982 -18.550549 0.729 255 255 0
4.38625 -18.517616 0.726 255 255 0
4.254963 -18.550608 0.715 255 255 0
4.622487 -18.386583 0.731 255 255 0
4.416851 -18.492804 0.725 255 255 0
4.515524 -18.455538 0.73 255 255 0
4.479344 -18.44945 0.724 255 255 0
4.473375 -18.469976 0.728 255 255 0
4.389429 -18.511379 0.725 255 255 0
4.406325 -18.524477 0.73 255 255 0
4.374969 -18.530947 0.727 255 255 0
4.464193 -18.501213 0.733 255 255 0
4.58274 -18.43816 0.736 255 255 0
4.51591 -18.463591 0.732 255 255 0
4.543484 -18.424892 0.728 255 255 0
4.500916 -18.435749 0.725 255 255 0
4.375627 -18.503223 0.721 255 255 0
4.490049 -18.512142 0.738 255 255 0
4.546289 -18.467846 0.737 255 255 0
4.445597 -18.535507 0.737 255 255 0
4.343644 -18.592426 0.72 255 255 0
4.484661 -18.632853 0.726 255 255 0
4.43098 -18.634682 0.72 255 255 0
4.426932 -18.578747 0.733 255 255 0
4.340114 -18.586138 0.721 255 255 0
4.433504 -18.596685 0.729 255 255 0
4.399629 -18.581671 0.729 255 255 0
4.475819 -18.619368 0.728 255 255 0
4.506215 -18.621387 0.731 255 255 0
4.334904 -18.565527 0.726 255 255 0
4.427335 -18.584564 0.731 255 255 0
4.378983 -18.591352 0.724 255 255 0
4.393825 -18.639318 0.715 255 255 0
4.445711 -18.579338 0.735 255 255 0
4.4528 -18.646923 0.719 255 255 0
4.312561 -18.56312 0.724 255 255 0
4.258794 -18.57613 0.715 255 255 0
4.449627 -18.593678 0.732 255 255 0
4.527544 -18.698473 0.716 255 255 0
4.317469 -18.564499 0.724 255 255 0
4.408216 -18.628695 0.719 255 255 0
4.418891 -18.636379 0.718 255 255 0
4.550777 -18.701334 0.717 255 255 0
4.383977 -18.581553 0.727 255 255 0
4.501033 -18.655787 0.723 255 255 0
4.433368 -18.614574 0.725 255 255 0
4.280229 -18.580317 0.716 255 255 0
4.482612 -18.60824 0.732 255 255 0
4.480757 -18.675756 0.716 255 255 0
4.322697 -18.582876 0.72 255 255 0
4.349245 -18.561611 0.728 255 255 0
4.45015 -18.583843 0.734 255 255 0
4.516817 -18.697498 0.715 255 255 0
4.378813 -18.613712 0.719 255 255 0
4.398602 -18.599104 0.725 255 255 0
4.267285 -18.577087 0.715 255 255 0
4.493304 -18.613688 0.732 255 255 0
4.491063 -18.673151 0.718 255 255 0
4.275253 -18.587883 0.714 255 255 0
4.332766 -18.611574 0.714 255 255 0
4.34963 -18.569664 0.726 255 255 0
4.499689 -18.656223 0.722 255 255 0
4.30785 -18.594391 0.716 255 255 0
4.564109 -18.712614 0.716 255 255 0
4.500949 -18.666965 0.72 255 255 0
4.426847 -18.589928 0.73 255 255 0
4.443305 -18.601681 0.729 255 255 0
4.546425 -18.685648 0.721 255 255 0
4.401508 -18.628643 0.718 255 255 0
4.3136 -18.602932 0.715 255 255 0
4.42066 -18.580042 0.732 255 255 0
4.518803 -18.671574 0.721 255 255 0
4.496783 -18.626684 0.729 255 255 0
4.432397 -18.565819 0.736 255 255 0
4.37917 -18.566757 0.73 255 255 0
4.418086 -18.624744 0.721 255 255 0
4.375436 -18.587301 0.725 255 255 0
4.44426 -18.652672 0.717 255 255 0
4.347378 -18.571882 0.726 255 255 0
4.255685 -18.573421 0.715 255 255 0
4.444332 -18.584246 0.733 255 255 0
4.470268 -18.643476 0.722 255 255 0
4.331891 -18.608885 0.715 255 255 0
4.502345 -18.659821 0.722 255 255 0
4.397359 -18.586126 0.728 255 255 0
4.503474 -18.628971 0.729 255 255 0
4.47163 -18.640804 0.723 255 255 0
4.472543 -18.57954 0.738 255 255 0
4.440713 -18.648621 0.718 255 255 0
4.384631 -18.61331 0.72 255 255 0
4.397558 -18.618774 0.72 255 255 0
4.39573 -18.565094 0.732 255 255 0
4.472959 -18.642603 0.723 255 255 0
4.465224 -18.659986 0.718 255 255 0
4.547565 -18.712042 0.715 255 255 0
4.491924 -18.618597 0.73 255 255 0
4.417903 -18.589859 0.729 255 255 0
4.389039 -18.562807 0.732 255 255 0
4.476442 -18.596117 0.734 255 255 0
4.354489 -18.577751 0.725 255 255 0
4.398887 -18.620573 0.72 255 255 0
4.426996 -18.629284 0.721 255 255 0
4.289208 -18.575912 0.718 255 255 0
4.353462 -18.595184 0.721 255 255 0
4.249431 -18.572481 0.714 255 255 0
4.4022 -18.596449 0.726 255 255 0
4.386816 -18.620035 0.719 255 255 0
4.415888 -18.560774 0.736 255 255 0
4.437302 -18.626678 0.723 255 255 0
4.507016 -18.692503 0.715 255 255 0
4.462954 -18.66444 0.716 255 255 0
4.281524 -18.586588 0.715 255 255 0
4.402252 -18.589741 0.727 255 255 0
4.359517 -18.563477 0.729 255 255 0
4.423533 -18.614052 0.724 255 255 0
4.500648 -18.647732 0.724 255 255 0
4.481682 -18.67174 0.717 255 255 0
4.361481 -18.59927 0.721 255 255 0
4.341692 -18.613878 0.715 255 255 0
4.428866 -18.55953 0.737 255 255 0
4.36261 -18.56842 0.728 255 255 0
4.358575 -18.569731 0.727 255 255 0
4.467901 -18.601866 0.732 255 255 0
4.520602 -18.670246 0.721 255 255 0
4.495922 -18.681238 0.716 255 255 0
4.423096 -18.612707 0.724 255 255 0
4.366628 -18.569345 0.728 255 255 0
4.393863 -18.575365 0.73 255 255 0
4.485772 -18.604239 0.733 255 255 0
4.440276 -18.647274 0.718 255 255 0
4.314474 -18.605621 0.714 255 255 0
4.396078 -18.6371 0.715 255 255 0
4.346618 -18.613022 0.716 255 255 0
4.449461 -18.556557 0.74 255 255 0
4.30427 -18.59481 0.715 255 255 0
4.520805 -18.643414 0.728 255 255 0
4.470905 -18.677471 0.714 255 255 0
4.309315 -18.578302 0.72 255 255 0
4.477414 -18.644873 0.723 255 255 0
4.462453 -18.612558 0.729 255 255 0
4.311029 -18.588154 0.718 255 255 0
4.422477 -18.576477 0.733 255 255 0
4.520047 -18.684553 0.718 255 255 0
4.396752 -18.607141 0.723 255 255 0
4.490206 -18.668226 0.719 255 255 0
4.419401 -18.569298 0.734 255 255 0
4.410911 -18.568338 0.733 255 255 0
4.39245 -18.584745 0.728 255 255 0
4.329069 -18.568165 0.724 255 255 0
4.434107 -18.635153 0.72 255 255 0
4.292318 -18.578619 0.718 255 255 0
4.272109 -18.589647 0.713 255 255 0
4.382649 -18.579752 0.728 255 255 0
4.557838 -18.713909 0.715 255 255 0
4.471079 -18.595629 0.734 255 255 0
4.432295 -18.579235 0.733 255 255 0
4.275775 -18.578047 0.716 255 255 0
4.406456 -18.566069 0.733 255 255 0
4.429147 -18.640482 0.718 255 255 0
4.553433 -18.704931 0.717 255 255 0
4.33845 -18.569578 0.725 255 255 0
4.452835 -18.64245 0.72 255 255 0
4.453106 -18.606674 0.729 255 255 0
4.540238 -18.675762 0.722 255 255 0
4.337996 -18.570469 0.725 255 255 0
4.475954 -18.60148 0.733 255 255 0
4.454901 -18.664827 0.715 255 255 0
4.520335 -18.64654 0.727 255 255 0
4.418578 -18.5599 0.736 255 255 0
4.516265 -18.652323 0.725 255 255 0
4.375551 -18.63113 0.715 255 255 0
4.289746 -18.563843 0.721 255 255 0
4.520047 -18.684553 0.718 255 255 0
4.338684 -18.597755 0.718 255 255 0
4.432732 -18.58058 0.733 255 255 0
4.395742 -18.622339 0.719 255 255 0
4.539682 -18.690067 0.719 255 255 0
4.350504 -18.572353 0.726 255 255 0
4.468071 -18.579508 0.737 255 255 0
4.326312 -18.577984 0.722 255 255 0
4.355919 -18.566133 0.728 255 255 0
4.477986 -18.628328 0.727 255 255 0
4.526033 -18.661789 0.724 255 255 0
4.382309 -18.624472 0.717 255 255 0
4.437773 -18.623552 0.723 255 255 0
4.25476 -18.57744 0.714 255 255 0
4.316761 -18.59893 0.716 255 255 0
4.503054 -18.625389 0.73 255 255 0
4.466256 -18.583071 0.736 255 255 0
4.446898 -18.658504 0.716 255 255 0
4.510194 -18.686266 0.716 255 255 0
4.512112 -18.669287 0.721 255 255 0
4.427279 -18.650753 0.716 255 255 0
4.470574 -18.603228 0.732 255 255 0
4.501942 -18.654003 0.723 255 255 0
4.559166 -18.715708 0.715 255 255 0
4.50083 -18.682617 0.716 255 255 0
4.422965 -18.571114 0.734 255 255 0
4.356856 -18.61936 0.715 255 255 0
4.487215 -18.649866 0.723 255 255 0
4.512634 -18.659451 0.723 255 255 0
4.478928 -18.622076 0.728 255 255 0
4.453004 -18.62009 0.726 255 255 0
4.469111 -18.619318 0.728 255 255 0
4.477532 -18.629221 0.726 255 255 0
4.38811 -18.626307 0.717 255 255 0
4.516045 -18.681391 0.718 255 255 0
4.312021 -18.575191 0.721 255 255 0
4.449797 -18.571318 0.737 255 255 0
4.451438 -18.649595 0.719 255 255 0
4.242723 -18.57243 0.714 255 255 0
4.358775 -18.602381 0.72 255 255 0
4.341578 -18.570049 0.725 255 255 0
4.484813 -18.612728 0.731 255 255 0
4.313316 -18.581463 0.72 255 255 0
4.453492 -18.614727 0.727 255 255 0
4.37648 -18.567631 0.73 255 255 0
4.375805 -18.597589 0.723 255 255 0
4.456989 -18.625486 0.725 255 255 0
4.492022 -18.664661 0.72 255 255 0
4.550358 -18.697752 0.718 255 255 0
4.515239 -18.669758 0.721 255 255 0
4.489808 -18.602928 0.734 255 255 0
4.496914 -18.668276 0.719 255 255 0
4.427976 -18.559078 0.737 255 255 0
4.392145 -18.624994 0.718 255 255 0
4.476739 -18.674831 0.715 255 255 0
4.459683 -18.565132 0.739 255 255 0
4.349762 -18.611256 0.716 255 255 0
4.445779 -18.570393 0.737 255 255 0
4.336282 -18.560617 0.727 255 255 0
4.301211 -18.585396 0.717 255 255 0
4.382784 -18.561865 0.732 255 255 0
4.38682 -18.560553 0.733 255 255 0
4.228432 -18.569637 0.713 255 255 0
4.468822 -18.65733 0.719 255 255 0
4.409481 -18.579958 0.73 255 255 0
4.446984 -18.647326 0.719 255 255 0
4.264175 -18.574381 0.716 255 255 0
4.477283 -18.603281 0.732 255 255 0
4.459526 -18.644737 0.721 255 255 0
4.495403 -18.631594 0.728 255 255 0
4.262864 -18.570347 0.717 255 255 0
4.398823 -18.570036 0.731 255 255 0
4.441217 -18.64102 0.72 255 255 0
4.447391 -18.593662 0.731 255 255 0
5.087976 -17.512657 0.722 255 255 0
5.05248 -17.357649 0.719 255 255 0
5.074806 -17.362291 0.72 255 255 0
5.058789 -17.52809 0.721 255 255 0
5.03589 -17.775679 0.724 255 255 0
4.981653 -17.791815 0.722 255 255 0
5.028389 -17.821239 0.724 255 255 0
5.037256 -17.477837 0.72 255 255 0
5.034023 -17.550262 0.721 255 255 0
4.949925 -17.611788 0.718 255 255 0
5.067024 -17.562588 0.722 255 255 0
5.044571 -17.221184 0.717 255 255 0
4.873031 -17.784729 0.718 255 255 0
5.104451 -17.522175 0.723 255 255 0
5.039421 -17.546278 0.721 255 255 0
4.986032 -17.450613 0.718 255 255 0
5.094917 -17.305197 0.72 255 255 0
5.120442 -17.477573 0.723 255 255 0
5.041109 -17.441641 0.719 255 255 0
4.990058 -17.568264 0.719 255 255 0
4.966187 -17.531412 0.718 255 255 0
4.969463 -17.571239 0.719 255 255 0
5.09193 -17.463047 0.722 255 255 0
5.120624 -17.748148 0.726 255 255 0
5.103467 -17.180487 0.718 255 255 0
5.11945 -17.019159 0.717 255 255 0
5.088252 -17.4174 0.721 255 255 0
5.01787 -17.73395 0.722 255 255 0
4.991332 -17.636253 0.72 255 255 0
4.996698 -17.812948 0.723 255 255 0
5.121469 -17.224451 0.72 255 255 0
4.981857 -17.529295 0.719 255 255 0
4.936437 -17.680113 0.719 255 255 0
5.049129 -17.210037 0.717 255 255 0
5.101434 -17.625013 0.724 255 255 0
5.003937 -17.684202 0.721 255 255 0
4.911361 -17.802015 0.72 255 255 0
5.054008 -17.392096 0.719 255 255 0
5.088306 -17.822588 0.726 255 255 0
5.065594 -17.574205 0.722 255 255 0
4.952411 -17.637747 0.719 255 255 0
4.931654 -17.779806 0.72 255 255 0
5.062039 -17.217739 0.717 255 255 0
5.013059 -17.778637 0.723 255 255 0
4.92751 -17.677809 0.719 255 255 0
5.041393 -17.46311 0.72 255 255 0
4.9736 -17.556513 0.719 255 255 0
4.951473 -17.820208 0.721 255 255 0
5.099792 -17.311049 0.72 255 255 0
4.960642 -17.496038 0.717 255 255 0
5.016572 -17.551472 0.72 255 255 0
4.988857 -17.66754 0.721 255 255 0
5.003127 -17.496361 0.719 255 255 0
4.973769 -17.76984 0.721 255 255 0
5.035971 -17.352604 0.718 255 255 0
4.859593 -17.846344 0.718 255 255 0
5.108028 -17.109859 0.718 255 255 0
5.00431 -17.399323 0.718 255 255 0
5.099949 -17.467133 0.722 255 255 0
4.951312 -17.723606 0.72 255 255 0
5.052471 -17.712299 0.723 255 255 0
5.072129 -17.184721 0.717 255 255 0
5.053253 -17.373755 0.719 255 255 0
5.077738 -17.742008 0.725 255 255 0
5.101719 -17.175108 0.718 255 255 0
4.907754 -17.687944 0.718 255 255 0
5.11827 -17.763783 0.726 255 255 0
5.107103 -17.113878 0.718 255 255 0
5.112669 -17.087534 0.717 255 255 0
5.010216 -17.563946 0.72 255 255 0
5.006308 -17.430643 0.718 255 255 0
5.058798 -17.409128 0.72 255 255 0
5.050588 -17.253429 0.717 255 255 0
4.996648 -17.583969 0.72 255 255 0
4.945461 -17.728481 0.72 255 255 0
5.07568 -17.129292 0.717 255 255 0
4.963604 -17.695076 0.72 255 255 0
4.999982 -17.498127 0.719 255 255 0
5.057906 -17.408674 0.72 255 255 0
4.957367 -17.691898 0.72 255 255 0
4.879445 -17.882273 0.719 255 255 0
4.996507 -17.42565 0.718 255 255 0
5.053821 -17.65238 0.723 255 255 0
4.863141 -17.850395 0.718 255 255 0
5.019135 -17.685213 0.722 255 255 0
5.080724 -17.819847 0.726 255 255 0
5.119097 -17.006634 0.717 255 255 0
5.034209 -17.761354 0.723 255 255 0
4.894063 -17.7831 0.719 255 255 0
5.094247 -17.275675 0.719 255 255 0
5.105062 -17.677366 0.725 255 255 0
4.915914 -17.850349 0.72 255 255 0
5.123116 -17.478935 0.723 255 255 0
5.006228 -17.382341 0.717 255 255 0
4.963552 -17.701784 0.72 255 255 0
5.008795 -17.692289 0.722 255 255 0
4.907559 -17.831503 0.72 255 255 0
4.939233 -17.60634 0.718 255 255 0
4.940497 -17.557604 0.717 255 255 0
5.10566 -17.775314 0.726 255 255 0
5.052437 -17.71677 0.723 255 255 0
5.034745 -17.337389 0.718 255 255 0
5.00585 -17.491014 0.719 255 255 0
5.114392 -17.4498 0.722 255 255 0
5.109344 -17.054413 0.717 255 255 0
4.990262 -17.541433 0.719 255 255 0
4.990258 -17.600914 0.72 255 255 0
5.076444 -17.26436 0.718 255 255 0
5.11906 -17.306274 0.721 255 255 0
5.042568 -17.72072 0.723 255 255 0
5.090259 -17.32976 0.72 255 255 0
4.891301 -17.8524 0.719 255 255 0
4.876051 -17.858097 0.719 255 255 0
4.948839 -17.754892 0.72 255 255 0
4.974652 -17.653568 0.72 255 255 0
5.104303 -17.247129 0.719 255 255 0
4.966938 -17.609236 0.719 255 255 0
4.959911 -17.827875 0.722 255 255 0
4.941409 -17.732027 0.72 255 255 0
5.032381 -17.707674 0.723 255 255 0
5.008375 -17.688709 0.722 255 255 0
5.120875 -17.302711 0.721 255 255 0
5.053442 -17.525366 0.721 255 255 0
4.905922 -17.693745 0.718 255 255 0
5.041248 -17.835648 0.725 255 255 0
5.067114 -17.256239 0.718 255 255 0
4.953798 -17.513876 0.717 255 255 0
5.063325 -17.342972 0.719 255 255 0
5.001285 -17.385435 0.717 255 255 0
4.873548 -17.834375 0.719 255 255 0
4.925375 -17.664375 0.718 255 255 0
5.126693 -17.302309 0.721 255 255 0
5.005167 -17.639936 0.721 255 255 0
4.96744 -17.661118 0.72 255 255 0
4.876692 -17.832611 0.719 255 255 0
5.087059 -17.397715 0.721 255 255 0
5.037014 -17.80431 0.724 255 255 0
5.022266 -17.626202 0.721 255 255 0
5.021438 -17.676285 0.722 255 255 0
5.028885 -17.696915 0.722 255 255 0
5.093979 -17.723347 0.725 255 255 0
5.079316 -17.769749 0.725 255 255 0
5.015596 -17.326509 0.717 255 255 0
5.097315 -17.166128 0.718 255 255 0
5.091094 -17.160715 0.718 255 255 0
4.961122 -17.845325 0.722 255 255 0
5.0418 -17.409445 0.719 255 255 0
5.031537 -17.288616 0.717 255 255 0
5.120358 -17.017378 0.717 255 255 0
5.068149 -17.826908 0.725 255 255 0
4.956722 -17.541178 0.718 255 255 0
5.074156 -17.742428 0.725 255 255 0
5.047172 -17.762348 0.724 255 255 0
4.970659 -17.531446 0.718 255 255 0
4.841972 -17.869913 0.718 255 255 0
4.999868 -17.454296 0.718 255 255 0
5.08016 -17.717428 0.724 255 255 0
4.971237 -17.691109 0.72 255 255 0
5.03743 -17.395996 0.719 255 255 0
5.092197 -17.722439 0.725 255 255 0
4.909502 -17.693325 0.718 255 255 0
5.101125 -17.253366 0.719 255 255 0
4.931544 -17.676497 0.719 255 255 0
5.105142 -17.725668 0.725 255 255 0
4.91293 -17.713028 0.718 255 255 0
5.111519 -17.651476 0.725 255 255 0
5.111808 -17.377777 0.721 255 255 0
4.937535 -17.594254 0.718 255 255 0
5.119377 -17.558962 0.724 255 255 0
5.067338 -17.639067 0.723 255 255 0
5.078272 -17.789417 0.725 255 255 0
4.955683 -17.501368 0.717 255 255 0
5.054151 -17.726624 0.724 255 255 0
5.079723 -17.716084 0.724 255 255 0
4.946017 -17.714174 0.72 255 255 0
5.029525 -17.671427 0.722 255 255 0
4.866484 -17.881281 0.719 255 255 0
4.912201 -17.809175 0.72 255 255 0
4.986151 -17.67065 0.72 255 255 0
5.105711 -17.768606 0.726 255 255 0
5.047108 -17.711811 0.723 255 255 0
5.020314 -17.647654 0.721 255 255 0
5.080173 -17.303297 0.719 255 255 0
4.919024 -17.853056 0.72 255 255 0
4.960752 -17.835037 0.722 255 255 0
5.023937 -17.759489 0.723 255 255 0
5.106139 -17.653225 0.725 255 255 0
5.060041 -17.422106 0.72 255 255 0
5.021736 -17.519312 0.72 255 255 0
5.109865 -17.751644 0.726 255 255 0
5.008023 -17.676184 0.721 255 255 0
4.999961 -17.795532 0.723 255 255 0
4.938749 -17.552223 0.717 255 255 0
5.019962 -17.63513 0.721 255 255 0
5.028728 -17.540831 0.72 255 255 0
4.898119 -17.720072 0.718 255 255 0
5.000602 -17.534355 0.719 255 255 0
5.118125 -17.429256 0.722 255 255 0
4.976226 -17.740789 0.721 255 255 0
5.096538 -17.209503 0.718 255 255 0
5.059815 -17.746344 0.724 255 255 0
4.853692 -17.857927 0.718 255 255 0
5.046625 -17.422005 0.719 255 255 0
5.081268 -17.276918 0.719 255 255 0
4.904674 -17.740246 0.719 255 255 0
4.961686 -17.476368 0.717 255 255 0
5.044113 -17.281557 0.718 255 255 0
5.0367 -17.256454 0.717 255 255 0
4.985438 -17.528873 0.719 255 255 0
4.911467 -17.729118 0.719 255 255 0
5.06758 -17.78397 0.725 255 255 0
5.073275 -17.151634 0.717 255 255 0
5.112648 -17.620626 0.724 255 255 0
4.864638 -17.829836 0.718 255 255 0
5.092287 -17.180401 0.718 255 255 0
5.117701 -17.720844 0.726 255 255 0
5.082962 -17.112799 0.717 255 255 0
5.083492 -17.21969 0.718 255 255 0
4.921208 -17.859781 0.721 255 255 0
5.099635 -17.626343 0.724 255 255 0
4.91215 -17.815886 0.72 255 255 0
5.116051 -17.054464 0.717 255 255 0
5.111163 -17.698433 0.725 255 255 0
5.067148 -17.251766 0.718 255 255 0
4.950442 -17.661436 0.719 255 255 0
5.037825 -17.285088 0.717 255 255 0
5.076656 -17.118567 0.717 255 255 0
5.01033 -17.843464 0.724 255 255 0
4.944681 -17.831337 0.721 255 255 0
4.974143 -17.484961 0.718 255 255 0
5.088336 -17.406221 0.721 255 255 0
5.015273 -17.84037 0.724 255 255 0
5.010382 -17.836756 0.723 255 255 0
4.954058 -17.656544 0.719 255 255 0
5.053625 -17.795938 0.725 255 255 0
5.088645 -17.777868 0.726 255 255 0
5.119454 -17.195366 0.719 255 255 0
5.058517 -17.799553 0.725 255 255 0
5.054618 -17.547289 0.721 255 255 0
5.092962 -17.150442 0.718 255 255 0
5.048835 -17.543219 0.721 255 255 0
5.05909 -17.78301 0.725 255 255 0
4.895684 -17.687405 0.717 255 255 0
5.07072 -17.37031 0.72 255 255 0
5.048313 -17.553055 0.721 255 255 0
5.073804 -17.729902 0.724 255 255 0
4.944452 -17.743679 0.72 255 255 0
5.102338 -17.211336 0.719 255 255 0
5.107374 -17.785166 0.726 255 255 0
4.878495 -17.771801 0.718 255 255 0
5.068934 -17.66457 0.723 255 255 0
5.03914 -17.701017 0.723 255 255 0
5.105485 -17.621468 0.724 255 255 0
5.031184 -17.747469 0.723 255 255 0
5.115075 -17.536568 0.723 255 255 0
5.124723 -17.561686 0.724 255 255 0
4.96998 -17.856575 0.722 255 255 0
4.924387 -17.853544 0.721 255 255 0
5.034549 -17.716635 0.723 255 255 0
5.099436 -17.593693 0.724 255 255 0
5.122127 -17.668104 0.725 255 255 0
5.089147 -17.594063 0.723 255 255 0
4.986193 -17.547216 0.719 255 255 0
4.944582 -17.785273 0.721 255 255 0
4.947705 -17.609535 0.718 255 255 0
4.933836 -17.846014 0.721 255 255 0
5.095554 -17.103504 0.717 255 255 0
5.042798 -17.337002 0.718 255 255 0
5.122517 -17.1453 0.719 255 255 0
5.050367 -17.518187 0.721 255 255 0
5.076545 -17.250944 0.718 255 255 0
5.052891 -17.715879 0.723 255 255 0
5.100245 -17.781534 0.726 255 255 0
4.949475 -17.553198 0.718 255 255 0
4.939313 -17.654642 0.719 255 255 0
4.947978 -17.573759 0.718 255 255 0
5.10788 -17.54188 0.723 255 255 0
5.108155 -17.68231 0.725 255 255 0
4.916728 -17.743021 0.719 255 255 0
5.054198 -17.30802 0.718 255 255 0
5.117464 -17.51646 0.723 255 255 0
5.121957 -17.219088 0.719 255 255 0
5.01818 -17.634222 0.721 255 255 0
4.877838 -17.799524 0.718 255 255 0
5.046633 -17.303043 0.718 255 255 0
5.070058 -17.457514 0.721 255 255 0
5.094582 -17.526125 0.722 255 255 0
4.912053 -17.769819 0.719 255 255 0
4.992324 -17.387604 0.717 255 255 0
4.93821 -17.564293 0.717 255 255 0
5.069465 -17.300085 0.719 255 255 0
5.036731 -17.547153 0.721 255 255 0
5.040799 -17.305681 0.718 255 255 0
5.096771 -17.23768 0.719 255 255 0
5.067033 -17.207937 0.717 255 255 0
5.030086 -17.597639 0.721 255 255 0
4.91361 -17.623589 0.717 255 255 0
5.007866 -17.5201 0.719 255 255 0
5.030488 -17.603456 0.721 255 255 0
4.891915 -17.712421 0.718 255 255 0
4.944664 -17.597885 0.718 255 255 0
4.970889 -17.619104 0.719 255 255 0
5.072184 -17.589909 0.723 255 255 0
5.092546 -17.323069 0.72 255 255 0
4.960336 -17.536287 0.718 255 255 0
4.905679 -17.784531 0.719 255 255 0
4.988081 -17.710915 0.721 255 255 0
4.96735 -17.731777 0.721 255 255 0
5.03291 -17.814566 0.724 255 255 0
4.970198 -17.651299 0.72 255 255 0
5.090258 -17.801136 0.726 255 255 0
5.035457 -17.243477 0.717 255 255 0
5.043222 -17.51679 0.721 255 255 0
5.020764 -17.706244 0.722 255 255 0
5.046612 -17.364759 0.719 255 255 0
5.111193 -17.753443 0.726 255 255 0
5.124426 -17.247282 0.72 255 255 0
5.111814 -17.082607 0.717 255 255 0
5.083589 -17.501444 0.722 255 255 0
5.023383 -17.302418 0.717 255 255 0
5.021519 -17.724586 0.722 255 255 0
4.846211 -17.84177 0.718 255 255 0
4.910372 -17.755495 0.719 255 255 0
5.07195 -17.561731 0.722 255 255 0
5.092915 -17.333357 0.72 255 255 0
5.03233 -17.714382 0.723 255 255 0
5.08005 -17.614119 0.723 255 255 0
5.080987 -17.431658 0.721 255 255 0
5.111414 -17.017309 0.716 255 255 0
5.007564 -17.736555 0.722 255 255 0
5.055165 -17.651943 0.723 255 255 0
5.098816 -17.793152 0.726 255 255 0
5.024446 -17.692408 0.722 255 255 0
5.079617 -17.553291 0.722 255 255 0
5.072515 -17.192774 0.717 255 255 0
4.880035 -17.863495 0.719 255 255 0
5.108211 -17.380432 0.721 255 255 0
4.987957 -17.786049 0.722 255 255 0
5.123357 -17.623838 0.725 255 255 0
5.107808 -17.374615 0.721 255 255 0
5.116942 -17.290607 0.72 255 255 0
4.946229 -17.804068 0.721 255 255 0
5.043955 -17.832539 0.725 255 255 0
4.846547 -17.856531 0.718 255 255 0
5.085922 -17.547527 0.722 255 255 0
5.05825 -17.304472 0.718 255 255 0
5.112174 -17.211859 0.719 255 255 0
4.962988 -17.835054 0.722 255 255 0
5.124995 -17.29022 0.72 255 255 0
5.03724 -17.244385 0.717 255 255 0
4.872343 -17.757442 0.718 255 255 0
5.028406 -17.583315 0.721 255 255 0
5.033238 -17.476912 0.72 255 255 0
5.081735 -17.333273 0.72 255 255 0
5.124897 -17.479843 0.723 255 255 0
4.945155 -17.768728 0.72 255 255 0
4.90968 -17.787691 0.719 255 255 0
5.086067 -17.646364 0.724 255 255 0
4.981462 -17.640203 0.72 255 255 0
5.07327 -17.211115 0.718 255 255 0
4.996062 -17.543266 0.719 255 255 0
5.038308 -17.810581 0.724 255 255 0
5.044024 -17.587906 0.721 255 255 0
4.88853 -17.804972 0.719 255 255 0
5.057108 -17.513765 0.721 255 255 0
5.078502 -17.405699 0.72 255 255 0
4.887881 -17.713734 0.718 255 255 0
5.002244 -17.848322 0.723 255 255 0
5.121376 -17.118906 0.718 255 255 0
5.023849 -17.830149 0.724 255 255 0
5.055802 -17.450249 0.72 255 255 0
4.987895 -17.735512 0.721 255 255 0
4.960706 -17.546576 0.718 255 255 0
5.054843 -17.223051 0.717 255 255 0
4.98587 -17.82539 0.722 255 255 0
4.969348 -17.7631 0.721 255 255 0
4.94042 -17.685509 0.719 255 255 0
5.117655 -17.668072 0.725 255 255 0
5.092155 -17.610186 0.723 255 255 0
5.116642 -17.035685 0.717 255 255 0
5.017438 -17.673124 0.722 255 255 0
5.10482 -17.296776 0.72 255 255 0
5.089558 -17.480917 0.722 255 255 0
4.966921 -17.611471 0.719 255 255 0
4.943827 -17.76693 0.72 255 255 0
4.985349 -17.599535 0.72 255 255 0
5.083801 -17.35565 0.72 255 255 0
5.006376 -17.4217 0.718 255 255 0
5.104413 -17.350439 0.721 255 255 0
5.090109 -17.526091 0.722 255 255 0
5.119654 -16.992327 0.716 255 255 0
5.126255 -17.300964 0.721 255 255 0
5.082469 -17.413332 0.721 255 255 0
4.879607 -17.743187 0.718 255 255 0
4.904114 -17.814035 0.719 255 255 0
5.090382 -17.726004 0.725 255 255 0
5.075825 -17.228128 0.718 255 255 0
5.11053 -17.604958 0.724 255 255 0
5.054827 -17.225288 0.717 255 255 0
4.927853 -17.809296 0.72 255 255 0
5.072548 -17.659679 0.723 255 255 0
5.101681 -17.474749 0.722 255 255 0
4.895234 -17.864504 0.72 255 255 0
4.889751 -17.879669 0.72 255 255 0
5.091069 -17.281912 0.719 255 255 0
5.108614 -17.150562 0.718 255 255 0
4.98898 -17.828094 0.723 255 255 0
5.120349 -17.136339 0.718 255 255 0
5.050893 -17.684559 0.723 255 255 0
5.116225 -17.444 0.722 255 255 0
5.100837 -17.291378 0.72 255 255 0
5.008947 -17.672165 0.721 255 255 0
5.06595 -17.762938 0.725 255 255 0
5.048178 -17.570944 0.721 255 255 0
5.110031 -17.317387 0.72 255 255 0
5.123655 -16.995489 0.717 255 255 0
5.05624 -17.451593 0.72 255 255 0
5.021931 -17.611441 0.721 255 255 0
5.007144 -17.732975 0.722 255 255 0
5.036047 -17.460386 0.72 255 255 0
4.906138 -17.724157 0.718 255 255 0
5.071793 -17.405649 0.72 255 255 0
5.100246 -17.074469 0.717 255 255 0
4.969353 -17.46793 0.717 255 255 0
5.114753 -17.57905 0.724 255 255 0
5.127472 -17.670828 0.726 255 255 0
4.959446 -17.535833 0.718 255 255 0
5.016398 -17.397625 0.718 255 255 0
4.884423 -17.874708 0.72 255 255 0
4.985739 -17.783796 0.722 255 255 0
5.060032 -17.776756 0.724 255 255 0
5.058165 -17.787029 0.725 255 255 0
5.01628 -17.413277 0.718 255 255 0
5.021154 -17.654816 0.722 255 255 0
5.02914 -17.663374 0.722 255 255 0
5.023467 -17.762615 0.723 255 255 0
5.068975 -17.541136 0.722 255 255 0
4.893609 -17.783991 0.719 255 255 0
5.052561 -17.405951 0.719 255 255 0
5.125979 -17.396221 0.722 255 255 0
5.107175 -17.045452 0.717 255 255 0
5.122211 -17.421236 0.722 255 255 0
4.941901 -17.667185 0.719 255 255 0
5.092936 -17.743017 0.725 255 255 0
5.096054 -17.391073 0.721 255 255 0
5.122807 -17.107288 0.718 255 255 0
5.123038 -17.606842 0.725 255 255 0
4.940247 -17.767351 0.72 255 255 0
5.035542 -17.703672 0.723 255 255 0
5.049213 -17.198858 0.717 255 255 0
5.112072 -17.225275 0.719 255 255 0
5.023115 -17.514402 0.72 255 255 0
5.12261 -17.722223 0.726 255 255 0
4.938664 -17.563402 0.717 255 255 0
4.845554 -17.869493 0.718 255 255 0
4.994394 -17.821877 0.723 255 255 0
4.870302 -17.849556 0.719 255 255 0
4.930582 -17.744469 0.719 255 255 0
5.031931 -17.413395 0.719 255 255 0
4.957023 -17.796101 0.721 255 255 0
5.1211 -16.978474 0.716 255 255 0
5.06741 -17.80633 0.725 255 255 0
4.990003 -17.398767 0.717 255 255 0
5.109865 -17.280266 0.72 255 255 0
5.108778 -17.42337 0.722 255 255 0
4.995859 -17.570099 0.72 255 255 0
4.976833 -17.484087 0.718 255 255 0
5.076982 -17.723665 0.724 255 255 0
4.881288 -17.757511 0.718 255 255 0
5.006809 -17.718214 0.722 255 255 0
5.021638 -17.473246 0.719 255 255 0
5.005859 -17.607742 0.72 255 255 0
4.998205 -17.437737 0.718 255 255 0
4.897126 -17.733032 0.718 255 255 0
5.119518 -17.481592 0.723 255 255 0
5.069795 -17.610016 0.723 255 255 0
5.083911 -17.45896 0.721 255 255 0
4.989613 -17.450193 0.718 255 255 0
5.084926 -17.148592 0.717 255 255 0
4.97668 -17.739899 0.721 255 255 0
5.091315 -17.603024 0.723 255 255 0
5.00702 -17.808107 0.723 255 255 0
4.983109 -17.423311 0.717 255 255 0
5.085795 -17.210764 0.718 255 255 0
4.942194 -17.80538 0.721 255 255 0
4.98719 -17.474773 0.718 255 255 0
4.928091 -17.77799 0.72 255 255 0
5.113077 -17.505245 0.723 255 255 0
4.971988 -17.533245 0.718 255 255 0
5.092367 -17.46439 0.722 255 255 0
4.90957 -17.68438 0.718 255 255 0
5.023586 -17.275587 0.717 255 255 0
4.837921 -17.873461 0.718 255 255 0
5.101223 -17.299431 0.72 255 255 0
5.075659 -17.426697 0.72 255 255 0
4.865818 -17.792276 0.718 255 255 0
5.068149 -17.591219 0.722 255 255 0
4.928485 -17.667082 0.718 255 255 0
5.028142 -17.264441 0.717 255 255 0
5.112682 -17.380466 0.721 255 255 0
4.968126 -17.688402 0.72 255 255 0
4.899044 -17.716053 0.718 255 255 0
5.055917 -17.25839 0.718 255 255 0
5.033319 -17.525213 0.72 255 255 0
5.06867 -17.581385 0.722 255 255 0
4.967987 -17.530085 0.718 255 255 0
5.013988 -17.479448 0.719 255 255 0
5.093 -17.086489 0.717 255 255 0
5.101159 -17.248896 0.719 255 255 0
4.939806 -17.825487 0.721 255 255 0
5.058603 -17.316998 0.718 255 255 0
5.067508 -17.616707 0.723 255 255 0
5.019067 -17.458467 0.719 255 255 0
4.952013 -17.572449 0.718 255 255 0
5.078209 -17.267504 0.719 255 255 0
4.975739 -17.510466 0.718 255 255 0
5.102164 -17.528866 0.723 255 255 0
4.977932 -17.633915 0.72 255 255 0
5.084051 -17.38159 0.72 255 255 0
5.051991 -17.834389 0.725 255 255 0
5.051979 -17.305767 0.718 255 255 0
5.085147 -17.119524 0.717 255 255 0
4.969611 -17.846285 0.722 255 255 0
5.08139 -17.673162 0.724 255 255 0
5.068192 -17.467785 0.721 255 255 0
4.949186 -17.591211 0.718 255 255 0
5.063032 -17.440466 0.72 255 255 0
4.945384 -17.856386 0.721 255 255 0
5.125457 -17.641745 0.725 255 255 0
5.055314 -17.219925 0.717 255 255 0
5.041372 -17.760515 0.724 255 255 0
5.090424 -17.60257 0.723 255 255 0
5.018476 -17.712934 0.722 255 255 0
5.114372 -17.04014 0.717 255 255 0
5.125831 -17.121176 0.718 255 255 0
5.066864 -17.465986 0.721 255 255 0
5.03895 -17.313717 0.718 255 255 0
5.125802 -17.301853 0.721 255 255 0
5.061364 -17.719074 0.724 255 255 0
5.086232 -17.447798 0.721 255 255 0
4.973388 -17.702307 0.72 255 255 0
5.115415 -17.727535 0.726 255 255 0
5.061156 -17.805387 0.725 255 255 0
4.892247 -17.786663 0.719 255 255 0
5.055865 -17.500786 0.721 255 255 0
4.986388 -17.403658 0.717 255 255 0
4.922902 -17.695662 0.719 255 255 0
5.013458 -17.608246 0.721 255 255 0
4.926219 -17.847744 0.721 255 255 0
4.949912 -17.790232 0.721 255 255 0
4.90391 -17.840866 0.72 255 255 0
5.116794 -17.486938 0.723 255 255 0
5.063193 -17.537067 0.721 255 255 0
4.864791 -17.809711 0.718 255 255 0
5.057389 -17.594715 0.722 255 255 0
4.889955 -17.852837 0.719 255 255 0
4.940208 -17.831303 0.721 255 255 0
4.92448 -17.723402 0.719 255 255 0
5.117778 -17.121561 0.718 255 255 0
5.034647 -17.527012 0.72 255 255 0
4.986138 -17.613405 0.72 255 255 0
5.006219 -17.501305 0.719 255 255 0
5.047999 -17.476576 0.72 255 255 0
5.040205 -17.619631 0.722 255 255 0
5.08249 -17.115927 0.717 255 255 0
5.075374 -17.405228 0.72 255 255 0
4.99375 -17.435467 0.718 255 255 0
5.071734 -17.29563 0.719 255 255 0
5.109831 -17.049051 0.717 255 255 0
4.953251 -17.644909 0.719 255 255 0
5.012172 -17.718702 0.722 255 255 0
5.109704 -17.419353 0.722 255 255 0
4.97248 -17.468401 0.717 255 255 0
4.853708 -17.855692 0.718 255 255 0
4.96637 -17.566298 0.718 255 255 0
5.076277 -17.698616 0.724 255 255 0
5.071993 -17.438297 0.721 255 255 0
5.070388 -17.767445 0.725 255 255 0
5.060638 -17.755741 0.724 255 255 0
5.084909 -17.150829 0.717 255 255 0
5.07814 -17.747826 0.725 255 255 0
5.005667 -17.691818 0.721 255 255 0
5.047846 -17.261013 0.717 255 255 0
4.976647 -17.508682 0.718 255 255 0
5.022839 -17.609659 0.721 255 255 0
4.937603 -17.58531 0.718 255 255 0
4.91439 -17.75642 0.719 255 255 0
5.06937 -17.665916 0.723 255 255 0
5.027082 -17.757723 0.723 255 255 0
5.065629 -17.569733 0.722 255 255 0
5.121045 -17.044662 0.717 255 255 0
5.062272 -17.717293 0.724 255 255 0
4.881012 -17.852768 0.719 255 255 0
4.898954 -17.786715 0.719 255 255 0
5.115673 -17.398827 0.722 255 255 0
4.997029 -17.651503 0.721 255 255 0
5.11259 -17.039232 0.717 255 255 0
5.108511 -17.399666 0.721 255 255 0
4.992545 -17.594223 0.72 255 255 0
5.061317 -17.666302 0.723 255 255 0
5.012583 -17.605556 0.721 255 255 0
4.973795 -17.648643 0.72 255 255 0
5.089741 -17.515802 0.722 255 255 0
5.025775 -17.458519 0.719 255 255 0
5.122996 -17.730276 0.726 255 255 0
4.958652 -17.581444 0.718 255 255 0
5.103123 -17.756063 0.726 255 255 0
5.004183 -17.769625 0.722 255 255 0
5.115372 -17.143904 0.718 255 255 0
5.044974 -17.227001 0.717 255 255 0
4.966094 -17.661554 0.72 255 255 0
4.853004 -17.830641 0.718 255 255 0
5.071241 -17.596163 0.723 255 255 0
5.121287 -17.660944 0.725 255 255 0
5.100264 -17.307922 0.72 255 255 0
4.930882 -17.7637 0.72 255 255 0
5.022495 -17.71386 0.722 255 255 0
5.093772 -17.338284 0.72 255 255 0
5.054719 -17.533873 0.721 255 255 0
5.112101 -17.751661 0.726 255 255 0
4.908263 -17.856552 0.72 255 255 0
5.100636 -17.730106 0.725 255 255 0
4.943993 -17.804052 0.721 255 255 0
4.977271 -17.485432 0.718 255 255 0
5.053871 -17.645674 0.723 255 255 0
5.004335 -17.7495 0.722 255 255 0
4.990105 -17.856728 0.723 255 255 0
4.999613 -17.487837 0.719 255 255 0
4.984471 -17.420639 0.717 255 255 0
5.064653 -17.58046 0.722 255 255 0
5.07506 -17.800127 0.725 255 255 0
5.111613 -17.285646 0.72 255 255 0
5.123103 -17.186003 0.719 255 255 0
4.977682 -17.843662 0.722 255 255 0
4.887987 -17.876524 0.72 255 255 0
4.987262 -17.406347 0.717 255 255 0
5.006016 -17.528137 0.719 255 255 0
5.049336 -17.359413 0.719 255 255 0
5.032759 -17.363312 0.718 255 255 0
5.098192 -17.816402 0.726 255 255 0
5.114189 -17.476631 0.723 255 255 0
5.047376 -17.499828 0.72 255 255 0
4.949933 -17.728516 0.72 255 255 0
5.024892 -17.339104 0.718 255 255 0
5.119942 -17.425692 0.722 255 255 0
5.119827 -17.617552 0.725 255 255 0
4.986482 -17.509205 0.718 255 255 0
4.909019 -17.874895 0.72 255 255 0
4.996673 -17.46277 0.718 255 255 0
5.062802 -17.824184 0.725 255 255 0
5.033671 -17.30205 0.717 255 255 0
4.991097 -17.608076 0.72 255 255 0
5.0446 -17.511881 0.721 255 255 0
4.982018 -17.625896 0.72 255 255 0
5.042844 -17.389774 0.719 255 255 0
4.935253 -17.777151 0.72 255 255 0
5.048729 -17.380428 0.719 255 255 0
5.113404 -17.167593 0.719 255 255 0
5.065349 -17.724472 0.724 255 255 0
4.956548 -17.858707 0.722 255 255 0
5.076206 -17.295664 0.719 255 255 0
5.117104 -17.622896 0.725 255 255 0
5.050965 -17.616133 0.722 255 255 0
5.10578 -17.052597 0.717 255 255 0
4.899846 -17.787169 0.719 255 255 0
5.093279 -17.403128 0.721 255 255 0
5.069715 -17.326025 0.719 255 255 0
4.968335 -17.602091 0.719 255 255 0
4.933364 -17.84914 0.721 255 255 0
4.998531 -17.807148 0.723 255 255 0
5.006402 -17.53619 0.719 255 255 0
5.115623 -17.169846 0.719 255 255 0
4.982332 -17.702374 0.721 255 255 0
4.933382 -17.846905 0.721 255 255 0
5.042284 -17.227875 0.717 255 255 0
4.961559 -17.610983 0.719 255 255 0
4.988208 -17.811989 0.722 255 255 0
4.976387 -17.837391 0.722 255 255 0
5.030238 -17.341827 0.718 255 255 0
4.985328 -17.661253 0.72 255 255 0
5.099708 -17.557919 0.723 255 255 0
4.933933 -17.656389 0.718 255 255 0
5.032546 -17.509106 0.72 255 255 0
5.109292 -17.532497 0.723 255 255 0
5.030332 -17.447372 0.719 255 255 0
4.966425 -17.735796 0.721 255 255 0
4.919252 -17.705027 0.719 255 255 0
5.089223 -17.466156 0.722 255 255 0
4.923891 -17.742182 0.719 255 255 0
4.979056 -17.662546 0.72 255 255 0
5.116543 -17.460997 0.722 255 255 0
5.050994 -17.671143 0.723 255 255 0
5.028928 -17.337791 0.718 255 255 0
5.11171 -17.5674 0.724 255 255 0
5.026661 -17.754141 0.723 255 255 0
5.089715 -17.637001 0.724 255 255 0
5.089817 -17.387896 0.721 255 255 0
5.001327 -17.497688 0.719 255 255 0
5.016644 -17.483047 0.719 255 255 0
4.88483 -17.821045 0.719 255 255 0
5.088027 -17.505951 0.722 255 255 0
5.099861 -17.302105 0.72 255 255 0
5.079902 -17.81045 0.726 255 255 0
5.002247 -17.788841 0.723 255 255 0
4.973032 -17.513575 0.718 255 255 0
4.897041 -17.744213 0.718 255 255 0
5.040532 -17.281977 0.717 255 255 0
5.071416 -17.278633 0.718 255 255 0
5.065629 -17.805422 0.725 255 255 0
5.118164 -17.365303 0.721 255 255 0
5.069578 -17.579603 0.722 255 255 0
4.933165 -17.580803 0.717 255 255 0
5.068624 -17.528612 0.722 255 255 0
5.07921 -17.371267 0.72 255 255 0
5.105753 -17.173796 0.718 255 255 0
4.828823 -17.893517 0.718 255 255 0
5.028885 -17.696915 0.722 255 255 0
5.030128 -17.709894 0.723 255 255 0
5.011091 -17.330948 0.717 255 255 0
5.010586 -17.338547 0.717 255 255 0
5.11491 -17.263758 0.72 255 255 0
5.026046 -17.422743 0.719 255 255 0
5.051436 -17.377317 0.719 255 255 0
4.93656 -17.604979 0.718 255 255 0
5.118232 -17.356358 0.721 255 255 0
5.065875 -17.655155 0.723 255 255 0
5.109487 -17.388939 0.721 255 255 0
5.074492 -17.5215 0.722 255 255 0
4.85507 -17.853018 0.718 255 255 0
5.017391 -17.620352 0.721 255 255 0
5.088667 -17.244776 0.719 255 255 0
5.018732 -17.443707 0.719 255 255 0
5.055993 -17.366173 0.719 255 255 0
5.119544 -17.124706 0.718 255 255 0
4.864926 -17.791822 0.718 255 255 0
5.119267 -17.219963 0.719 255 255 0
5.060575 -17.705204 0.724 255 255 0
4.971521 -17.712578 0.721 255 255 0
5.000339 -17.45117 0.718 255 255 0
5.015512 -17.337688 0.717 255 255 0
5.066744 -17.481638 0.721 255 255 0
5.035661 -17.452333 0.719 255 255 0
4.945299 -17.867567 0.722 255 255 0
5.122797 -17.461939 0.723 255 255 0
4.931519 -17.797695 0.72 255 255 0
5.03385 -17.396416 0.719 255 255 0
5.022941 -17.831932 0.724 255 255 0
5.115097 -17.239161 0.719 255 255 0
4.99296 -17.421597 0.718 255 255 0
5.123993 -17.657833 0.725 255 255 0
5.07585 -17.342619 0.719 255 255 0
5.081544 -17.181662 0.718 255 255 0
4.976947 -17.763603 0.721 255 255 0
4.985446 -17.645599 0.72 255 255 0
5.123934 -17.547815 0.724 255 255 0
5.039595 -17.228748 0.717 255 255 0
4.898335 -17.750484 0.718 255 255 0
5.116085 -17.285681 0.72 255 255 0
5.105121 -17.787386 0.726 255 255 0
5.057402 -17.65196 0.723 255 255 0
5.083971 -17.33329 0.72 255 255 0
4.977639 -17.731409 0.721 255 255 0
5.059901 -17.499475 0.721 255 255 0
5.03135 -17.548901 0.721 255 255 0
5.116043 -17.644804 0.725 255 255 0
5.103675 -17.56555 0.723 255 255 0
5.090488 -17.18173 0.718 255 255 0
5.085265 -17.575249 0.723 255 255 0
4.957384 -17.689663 0.72 255 255 0
5.083199 -17.317184 0.719 255 255 0
5.111468 -17.658186 0.725 255 255 0
5.050604 -17.486883 0.72 255 255 0
5.059247 -17.703405 0.724 255 255 0
5.100976 -17.685387 0.725 255 255 0
5.026522 -17.360134 0.718 255 255 0
5.067623 -17.189159 0.717 255 255 0
5.046884 -17.328983 0.718 255 255 0
4.955377 -17.541616 0.718 255 255 0
5.088133 -17.197365 0.718 255 255 0
5.008634 -17.595688 0.72 255 255 0
5.066986 -17.626541 0.723 255 255 0
5.123544 -17.363554 0.721 255 255 0
5.102881 -17.375473 0.721 255 255 0
4.993443 -17.711403 0.721 255 255 0
5.032945 -17.810093 0.724 255 255 0
5.037727 -17.239021 0.717 255 255 0
4.941329 -17.683727 0.719 255 255 0
5.098481 -17.778391 0.726 255 255 0
5.102351 -17.739958 0.726 255 255 0
5.097243 -17.234554 0.719 255 255 0
5.103068 -17.350876 0.72 255 255 0
5.114129 -17.366613 0.721 255 255 0
4.906342 -17.697327 0.718 255 255 0
5.099156 -17.277056 0.719 255 255 0
4.939168 -17.791492 0.72 255 255 0
5.052908 -17.242268 0.717 255 255 0
5.018185 -17.339052 0.717 255 255 0
4.985353 -17.540054 0.719 255 255 0
5.060037 -17.245899 0.718 255 255 0
5.076877 -17.325186 0.719 255 255 0
5.08851 -17.795755 0.726 255 255 0
5.009538 -17.417698 0.718 255 255 0
5.072265 -17.63821 0.723 255 255 0
4.961363 -17.518852 0.718 255 255 0
4.977923 -17.752878 0.721 255 255 0
5.042678 -17.824032 0.724 255 255 0
4.904924 -17.766188 0.719 255 255 0
4.987084 -17.78336 0.722 255 255 0
5.059048 -17.199379 0.717 255 255 0
5.106763 -17.629974 0.724 255 255 0
5.033064 -17.794441 0.724 255 255 0
5.070614 -17.207518 0.717 255 255 0
5.007378 -17.525463 0.719 255 255 0
5.062281 -17.834019 0.725 255 255 0
5.126786 -17.643543 0.725 255 255 0
5.081144 -17.352053 0.72 255 255 0
4.954316 -17.79921 0.721 255 255 0
5.03704 -17.447424 0.719 255 255 0
5.106633 -17.117004 0.718 255 255 0
5.006674 -17.500412 0.719 255 255 0
5.117719 -17.011543 0.717 255 255 0
5.074021 -17.288939 0.719 255 255 0
4.989817 -17.423363 0.717 255 255 0
4.916775 -17.795794 0.72 255 255 0
5.079227 -17.133343 0.717 255 255 0
5.101162 -17.660789 0.724 255 255 0
4.981233 -17.788235 0.722 255 255 0
5.102953 -17.307049 0.72 255 255 0
4.888029 -17.75309 0.718 255 255 0
5.097013 -17.618273 0.724 255 255 0
5.055179 -17.237812 0.717 255 255 0
4.978688 -17.416571 0.717 255 255 0
5.122623 -17.072403 0.718 255 255 0
5.057512 -17.755272 0.724 255 255 0
5.110175 -17.651915 0.725 255 255 0
5.095019 -17.763159 0.726 255 255 0
5.050129 -17.54949 0.721 255 255 0
5.08731 -17.187967 0.718 255 255 0
4.852397 -17.851656 0.718 255 255 0
4.976443 -17.535515 0.718 255 255 0
4.944562 -17.846989 0.721 255 255 0
5.08537 -17.738041 0.725 255 255 0
4.987326 -17.456886 0.718 255 255 0
4.94813 -17.553637 0.718 255 255 0
5.080003 -17.561344 0.722 255 255 0
5.042064 -17.728319 0.723 255 255 0
5.055196 -17.235577 0.717 255 255 0
5.09182 -17.359735 0.72 255 255 0
4.853522 -17.880287 0.719 255 255 0
5.056264 -17.566084 0.722 255 255 0
5.048619 -17.512808 0.721 255 255 0
4.867396 -17.820017 0.718 255 255 0
4.989846 -17.478371 0.718 255 255 0
4.889119 -17.786194 0.719 255 255 0
4.874575 -17.81694 0.718 255 255 0
5.111613 -17.285646 0.72 255 255 0
5.056158 -17.638981 0.723 255 255 0
5.097573 -17.308796 0.72 255 255 0
4.935376 -17.702019 0.719 255 255 0
4.956051 -17.747345 0.72 255 255 0
5.002159 -17.623814 0.72 255 255 0
5.015036 -17.635986 0.721 255 255 0
5.115517 -17.007055 0.717 255 255 0
4.9066 -17.839993 0.72 255 255 0
5.084794 -17.342688 0.72 255 255 0
4.961898 -17.80195 0.721 255 255 0
5.087047 -17.811846 0.726 255 255 0
5.080008 -17.737553 0.725 255 255 0
5.10715 -17.40234 0.721 255 255 0
5.088961 -17.147282 0.717 255 255 0
4.974796 -17.752407 0.721 255 255 0
5.121779 -17.360411 0.721 255 255 0
5.025453 -17.501003 0.72 255 255 0
4.927094 -17.850435 0.721 255 255 0
5.03511 -17.407158 0.719 255 255 0
4.982845 -17.575813 0.719 255 255 0
5.054063 -17.325907 0.718 255 255 0
5.086414 -17.71837 0.725 255 255 0
5.039989 -17.824905 0.724 255 255 0
5.024243 -17.71924 0.722 255 255 0
4.933631 -17.637157 0.718 255 255 0
5.020717 -17.417782 0.718 255 255 0
5.045818 -17.41037 0.719 255 255 0
4.894746 -17.869867 0.72 255 255 0
5.09751 -17.258259 0.719 255 255 0
5.080369 -17.159739 0.717 255 255 0
5.084569 -17.431236 0.721 255 255 0
5.119347 -17.739641 0.726 255 255 0
5.109059 -17.268633 0.72 255 255 0
5.103433 -17.184958 0.718 255 255 0
5.082724 -17.144104 0.717 255 255 0
5.060015 -17.778992 0.725 255 255 0
4.996015 -17.726181 0.722 255 255 0
5.094671 -17.455463 0.722 255 255 0
4.961885 -17.744705 0.721 255 255 0
4.870875 -17.833014 0.719 255 255 0
4.880176 -17.786125 0.718 255 255 0
4.930874 -17.646975 0.718 255 255 0
4.988646 -17.577646 0.719 255 255 0
5.10953 -17.029818 0.717 255 255 0
5.092665 -17.071728 0.717 255 255 0
5.08478 -17.521132 0.722 255 255 0
5.015074 -17.572033 0.72 255 255 0
5.080504 -17.377539 0.72 255 255 0
