ply
format ascii 1.0
element vertex 1304
property double x
property double y
property double z
property uchar red
property uchar green
property uchar blue
element face 0
property list uchar int vertex_indices
end_header
3.081253 -20.990711 2.473 76 189 237
3.098051 -20.957743 2.873 76 189 237
2.999552 -21.148855 2.555 76 189 237
3.078983 -20.995165 2.42 76 189 237
3.080345 -20.992493 2.537 76 189 237
2.995012 -21.157766 2.789 76 189 237
3.138002 -20.879335 2.77 76 189 237
3.103045 -20.947943 2.425 76 189 237
2.92646 -21.292307 2.742 76 189 237
2.911024 -21.322601 2.609 76 189 237
2.90603 -21.332403 2.716 76 189 237
3.189303 -20.77865 2.434 76 189 237
2.9083 -21.327948 2.747 76 189 237
2.965503 -21.215681 2.56 76 189 237
2.944165 -21.257559 2.594 76 189 237
3.15253 -20.850822 2.755 76 189 237
3.087155 -20.979128 2.588 76 189 237
3.041756 -21.068228 2.372 76 189 237
2.878337 -21.386755 2.694 76 189 237
2.979577 -21.188059 2.854 76 189 237
2.896497 -21.351114 2.854 76 189 237
3.198837 -20.759939 2.357 76 189 237
3.021326 -21.108324 2.472 76 189 237
2.896497 -21.351114 2.766 76 189 237
3.147535 -20.860624 2.449 76 189 237
3.164787 -20.826765 2.706 76 189 237
3.11848 -20.917648 2.332 76 189 237
2.944619 -21.256668 2.525 76 189 237
3.109855 -20.934576 2.36 76 189 237
2.876067 -21.391209 2.829 76 189 237
3.183855 -20.789341 2.591 76 189 237
3.142542 -20.870424 2.784 76 189 237
3.010902 -21.126581 2.858 76 189 237
3.009541 -21.129253 2.847 76 189 237
2.927367 -21.290525 2.885 76 189 237
3.160248 -20.835674 2.743 76 189 237
2.954607 -21.237064 2.527 76 189 237
3.004546 -21.139055 2.78 76 189 237
3.036308 -21.07892 2.621 76 189 237
3.174321 -20.808054 2.57 76 189 237
3.192027 -20.773304 2.659 76 189 237
3.122112 -20.910521 2.44 76 189 237
3.192481 -20.772413 2.477 76 189 237
2.893319 -21.357351 2.645 76 189 237
3.084885 -20.983582 2.61 76 189 237
2.950521 -21.245085 2.565 76 189 237
3.0277 -21.093613 2.9 76 189 237
3.16842 -20.819637 2.6 76 189 237
3.009541 -21.129253 2.657 76 189 237
3.024959 -21.101194 2.39 76 189 237
3.041756 -21.068228 2.583 76 189 237
2.997736 -21.15242 2.662 76 189 237
3.107131 -20.939922 2.442 76 189 237
3.017694 -21.115452 2.352 76 189 237
3.071719 -21.009422 2.643 76 189 237
3.045842 -21.060209 2.715 76 189 237
3.149806 -20.856169 2.63 76 189 237
3.025884 -21.097178 2.767 76 189 237
2.91057 -21.323492 2.851 76 189 237
3.091695 -20.970217 2.841 76 189 237
2.997283 -21.153311 2.446 76 189 237
3.089425 -20.97467 2.869 76 189 237
3.103499 -20.94705 2.478 76 189 237
3.049474 -21.053082 2.423 76 189 237
3.143904 -20.867752 2.473 76 189 237
3.12529 -20.904284 2.82 76 189 237
3.093057 -20.967545 2.633 76 189 237
2.933723 -21.278051 2.569 76 189 237
3.038595 -21.072229 2.734 76 189 237
3.006363 -21.13549 2.712 76 189 237
3.017712 -21.113214 2.674 76 189 237
3.114849 -20.924776 2.549 76 189 237
2.920558 -21.30389 2.625 76 189 237
3.047658 -21.056644 2.521 76 189 237
3.199745 -20.758156 2.349 76 189 237
3.144812 -20.865969 2.365 76 189 237
2.961871 -21.222809 2.796 76 189 237
2.977307 -21.192514 2.898 76 189 237
3.172505 -20.811619 2.36 76 189 237
2.827036 -21.487438 2.849 76 189 237
3.197021 -20.763504 2.492 76 189 237
3.109855 -20.934576 2.343 76 189 237
3.039486 -21.072683 2.384 76 189 237
3.059916 -21.032587 2.659 76 189 237
3.15253 -20.850822 2.664 76 189 237
3.192481 -20.772413 2.662 76 189 237
2.91511 -21.314583 2.758 76 189 237
2.847919 -21.446451 2.889 76 189 237
2.966865 -21.213009 2.554 76 189 237
2.891503 -21.360914 2.892 76 189 237
3.14572 -20.864187 2.788 76 189 237
3.209279 -20.739447 2.322 76 189 237
2.799796 -21.540899 2.891 76 189 237
2.964595 -21.217463 2.745 76 189 237
3.179315 -20.798252 2.454 76 189 237
3.051744 -21.048626 2.782 76 189 237
2.983663 -21.18004 2.647 76 189 237
3.152984 -20.849932 2.415 76 189 237
2.92646 -21.292307 2.666 76 189 237
2.983663 -21.18004 2.549 76 189 237
3.167058 -20.822309 2.658 76 189 237
2.956877 -21.232611 2.712 76 189 237
3.1775 -20.801815 2.609 76 189 237
3.098051 -20.957743 2.411 76 189 237
2.972313 -21.202316 2.683 76 189 237
2.929638 -21.28607 2.806 76 189 237
3.03313 -21.085157 2.34 76 189 237
2.969135 -21.208553 2.805 76 189 237
3.097597 -20.958633 2.881 76 189 237
3.151168 -20.853495 2.483 76 189 237
3.175229 -20.806273 2.676 76 189 237
3.035854 -21.079811 2.697 76 189 237
2.833846 -21.474073 2.857 76 189 237
3.186125 -20.784887 2.388 76 189 237
3.128014 -20.898937 2.866 76 189 237
2.911932 -21.32082 2.613 76 189 237
3.095326 -20.963089 2.775 76 189 237
3.087155 -20.979128 2.744 76 189 237
2.909662 -21.325275 2.838 76 189 237
2.959147 -21.228155 2.72 76 189 237
3.13664 -20.882006 2.552 76 189 237
3.188395 -20.780434 2.339 76 189 237
3.147535 -20.860624 2.883 76 189 237
2.932362 -21.280724 2.681 76 189 237
3.111671 -20.931013 2.627 76 189 237
3.108947 -20.936359 2.864 76 189 237
2.889686 -21.364479 2.769 76 189 237
3.02316 -21.102524 2.713 76 189 237
3.024522 -21.09985 2.758 76 189 237
2.90149 -21.341312 2.722 76 189 237
2.94689 -21.252213 2.715 76 189 237
3.103045 -20.947943 2.736 76 189 237
3.177953 -20.800926 2.883 76 189 237
3.150714 -20.854385 2.727 76 189 237
3.164333 -20.827656 2.587 76 189 237
3.119389 -20.915865 2.476 76 189 237
3.009086 -21.130144 2.796 76 189 237
2.989565 -21.168457 2.507 76 189 237
3.039958 -21.069555 2.85 76 189 237
2.92646 -21.292307 2.689 76 189 237
3.088517 -20.976454 2.835 76 189 237
3.156615 -20.842804 2.697 76 189 237
3.054467 -21.04328 2.629 76 189 237
3.197021 -20.763504 2.336 76 189 237
2.993196 -21.161329 2.439 76 189 237
3.155253 -20.845476 2.717 76 189 237
2.846557 -21.449125 2.831 76 189 237
3.003184 -21.141727 2.69 76 189 237
2.864717 -21.413485 2.898 76 189 237
3.101682 -20.950615 2.847 76 189 237
2.913748 -21.317255 2.597 76 189 237
2.984116 -21.17915 2.658 76 189 237
2.994105 -21.159548 2.644 76 189 237
3.005436 -21.139509 2.392 76 189 237
3.175683 -20.805382 2.68 76 189 237
3.155708 -20.844585 2.478 76 189 237
3.19475 -20.76796 2.442 76 189 237
2.968227 -21.210335 2.506 76 189 237
2.905122 -21.334185 2.68 76 189 237
2.900582 -21.343096 2.808 76 189 237
3.117572 -20.91943 2.407 76 189 237
2.880607 -21.382299 2.828 76 189 237
3.114394 -20.925667 2.328 76 189 237
3.04221 -21.067337 2.522 76 189 237
3.178861 -20.799145 2.662 76 189 237
2.83203 -21.477636 2.874 76 189 237
3.170689 -20.815182 2.549 76 189 237
3.070358 -21.012093 2.562 76 189 237
3.057191 -21.037933 2.611 76 189 237
3.041302 -21.069118 2.489 76 189 237
3.036326 -21.076683 2.784 76 189 237
3.137548 -20.880226 2.582 76 189 237
2.8116 -21.517733 2.895 76 189 237
2.871527 -21.40012 2.764 76 189 237
3.126198 -20.9025 2.416 76 189 237
3.140272 -20.87488 2.339 76 189 237
2.958693 -21.229046 2.554 76 189 237
3.071265 -21.010313 2.843 76 189 237
3.144812 -20.865969 2.698 76 189 237
3.192935 -20.771523 2.498 76 189 237
3.054013 -21.04417 2.68 76 189 237
2.82749 -21.486547 2.811 76 189 237
3.117118 -20.920321 2.631 76 189 237
3.116664 -20.921211 2.877 76 189 237
3.025866 -21.099413 2.622 76 189 237
2.935994 -21.273596 2.738 76 189 237
2.976853 -21.193405 2.834 76 189 237
3.028608 -21.091831 2.896 76 189 237
2.974582 -21.197861 2.773 76 189 237
3.111216 -20.931904 2.645 76 189 237
3.167511 -20.821419 2.692 76 189 237
2.92192 -21.301218 2.783 76 189 237
3.009541 -21.129253 2.539 76 189 237
3.187487 -20.782215 2.376 76 189 237
3.160248 -20.835674 2.518 76 189 237
3.031314 -21.08872 2.427 76 189 237
2.944619 -21.256668 2.844 76 189 237
3.148444 -20.858841 2.714 76 189 237
3.204739 -20.748356 2.442 76 189 237
3.078529 -20.996056 2.454 76 189 237
3.019982 -21.108761 2.709 76 189 237
3.142996 -20.869532 2.556 76 189 237
2.918742 -21.307455 2.803 76 189 237
3.072627 -21.007639 2.66 76 189 237
3.139364 -20.876661 2.349 76 189 237
2.981847 -21.183605 2.589 76 189 237
3.031786 -21.085594 2.725 76 189 237
3.090786 -20.972 2.432 76 189 237
3.163426 -20.829437 2.871 76 189 237
2.988203 -21.171131 2.531 76 189 237
3.190665 -20.775978 2.42 76 189 237
2.989565 -21.168457 2.88 76 189 237
2.992289 -21.163111 2.748 76 189 237
2.94689 -21.252213 2.515 76 189 237
2.952337 -21.24152 2.487 76 189 237
3.097143 -20.959524 2.887 76 189 237
3.182039 -20.792908 2.765 76 189 237
3.036308 -21.07892 2.502 76 189 237
3.016787 -21.117231 2.437 76 189 237
3.012718 -21.123016 2.745 76 189 237
3.185217 -20.786671 2.566 76 189 237
3.118026 -20.918539 2.807 76 189 237
2.89695 -21.350224 2.648 76 189 237
3.15253 -20.850822 2.425 76 189 237
3.06264 -21.027241 2.719 76 189 237
2.961417 -21.2237 2.741 76 189 237
2.945074 -21.255775 2.616 76 189 237
2.948252 -21.249538 2.778 76 189 237
3.001368 -21.145292 2.511 76 189 237
2.876975 -21.389427 2.682 76 189 237
2.859269 -21.424177 2.89 76 189 237
3.126652 -20.901609 2.798 76 189 237
3.122566 -20.909628 2.606 76 189 237
2.971859 -21.203207 2.455 76 189 237
3.034038 -21.083376 2.317 76 189 237
2.98684 -21.173803 2.436 76 189 237
2.917834 -21.309237 2.716 76 189 237
3.00273 -21.142618 2.755 76 189 237
3.140272 -20.87488 2.876 76 189 237
3.042664 -21.066446 2.571 76 189 237
2.910116 -21.324385 2.693 76 189 237
3.03767 -21.076246 2.347 76 189 237
2.977307 -21.192514 2.864 76 189 237
3.058553 -21.035261 2.634 76 189 237
2.828852 -21.483873 2.88 76 189 237
3.049474 -21.053082 2.611 76 189 237
2.826581 -21.488329 2.86 76 189 237
2.966411 -21.2139 2.459 76 189 237
2.980485 -21.186277 2.871 76 189 237
2.986387 -21.174694 2.456 76 189 237
3.081253 -20.990711 2.553 76 189 237
3.078529 -20.996056 2.64 76 189 237
3.00046 -21.147074 2.856 76 189 237
2.963233 -21.220137 2.479 76 189 237
3.029499 -21.092283 2.467 76 189 237
3.161609 -20.833002 2.468 76 189 237
3.00273 -21.142618 2.887 76 189 237
3.131646 -20.891809 2.803 76 189 237
3.177953 -20.800926 2.722 76 189 237
3.029062 -21.09094 2.707 76 189 237
3.059916 -21.032587 2.622 76 189 237
3.033584 -21.084267 2.49 76 189 237
3.0354 -21.080702 2.61 76 189 237
3.17296 -20.810726 2.485 76 189 237
3.114849 -20.924776 2.417 76 189 237
3.209279 -20.739447 2.364 76 189 237
2.967773 -21.211226 2.766 76 189 237
2.988656 -21.17024 2.511 76 189 237
3.203377 -20.75103 2.452 76 189 237
3.063547 -21.025459 2.638 76 189 237
3.078075 -20.996948 2.705 76 189 237
3.034946 -21.081593 2.569 76 189 237
3.140272 -20.87488 2.727 76 189 237
3.033584 -21.084267 2.58 76 189 237
3.095326 -20.963089 2.563 76 189 237
3.02089 -21.106977 2.848 76 189 237
3.106677 -20.940813 2.415 76 189 237
2.821134 -21.499022 2.895 76 189 237
3.157977 -20.84013 2.555 76 189 237
2.940534 -21.264687 2.811 76 189 237
3.150714 -20.854385 2.707 76 189 237
2.86154 -21.419722 2.769 76 189 237
2.945074 -21.255775 2.599 76 189 237
3.190665 -20.775978 2.364 76 189 237
3.052651 -21.046844 2.777 76 189 237
3.183855 -20.789341 2.645 76 189 237
2.91057 -21.323492 2.607 76 189 237
3.109855 -20.934576 2.621 76 189 237
3.115756 -20.922995 2.688 76 189 237
3.08307 -20.987144 2.325 76 189 237
3.174775 -20.807163 2.869 76 189 237
2.935085 -21.275379 2.654 76 189 237
3.061732 -21.029024 2.397 76 189 237
3.114849 -20.924776 2.749 76 189 237
3.140726 -20.873989 2.777 76 189 237
3.188849 -20.779541 2.578 76 189 237
3.03313 -21.085157 2.519 76 189 237
3.040394 -21.0709 2.682 76 189 237
2.967319 -21.212116 2.586 76 189 237
3.197021 -20.763504 2.501 76 189 237
2.995467 -21.156874 2.642 76 189 237
3.110762 -20.932795 2.721 76 189 237
3.131192 -20.8927 2.628 76 189 237
3.093057 -20.967545 2.695 76 189 237
2.983663 -21.18004 2.881 76 189 237
3.148444 -20.858841 2.64 76 189 237
3.120296 -20.914083 2.89 76 189 237
3.100775 -20.952396 2.84 76 189 237
3.124836 -20.905174 2.749 76 189 237
2.985025 -21.177368 2.514 76 189 237
3.116664 -20.921211 2.347 76 189 237
3.057645 -21.037043 2.621 76 189 237
2.831576 -21.478527 2.888 76 189 237
2.996374 -21.155092 2.63 76 189 237
2.959147 -21.228155 2.868 76 189 237
2.880152 -21.38319 2.793 76 189 237
3.164333 -20.827656 2.333 76 189 237
2.899221 -21.345768 2.68 76 189 237
3.181131 -20.794689 2.702 76 189 237
2.886508 -21.370716 2.686 76 189 237
2.904215 -21.335966 2.887 76 189 237
3.097143 -20.959524 2.513 76 189 237
2.905577 -21.333294 2.837 76 189 237
2.939172 -21.267359 2.884 76 189 237
2.955061 -21.236174 2.609 76 189 237
3.142996 -20.869532 2.759 76 189 237
3.091241 -20.971107 2.444 76 189 237
3.077621 -20.997839 2.683 76 189 237
3.021344 -21.106087 2.707 76 189 237
2.933723 -21.278051 2.557 76 189 237
3.117118 -20.920321 2.626 76 189 237
3.096235 -20.961308 2.859 76 189 237
3.073081 -21.006748 2.731 76 189 237
3.075351 -21.002293 2.791 76 189 237
3.14572 -20.864187 2.445 76 189 237
3.059916 -21.032587 2.813 76 189 237
3.006816 -21.1346 2.718 76 189 237
2.95597 -21.234392 2.665 76 189 237
3.145266 -20.865078 2.593 76 189 237
3.131192 -20.8927 2.776 76 189 237
3.190211 -20.776867 2.367 76 189 237
3.01635 -21.115889 2.587 76 189 237
3.166604 -20.8232 2.84 76 189 237
3.158886 -20.838348 2.476 76 189 237
3.162971 -20.83033 2.754 76 189 237
2.989111 -21.169348 2.445 76 189 237
2.921012 -21.302999 2.815 76 189 237
3.175229 -20.806273 2.852 76 189 237
2.996828 -21.154202 2.835 76 189 237
2.888325 -21.367151 2.654 76 189 237
3.057191 -21.037933 2.32 76 189 237
2.860631 -21.421503 2.798 76 189 237
3.12756 -20.899828 2.367 76 189 237
3.078529 -20.996056 2.581 76 189 237
3.157977 -20.84013 2.787 76 189 237
3.052198 -21.047735 2.418 76 189 237
3.056284 -21.039715 2.401 76 189 237
2.890141 -21.363588 2.686 76 189 237
3.056284 -21.039715 2.376 76 189 237
3.116664 -20.921211 2.46 76 189 237
3.084885 -20.983582 2.82 76 189 237
2.93781 -21.270033 2.736 76 189 237
2.935994 -21.273596 2.771 76 189 237
2.995467 -21.156874 2.713 76 189 237
2.989565 -21.168457 2.444 76 189 237
3.024522 -21.09985 2.86 76 189 237
3.01635 -21.115889 2.862 76 189 237
3.12983 -20.895372 2.332 76 189 237
2.999552 -21.148855 2.777 76 189 237
3.116664 -20.921211 2.736 76 189 237
3.068996 -21.014767 2.692 76 189 237
3.159793 -20.836567 2.756 76 189 237
3.157524 -20.841021 2.687 76 189 237
3.154799 -20.846367 2.328 76 189 237
3.000914 -21.146183 2.709 76 189 237
2.862447 -21.41794 2.895 76 189 237
2.888779 -21.366261 2.685 76 189 237
3.124836 -20.905174 2.401 76 189 237
3.001822 -21.1444 2.826 76 189 237
3.15253 -20.850822 2.709 76 189 237
3.131192 -20.8927 2.439 76 189 237
3.113033 -20.928339 2.629 76 189 237
3.186579 -20.783997 2.508 76 189 237
3.050382 -21.051298 2.609 76 189 237
3.044934 -21.061991 2.421 76 189 237
3.130738 -20.893591 2.775 76 189 237
3.151168 -20.853495 2.699 76 189 237
2.990018 -21.167566 2.652 76 189 237
3.028153 -21.092722 2.786 76 189 237
3.064002 -21.024567 2.706 76 189 237
3.1094 -20.935469 2.565 76 189 237
3.156162 -20.843695 2.71 76 189 237
3.062185 -21.028133 2.818 76 189 237
3.167511 -20.821419 2.53 76 189 237
3.094873 -20.96398 2.845 76 189 237
3.073989 -21.004967 2.384 76 189 237
2.852913 -21.436651 2.75 76 189 237
2.978669 -21.189842 2.87 76 189 237
3.142542 -20.870424 2.492 76 189 237
2.972767 -21.201426 2.831 76 189 237
3.051289 -21.049517 2.569 76 189 237
3.015442 -21.11767 2.611 76 189 237
3.165242 -20.825874 2.849 76 189 237
3.008614 -21.133272 2.351 76 189 237
3.059462 -21.033478 2.746 76 189 237
3.117572 -20.91943 2.684 76 189 237
2.981393 -21.184496 2.723 76 189 237
3.040411 -21.068665 2.769 76 189 237
2.934632 -21.27627 2.69 76 189 237
3.136186 -20.882898 2.694 76 189 237
3.047658 -21.056644 2.669 76 189 237
3.024068 -21.10074 2.683 76 189 237
3.068087 -21.01655 2.66 76 189 237
3.004983 -21.1404 2.359 76 189 237
3.174321 -20.808054 2.637 76 189 237
3.175229 -20.806273 2.589 76 189 237
2.974129 -21.198751 2.705 76 189 237
2.833392 -21.474964 2.791 76 189 237
3.1321 -20.890917 2.827 76 189 237
3.188849 -20.779541 2.458 76 189 237
3.084431 -20.984474 2.481 76 189 237
3.071719 -21.009422 2.543 76 189 237
3.142542 -20.870424 2.363 76 189 237
3.133008 -20.889135 2.708 76 189 237
2.885147 -21.373388 2.848 76 189 237
2.99592 -21.155983 2.491 76 189 237
3.133008 -20.889135 2.693 76 189 237
3.178861 -20.799145 2.372 76 189 237
3.057645 -21.037043 2.519 76 189 237
2.992289 -21.163111 2.557 76 189 237
3.131646 -20.891809 2.763 76 189 237
3.097143 -20.959524 2.37 76 189 237
2.962779 -21.221027 2.506 76 189 237
2.988203 -21.171131 2.517 76 189 237
3.142996 -20.869532 2.619 76 189 237
3.187033 -20.783104 2.699 76 189 237
3.000914 -21.146183 2.507 76 189 237
2.898313 -21.347549 2.683 76 189 237
2.931454 -21.282507 2.879 76 189 237
3.1775 -20.801815 2.35 76 189 237
2.819318 -21.502584 2.86 76 189 237
3.196112 -20.765285 2.36 76 189 237
3.155708 -20.844585 2.713 76 189 237
2.972767 -21.201426 2.775 76 189 237
3.141634 -20.872206 2.72 76 189 237
3.055376 -21.041498 2.619 76 189 237
2.983209 -21.180931 2.467 76 189 237
3.066725 -21.019222 2.574 76 189 237
3.060823 -21.030806 2.802 76 189 237
3.173867 -20.808945 2.407 76 189 237
3.08307 -20.987144 2.694 76 189 237
2.884692 -21.374281 2.83 76 189 237
2.957785 -21.230827 2.665 76 189 237
2.882877 -21.377844 2.706 76 189 237
2.893319 -21.357351 2.898 76 189 237
3.06264 -21.027241 2.701 76 189 237
3.050382 -21.051298 2.499 76 189 237
3.075805 -21.001402 2.64 76 189 237
3.182947 -20.791124 2.382 76 189 237
3.047676 -21.054409 2.89 76 189 237
3.177045 -20.802708 2.547 76 189 237
3.024959 -21.101194 2.509 76 189 237
3.181585 -20.793798 2.603 76 189 237
3.140726 -20.873989 2.482 76 189 237
3.034038 -21.083376 2.388 76 189 237
3.01635 -21.115889 2.889 76 189 237
2.981393 -21.184496 2.616 76 189 237
3.151622 -20.852604 2.767 76 189 237
3.053577 -21.042826 2.85 76 189 237
3.088971 -20.975563 2.432 76 189 237
2.895588 -21.352896 2.785 76 189 237
3.185671 -20.785778 2.636 76 189 237
3.04902 -21.053972 2.363 76 189 237
3.086247 -20.980907 2.871 76 189 237
3.115302 -20.923885 2.369 76 189 237
2.985025 -21.177368 2.65 76 189 237
2.827036 -21.487438 2.827 76 189 237
3.171143 -20.814291 2.628 76 189 237
2.873343 -21.396555 2.725 76 189 237
3.098051 -20.957743 2.414 76 189 237
3.12756 -20.899828 2.67 76 189 237
3.062185 -21.028133 2.4 76 189 237
3.155253 -20.845476 2.59 76 189 237
3.116211 -20.922102 2.736 76 189 237
2.971405 -21.204098 2.662 76 189 237
3.100321 -20.953287 2.808 76 189 237
3.045842 -21.060209 2.739 76 189 237
3.119389 -20.915865 2.85 76 189 237
3.017258 -21.114107 2.833 76 189 237
3.068087 -21.01655 2.393 76 189 237
3.026321 -21.09852 2.562 76 189 237
3.007253 -21.135942 2.394 76 189 237
3.045388 -21.0611 2.663 76 189 237
3.047658 -21.056644 2.397 76 189 237
2.853822 -21.434868 2.776 76 189 237
3.155708 -20.844585 2.359 76 189 237
3.092149 -20.969326 2.675 76 189 237
3.019982 -21.108761 2.708 76 189 237
2.911478 -21.321711 2.632 76 189 237
3.13891 -20.877552 2.427 76 189 237
2.934178 -21.277161 2.614 76 189 237
3.08307 -20.987144 2.628 76 189 237
3.197474 -20.762613 2.565 76 189 237
2.856999 -21.428631 2.789 76 189 237
3.206555 -20.744793 2.369 76 189 237
3.000914 -21.146183 2.858 76 189 237
3.167058 -20.822309 2.781 76 189 237
3.187941 -20.781324 2.513 76 189 237
3.016804 -21.114998 2.847 76 189 237
2.922374 -21.300327 2.595 76 189 237
3.100321 -20.953287 2.467 76 189 237
2.805698 -21.529316 2.875 76 189 237
2.992289 -21.163111 2.458 76 189 237
3.114394 -20.925667 2.725 76 189 237
2.909208 -21.326166 2.873 76 189 237
3.204739 -20.748356 2.42 76 189 237
3.178861 -20.799145 2.649 76 189 237
3.195659 -20.766176 2.398 76 189 237
3.19475 -20.76796 2.34 76 189 237
2.996828 -21.154202 2.815 76 189 237
3.007707 -21.135054 2.428 76 189 237
3.073081 -21.006748 2.859 76 189 237
3.155253 -20.845476 2.629 76 189 237
3.106222 -20.941706 2.322 76 189 237
2.963687 -21.219246 2.82 76 189 237
3.15253 -20.850822 2.746 76 189 237
3.089425 -20.97467 2.752 76 189 237
3.048111 -21.055754 2.67 76 189 237
2.918742 -21.307455 2.844 76 189 237
3.003184 -21.141727 2.597 76 189 237
2.995012 -21.157766 2.772 76 189 237
3.069903 -21.012985 2.847 76 189 237
2.819772 -21.501694 2.861 76 189 237
2.833846 -21.474073 2.817 76 189 237
3.200652 -20.756376 2.403 76 189 237
2.962326 -21.221918 2.708 76 189 237
2.946435 -21.253103 2.742 76 189 237
2.920104 -21.304781 2.778 76 189 237
3.050836 -21.050407 2.409 76 189 237
3.131646 -20.891809 2.689 76 189 237
3.184763 -20.787561 2.716 76 189 237
3.063547 -21.025459 2.843 76 189 237
3.187941 -20.781324 2.692 76 189 237
2.846104 -21.450016 2.871 76 189 237
3.050836 -21.050407 2.413 76 189 237
2.985025 -21.177368 2.813 76 189 237
3.14799 -20.859732 2.626 76 189 237
2.959147 -21.228155 2.557 76 189 237
3.054013 -21.04417 2.622 76 189 237
3.001822 -21.1444 2.577 76 189 237
3.038595 -21.072229 2.795 76 189 237
3.074897 -21.003185 2.382 76 189 237
3.108493 -20.93725 2.528 76 189 237
2.884692 -21.374281 2.794 76 189 237
3.15253 -20.850822 2.327 76 189 237
3.032676 -21.086048 2.47 76 189 237
2.83203 -21.477636 2.8 76 189 237
3.037216 -21.077137 2.66 76 189 237
3.13891 -20.877552 2.777 76 189 237
3.03994 -21.071793 2.419 76 189 237
2.982755 -21.181822 2.848 76 189 237
2.99819 -21.151529 2.596 76 189 237
3.047658 -21.056644 2.543 76 189 237
3.02405 -21.102978 2.369 76 189 237
3.009541 -21.129253 2.753 76 189 237
3.013609 -21.123468 2.365 76 189 237
2.884239 -21.375172 2.749 76 189 237
3.115756 -20.922995 2.35 76 189 237
3.064909 -21.022787 2.522 76 189 237
3.104407 -20.945269 2.596 76 189 237
3.029044 -21.093176 2.555 76 189 237
2.886055 -21.371607 2.732 76 189 237
2.95143 -21.243301 2.824 76 189 237
3.06718 -21.01833 2.893 76 189 237
3.176591 -20.803598 2.713 76 189 237
2.905122 -21.334185 2.67 76 189 237
3.048111 -21.055754 2.345 76 189 237
2.90603 -21.332403 2.731 76 189 237
2.916018 -21.312801 2.601 76 189 237
3.204739 -20.748356 2.382 76 189 237
3.116211 -20.922102 2.416 76 189 237
3.148897 -20.85795 2.344 76 189 237
3.161609 -20.833002 2.793 76 189 237
3.158431 -20.839239 2.403 76 189 237
2.907393 -21.329729 2.641 76 189 237
2.927822 -21.289635 2.731 76 189 237
2.99819 -21.151529 2.553 76 189 237
3.032676 -21.086048 2.55 76 189 237
3.127107 -20.900717 2.499 76 189 237
3.101682 -20.950615 2.449 76 189 237
3.004092 -21.139946 2.519 76 189 237
3.116211 -20.922102 2.463 76 189 237
2.969135 -21.208553 2.454 76 189 237
2.985933 -21.175585 2.748 76 189 237
3.116211 -20.922102 2.694 76 189 237
2.967773 -21.211226 2.834 76 189 237
3.088971 -20.975563 2.741 76 189 237
2.891048 -21.361807 2.829 76 189 237
3.192027 -20.773304 2.672 76 189 237
3.03767 -21.076246 2.582 76 189 237
2.975037 -21.19697 2.441 76 189 237
3.205646 -20.746574 2.341 76 189 237
2.880152 -21.38319 2.673 76 189 237
3.049945 -21.049953 2.898 76 189 237
3.184763 -20.787561 2.411 76 189 237
2.957331 -21.23172 2.807 76 189 237
3.188395 -20.780434 2.455 76 189 237
2.980938 -21.185387 2.785 76 189 237
3.057191 -21.037933 2.704 76 189 237
2.970497 -21.205879 2.649 76 189 237
3.083523 -20.986256 2.581 76 189 237
3.143904 -20.867752 2.347 76 189 237
2.939172 -21.267359 2.561 76 189 237
3.045388 -21.0611 2.709 76 189 237
2.936901 -21.271814 2.645 76 189 237
2.986387 -21.174694 2.475 76 189 237
3.131192 -20.8927 2.498 76 189 237
3.000006 -21.147964 2.685 76 189 237
3.17296 -20.810726 2.445 76 189 237
3.068541 -21.015659 2.87 76 189 237
3.14345 -20.868643 2.68 76 189 237
2.938718 -21.26825 2.9 76 189 237
3.111671 -20.931013 2.663 76 189 237
3.15707 -20.841911 2.587 76 189 237
3.070812 -21.011204 2.354 76 189 237
3.101229 -20.951506 2.768 76 189 237
3.12983 -20.895372 2.449 76 189 237
3.048111 -21.055754 2.315 76 189 237
3.055829 -21.040607 2.693 76 189 237
2.983663 -21.18004 2.562 76 189 237
2.997719 -21.154655 2.407 76 189 237
2.925552 -21.29409 2.581 76 189 237
2.820226 -21.500803 2.84 76 189 237
3.167058 -20.822309 2.869 76 189 237
2.91057 -21.323492 2.659 76 189 237
3.176137 -20.804489 2.479 76 189 237
2.980938 -21.185387 2.876 76 189 237
3.154799 -20.846367 2.596 76 189 237
3.16842 -20.819637 2.798 76 189 237
3.125745 -20.903391 2.46 76 189 237
2.885147 -21.373388 2.725 76 189 237
3.160248 -20.835674 2.413 76 189 237
2.872889 -21.397446 2.764 76 189 237
3.079437 -20.994274 2.563 76 189 237
3.111671 -20.931013 2.873 76 189 237
3.141634 -20.872206 2.841 76 189 237
3.157977 -20.84013 2.858 76 189 237
3.107131 -20.939922 2.596 76 189 237
3.146174 -20.863295 2.439 76 189 237
3.056738 -21.038824 2.641 76 189 237
3.081707 -20.989819 2.758 76 189 237
3.021781 -21.107431 2.437 76 189 237
2.995467 -21.156874 2.703 76 189 237
2.882423 -21.378735 2.839 76 189 237
3.154346 -20.847258 2.429 76 189 237
3.000914 -21.146183 2.83 76 189 237
3.158886 -20.838348 2.905 76 189 237
3.174321 -20.808054 2.773 76 189 237
3.168873 -20.818747 2.892 76 189 237
2.942803 -21.260231 2.779 76 189 237
3.089425 -20.97467 2.88 76 189 237
3.142996 -20.869532 2.745 76 189 237
3.138002 -20.879335 2.637 76 189 237
3.108038 -20.938141 2.838 76 189 237
3.212457 -20.73321 2.314 76 189 237
2.978215 -21.190733 2.87 76 189 237
2.944619 -21.256668 2.862 76 189 237
3.152075 -20.851713 2.888 76 189 237
3.009541 -21.129253 2.658 76 189 237
3.128468 -20.898046 2.373 76 189 237
2.878337 -21.386755 2.897 76 189 237
3.023597 -21.103868 2.445 76 189 237
2.978669 -21.189842 2.536 76 189 237
2.939626 -21.266468 2.635 76 189 237
2.931 -21.283398 2.587 76 189 237
3.207463 -20.74301 2.405 76 189 237
3.010902 -21.126581 2.683 76 189 237
3.111216 -20.931904 2.751 76 189 237
3.108947 -20.936359 2.69 76 189 237
2.965957 -21.21479 2.67 76 189 237
3.088063 -20.977345 2.67 76 189 237
3.130285 -20.89448 2.315 76 189 237
2.964141 -21.218353 2.687 76 189 237
3.027228 -21.096741 2.344 76 189 237
3.006363 -21.13549 2.749 76 189 237
3.091695 -20.970217 2.836 76 189 237
3.119389 -20.915865 2.807 76 189 237
3.205193 -20.747465 2.34 76 189 237
3.077621 -20.997839 2.752 76 189 237
2.961871 -21.222809 2.88 76 189 237
3.203377 -20.75103 2.497 76 189 237
3.119389 -20.915865 2.36 76 189 237
2.963233 -21.220137 2.623 76 189 237
3.059007 -21.03437 2.503 76 189 237
3.029516 -21.09005 2.686 76 189 237
3.06718 -21.01833 2.47 76 189 237
3.074443 -21.004076 2.811 76 189 237
2.979577 -21.188059 2.465 76 189 237
3.020872 -21.109215 2.573 76 189 237
3.065363 -21.021896 2.441 76 189 237
2.842472 -21.457144 2.886 76 189 237
2.934178 -21.277161 2.527 76 189 237
3.024959 -21.101194 2.55 76 189 237
2.992289 -21.163111 2.775 76 189 237
3.163426 -20.829437 2.614 76 189 237
3.034964 -21.079357 2.812 76 189 237
3.024959 -21.101194 2.375 76 189 237
3.081253 -20.990711 2.73 76 189 237
3.014534 -21.119452 2.71 76 189 237
2.985933 -21.175585 2.597 76 189 237
2.968681 -21.209444 2.499 76 189 237
3.042664 -21.066446 2.622 76 189 237
3.096235 -20.961308 2.757 76 189 237
2.94235 -21.261122 2.517 76 189 237
3.063094 -21.02635 2.602 76 189 237
3.071265 -21.010313 2.736 76 189 237
3.113487 -20.927448 2.352 76 189 237
3.184763 -20.787561 2.605 76 189 237
2.996828 -21.154202 2.637 76 189 237
3.087155 -20.979128 2.848 76 189 237
3.14572 -20.864187 2.898 76 189 237
3.059007 -21.03437 2.372 76 189 237
3.167511 -20.821419 2.794 76 189 237
3.097597 -20.958633 2.821 76 189 237
2.997736 -21.15242 2.898 76 189 237
3.123929 -20.906954 2.864 76 189 237
2.925552 -21.29409 2.832 76 189 237
2.99819 -21.151529 2.664 76 189 237
2.876521 -21.390318 2.733 76 189 237
3.118934 -20.916758 2.328 76 189 237
3.147082 -20.861515 2.769 76 189 237
2.98684 -21.173803 2.409 76 189 237
3.060369 -21.031696 2.429 76 189 237
2.94689 -21.252213 2.728 76 189 237
2.892865 -21.358242 2.846 76 189 237
2.872889 -21.397446 2.778 76 189 237
3.110762 -20.932795 2.804 76 189 237
2.905122 -21.334185 2.86 76 189 237
2.929184 -21.286961 2.699 76 189 237
3.10486 -20.944378 2.823 76 189 237
2.978215 -21.190733 2.77 76 189 237
2.922374 -21.300327 2.606 76 189 237
2.949614 -21.246866 2.604 76 189 237
3.101682 -20.950615 2.33 76 189 237
3.132554 -20.890026 2.739 76 189 237
3.126198 -20.9025 2.529 76 189 237
3.082615 -20.988037 2.675 76 189 237
2.91965 -21.305674 2.719 76 189 237
3.133462 -20.888243 2.837 76 189 237
3.182493 -20.792015 2.691 76 189 237
3.106677 -20.940813 2.83 76 189 237
3.15707 -20.841911 2.633 76 189 237
3.095326 -20.963089 2.744 76 189 237
2.920558 -21.30389 2.566 76 189 237
2.942803 -21.260231 2.612 76 189 237
3.029044 -21.093176 2.537 76 189 237
3.120296 -20.914083 2.425 76 189 237
3.100321 -20.953287 2.872 76 189 237
3.068541 -21.015659 2.552 76 189 237
3.149352 -20.857059 2.658 76 189 237
3.14118 -20.873098 2.604 76 189 237
3.126652 -20.901609 2.839 76 189 237
3.108947 -20.936359 2.8 76 189 237
3.049491 -21.050844 2.888 76 189 237
2.902853 -21.33864 2.85 76 189 237
2.827036 -21.487438 2.828 76 189 237
3.180677 -20.795578 2.528 76 189 237
3.048111 -21.055754 2.496 76 189 237
3.045842 -21.060209 2.427 76 189 237
3.006345 -21.137726 2.344 76 189 237
2.922828 -21.299435 2.863 76 189 237
3.068996 -21.014767 2.866 76 189 237
3.151622 -20.852604 2.735 76 189 237
3.135732 -20.883789 2.73 76 189 237
2.922828 -21.299435 2.703 76 189 237
3.103953 -20.946159 2.555 76 189 237
3.159339 -20.837458 2.777 76 189 237
2.946435 -21.253103 2.786 76 189 237
3.068996 -21.014767 2.5 76 189 237
2.971859 -21.203207 2.479 76 189 237
3.026774 -21.097631 2.521 76 189 237
2.854275 -21.433977 2.835 76 189 237
3.153437 -20.849041 2.721 76 189 237
2.83657 -21.468727 2.812 76 189 237
3.056301 -21.037479 2.882 76 189 237
2.994558 -21.158657 2.607 76 189 237
2.962326 -21.221918 2.762 76 189 237
3.133008 -20.889135 2.609 76 189 237
3.131646 -20.891809 2.34 76 189 237
2.979577 -21.188059 2.821 76 189 237
3.118934 -20.916758 2.383 76 189 237
3.088063 -20.977345 2.643 76 189 237
3.126198 -20.9025 2.357 76 189 237
3.122112 -20.910521 2.32 76 189 237
2.823404 -21.494566 2.884 76 189 237
3.196567 -20.764393 2.485 76 189 237
2.948252 -21.249538 2.67 76 189 237
3.155253 -20.845476 2.872 76 189 237
3.056738 -21.038824 2.722 76 189 237
2.943712 -21.25845 2.815 76 189 237
3.006363 -21.13549 2.52 76 189 237
2.934632 -21.27627 2.758 76 189 237
3.129376 -20.896263 2.598 76 189 237
3.20383 -20.750139 2.393 76 189 237
3.121204 -20.912302 2.372 76 189 237
2.927367 -21.290525 2.735 76 189 237
3.064002 -21.024567 2.491 76 189 237
3.083977 -20.985365 2.61 76 189 237
3.019965 -21.110994 2.501 76 189 237
2.886055 -21.371607 2.748 76 189 237
3.003184 -21.141727 2.809 76 189 237
2.985478 -21.176477 2.438 76 189 237
2.864717 -21.413485 2.732 76 189 237
3.0354 -21.080702 2.527 76 189 237
3.024959 -21.101194 2.623 76 189 237
2.962779 -21.221027 2.586 76 189 237
3.049474 -21.053082 2.603 76 189 237
3.179769 -20.797361 2.347 76 189 237
3.089425 -20.97467 2.476 76 189 237
3.100321 -20.953287 2.369 76 189 237
3.078075 -20.996948 2.645 76 189 237
2.975037 -21.19697 2.734 76 189 237
3.00046 -21.147074 2.461 76 189 237
3.183401 -20.790234 2.584 76 189 237
3.051289 -21.049517 2.747 76 189 237
3.112124 -20.930122 2.681 76 189 237
3.068087 -21.01655 2.332 76 189 237
3.188849 -20.779541 2.457 76 189 237
2.881515 -21.380518 2.829 76 189 237
3.013626 -21.121235 2.783 76 189 237
2.834754 -21.47229 2.794 76 189 237
2.90376 -21.336859 2.625 76 189 237
2.857907 -21.426849 2.878 76 189 237
2.929184 -21.286961 2.795 76 189 237
3.003184 -21.141727 2.488 76 189 237
2.851551 -21.439323 2.817 76 189 237
3.162064 -20.832111 2.591 76 189 237
2.984116 -21.17915 2.735 76 189 237
3.009086 -21.130144 2.722 76 189 237
2.923282 -21.298544 2.827 76 189 237
3.132554 -20.890026 2.473 76 189 237
3.048566 -21.054863 2.638 76 189 237
2.857453 -21.42774 2.883 76 189 237
3.119842 -20.914974 2.623 76 189 237
3.123474 -20.907846 2.473 76 189 237
3.112124 -20.930122 2.539 76 189 237
3.174775 -20.807163 2.866 76 189 237
3.202014 -20.753702 2.314 76 189 237
3.105315 -20.943487 2.73 76 189 237
2.919196 -21.306564 2.614 76 189 237
3.026774 -21.097631 2.338 76 189 237
3.094419 -20.96487 2.681 76 189 237
2.887417 -21.368935 2.873 76 189 237
3.096689 -20.960417 2.593 76 189 237
2.891048 -21.361807 2.827 76 189 237
2.91738 -21.310127 2.891 76 189 237
2.987294 -21.172913 2.55 76 189 237
3.047658 -21.056644 2.488 76 189 237
3.120751 -20.913191 2.484 76 189 237
3.179769 -20.797361 2.773 76 189 237
3.183855 -20.789341 2.785 76 189 237
3.202014 -20.753702 2.424 76 189 237
3.13437 -20.886463 2.863 76 189 237
3.179315 -20.798252 2.465 76 189 237
3.005454 -21.137272 2.538 76 189 237
3.147082 -20.861515 2.849 76 189 237
3.150714 -20.854385 2.818 76 189 237
2.849735 -21.442888 2.793 76 189 237
2.960509 -21.225483 2.597 76 189 237
3.167058 -20.822309 2.404 76 189 237
3.059462 -21.033478 2.855 76 189 237
3.133916 -20.887354 2.829 76 189 237
3.117118 -20.920321 2.864 76 189 237
2.990472 -21.166676 2.4 76 189 237
3.073989 -21.004967 2.665 76 189 237
2.920104 -21.304781 2.833 76 189 237
2.920558 -21.30389 2.641 76 189 237
3.097597 -20.958633 2.588 76 189 237
2.922374 -21.300327 2.67 76 189 237
3.013172 -21.122126 2.886 76 189 237
3.197021 -20.763504 2.569 76 189 237
3.175229 -20.806273 2.747 76 189 237
3.015425 -21.119905 2.469 76 189 237
3.052651 -21.046844 2.761 76 189 237
2.848828 -21.44467 2.823 76 189 237
3.090333 -20.972891 2.608 76 189 237
3.064909 -21.022787 2.781 76 189 237
2.92873 -21.287853 2.785 76 189 237
3.034038 -21.083376 2.412 76 189 237
3.168873 -20.818747 2.545 76 189 237
3.14118 -20.873098 2.658 76 189 237
3.026774 -21.097631 2.538 76 189 237
2.931454 -21.282507 2.699 76 189 237
3.102137 -20.949724 2.611 76 189 237
2.872435 -21.398336 2.711 76 189 237
3.000896 -21.148418 2.381 76 189 237
3.130285 -20.89448 2.878 76 189 237
3.059916 -21.032587 2.414 76 189 237
3.110309 -20.933685 2.884 76 189 237
3.172505 -20.811619 2.881 76 189 237
3.062185 -21.028133 2.454 76 189 237
2.819772 -21.501694 2.848 76 189 237
2.948705 -21.248648 2.888 76 189 237
3.064909 -21.022787 2.842 76 189 237
3.114394 -20.925667 2.903 76 189 237
3.06264 -21.027241 2.706 76 189 237
3.096235 -20.961308 2.506 76 189 237
2.935085 -21.275379 2.641 76 189 237
2.957785 -21.230827 2.774 76 189 237
3.089879 -20.973782 2.822 76 189 237
2.919196 -21.306564 2.871 76 189 237
3.010448 -21.127472 2.84 76 189 237
3.118934 -20.916758 2.878 76 189 237
3.209279 -20.739447 2.38 76 189 237
3.045842 -21.060209 2.425 76 189 237
2.951883 -21.242411 2.502 76 189 237
3.039958 -21.069555 2.845 76 189 237
3.177045 -20.802708 2.869 76 189 237
2.932362 -21.280724 2.735 76 189 237
3.068996 -21.014767 2.69 76 189 237
2.833392 -21.474964 2.805 76 189 237
3.152984 -20.849932 2.887 76 189 237
3.091241 -20.971107 2.494 76 189 237
2.895588 -21.352896 2.764 76 189 237
2.977761 -21.191624 2.716 76 189 237
3.107131 -20.939922 2.67 76 189 237
2.929184 -21.286961 2.899 76 189 237
3.149806 -20.856169 2.811 76 189 237
3.045842 -21.060209 2.743 76 189 237
2.900128 -21.343987 2.689 76 189 237
3.090786 -20.972 2.423 76 189 237
2.897859 -21.34844 2.702 76 189 237
3.00727 -21.133709 2.798 76 189 237
2.898766 -21.346659 2.817 76 189 237
2.886055 -21.371607 2.755 76 189 237
3.115756 -20.922995 2.381 76 189 237
2.97322 -21.200535 2.477 76 189 237
3.107131 -20.939922 2.702 76 189 237
3.082161 -20.988928 2.481 76 189 237
3.12302 -20.908737 2.605 76 189 237
3.116211 -20.922102 2.585 76 189 237
3.075351 -21.002293 2.709 76 189 237
3.132554 -20.890026 2.636 76 189 237
3.12529 -20.904284 2.871 76 189 237
3.056284 -21.039715 2.595 76 189 237
2.976853 -21.193405 2.621 76 189 237
3.067634 -21.017441 2.41 76 189 237
3.078983 -20.995165 2.828 76 189 237
2.846104 -21.450016 2.798 76 189 237
2.862901 -21.417049 2.788 76 189 237
2.967319 -21.212116 2.854 76 189 237
3.155253 -20.845476 2.587 76 189 237
3.140726 -20.873989 2.793 76 189 237
3.047658 -21.056644 2.622 76 189 237
3.06718 -21.01833 2.833 76 189 237
2.925098 -21.294981 2.673 76 189 237
2.80252 -21.535553 2.893 76 189 237
2.92192 -21.301218 2.825 76 189 237
2.924644 -21.295872 2.578 76 189 237
3.041756 -21.068228 2.413 76 189 237
2.965957 -21.21479 2.519 76 189 237
3.077167 -20.99873 2.548 76 189 237
2.931907 -21.281616 2.72 76 189 237
3.106222 -20.941706 2.725 76 189 237
2.885147 -21.373388 2.797 76 189 237
2.859723 -21.423286 2.832 76 189 237
3.007707 -21.135054 2.442 76 189 237
3.135278 -20.88468 2.446 76 189 237
3.009523 -21.131489 2.498 76 189 237
3.124382 -20.906065 2.895 76 189 237
3.101682 -20.950615 2.379 76 189 237
2.983209 -21.180931 2.42 76 189 237
3.063547 -21.025459 2.881 76 189 237
3.008178 -21.131926 2.779 76 189 237
3.069449 -21.013876 2.774 76 189 237
2.881061 -21.381409 2.892 76 189 237
3.155253 -20.845476 2.608 76 189 237
3.084431 -20.984474 2.346 76 189 237
3.093057 -20.967545 2.802 76 189 237
2.929184 -21.286961 2.703 76 189 237
3.120751 -20.913191 2.628 76 189 237
3.128922 -20.897154 2.375 76 189 237
2.892865 -21.358242 2.799 76 189 237
3.193389 -20.77063 2.599 76 189 237
2.891048 -21.361807 2.798 76 189 237
2.90376 -21.336859 2.787 76 189 237
3.098505 -20.956852 2.364 76 189 237
2.974582 -21.197861 2.483 76 189 237
3.15253 -20.850822 2.581 76 189 237
3.185217 -20.786671 2.575 76 189 237
3.102137 -20.949724 2.846 76 189 237
3.021798 -21.105196 2.657 76 189 237
3.188849 -20.779541 2.663 76 189 237
3.197474 -20.762613 2.341 76 189 237
2.93781 -21.270033 2.812 76 189 237
2.97322 -21.200535 2.863 76 189 237
3.086701 -20.980019 2.454 76 189 237
3.200652 -20.756376 2.328 76 189 237
2.979123 -21.188951 2.746 76 189 237
3.1775 -20.801815 2.504 76 189 237
3.081707 -20.989819 2.835 76 189 237
2.989111 -21.169348 2.471 76 189 237
2.93327 -21.278942 2.833 76 189 237
3.071265 -21.010313 2.49 76 189 237
3.137094 -20.881117 2.767 76 189 237
2.993196 -21.161329 2.852 76 189 237
3.015425 -21.119905 2.363 76 189 237
2.839748 -21.46249 2.87 76 189 237
2.881061 -21.381409 2.898 76 189 237
2.979123 -21.188951 2.684 76 189 237
3.104407 -20.945269 2.697 76 189 237
3.163426 -20.829437 2.346 76 189 237
3.003184 -21.141727 2.495 76 189 237
3.029952 -21.091394 2.483 76 189 237
2.827944 -21.485657 2.84 76 189 237
3.187941 -20.781324 2.72 76 189 237
3.055376 -21.041498 2.502 76 189 237
3.140726 -20.873989 2.764 76 189 237
3.065818 -21.021004 2.876 76 189 237
3.048129 -21.053518 2.804 76 189 237
2.908755 -21.327057 2.645 76 189 237
3.078983 -20.995165 2.335 76 189 237
2.982301 -21.182714 2.524 76 189 237
3.021781 -21.107431 2.353 76 189 237
3.142996 -20.869532 2.323 76 189 237
3.102137 -20.949724 2.353 76 189 237
3.116211 -20.922102 2.474 76 189 237
3.056284 -21.039715 2.811 76 189 237
3.100775 -20.952396 2.741 76 189 237
3.019057 -21.112778 2.537 76 189 237
3.052651 -21.046844 2.508 76 189 237
3.044043 -21.061537 2.829 76 189 237
3.01497 -21.120798 2.372 76 189 237
3.187941 -20.781324 2.518 76 189 237
3.130285 -20.89448 2.437 76 189 237
3.06264 -21.027241 2.63 76 189 237
2.969589 -21.207663 2.887 76 189 237
3.150259 -20.855278 2.642 76 189 237
2.967773 -21.211226 2.774 76 189 237
2.905577 -21.333294 2.888 76 189 237
3.202468 -20.752811 2.483 76 189 237
3.172505 -20.811619 2.509 76 189 237
2.980031 -21.187168 2.431 76 189 237
3.182947 -20.791124 2.395 76 189 237
3.164333 -20.827656 2.591 76 189 237
2.983663 -21.18004 2.785 76 189 237
3.157524 -20.841021 2.377 76 189 237
3.084431 -20.984474 2.883 76 189 237
2.9083 -21.327948 2.744 76 189 237
3.182947 -20.791124 2.367 76 189 237
3.185671 -20.785778 2.553 76 189 237
3.030878 -21.087376 2.679 76 189 237
3.197021 -20.763504 2.606 76 189 237
2.953245 -21.239738 2.705 76 189 237
2.851551 -21.439323 2.884 76 189 237
2.906484 -21.331512 2.859 76 189 237
2.893772 -21.356461 2.832 76 189 237
2.945981 -21.253994 2.582 76 189 237
3.179769 -20.797361 2.362 76 189 237
2.93327 -21.278942 2.662 76 189 237
3.139818 -20.875769 2.387 76 189 237
2.946435 -21.253103 2.857 76 189 237
3.117118 -20.920321 2.768 76 189 237
3.124382 -20.906065 2.853 76 189 237
3.121204 -20.912302 2.602 76 189 237
2.988656 -21.17024 2.767 76 189 237
3.033584 -21.084267 2.581 76 189 237
3.043118 -21.065556 2.636 76 189 237
3.130738 -20.893591 2.523 76 189 237
3.198837 -20.759939 2.454 76 189 237
2.916018 -21.312801 2.704 76 189 237
3.113487 -20.927448 2.854 76 189 237
3.160702 -20.834784 2.341 76 189 237
3.124382 -20.906065 2.507 76 189 237
2.982301 -21.182714 2.636 76 189 237
3.178407 -20.800035 2.855 76 189 237
3.111216 -20.931904 2.722 76 189 237
2.878791 -21.385862 2.731 76 189 237
2.990472 -21.166676 2.856 76 189 237
3.069903 -21.012985 2.834 76 189 237
3.202923 -20.751919 2.475 76 189 237
3.089879 -20.973782 2.373 76 189 237
3.146174 -20.863295 2.591 76 189 237
2.938263 -21.269142 2.624 76 189 237
3.039486 -21.072683 2.649 76 189 237
3.191572 -20.774197 2.573 76 189 237
2.926914 -21.291416 2.672 76 189 237
3.048111 -21.055754 2.497 76 189 237
3.039032 -21.073574 2.556 76 189 237
2.937356 -21.270924 2.722 76 189 237
3.03994 -21.071793 2.59 76 189 237
2.835662 -21.470509 2.791 76 189 237
3.04902 -21.053972 2.589 76 189 237
3.14345 -20.868643 2.785 76 189 237
2.974129 -21.198751 2.469 76 189 237
3.062185 -21.028133 2.587 76 189 237
3.13891 -20.877552 2.437 76 189 237
3.173867 -20.808945 2.818 76 189 237
3.11394 -20.926558 2.408 76 189 237
3.041774 -21.065992 2.869 76 189 237
3.142088 -20.871315 2.544 76 189 237
2.950975 -21.244194 2.672 76 189 237
3.10486 -20.944378 2.67 76 189 237
3.097597 -20.958633 2.561 76 189 237
2.93327 -21.278942 2.821 76 189 237
2.994558 -21.158657 2.783 76 189 237
3.105769 -20.942596 2.557 76 189 237
3.073989 -21.004967 2.879 76 189 237
3.114394 -20.925667 2.373 76 189 237
2.979577 -21.188059 2.714 76 189 237
2.889686 -21.364479 2.776 76 189 237
3.037216 -21.077137 2.674 76 189 237
3.123474 -20.907846 2.808 76 189 237
2.926914 -21.291416 2.776 76 189 237
2.891048 -21.361807 2.64 76 189 237
3.182039 -20.792908 2.813 76 189 237
3.048111 -21.055754 2.705 76 189 237
3.185671 -20.785778 2.411 76 189 237
2.972767 -21.201426 2.729 76 189 237
2.933723 -21.278051 2.769 76 189 237
3.034038 -21.083376 2.676 76 189 237
3.036308 -21.07892 2.479 76 189 237
3.100775 -20.952396 2.389 76 189 237
3.120751 -20.913191 2.527 76 189 237
2.995467 -21.156874 2.618 76 189 237
3.026321 -21.09852 2.32 76 189 237
2.984571 -21.178259 2.597 76 189 237
2.972767 -21.201426 2.5 76 189 237
2.851551 -21.439323 2.817 76 189 237
3.186125 -20.784887 2.504 76 189 237
2.996374 -21.155092 2.681 76 189 237
3.117572 -20.91943 2.686 76 189 237
3.046296 -21.059319 2.467 76 189 237
3.140726 -20.873989 2.607 76 189 237
3.162132 -20.823168 3.498 76 189 237
3.141702 -20.863262 3.487 76 189 237
3.165729 -20.820511 3.218 76 189 237
3.161189 -20.829422 3.257 76 189 237
3.16346 -20.824966 3.119 76 189 237
3.157558 -20.83655 3.21 76 189 237
3.167091 -20.817839 3.228 76 189 237
3.157121 -20.835205 3.296 76 189 237
3.163931 -20.821838 3.414 76 189 237
3.150328 -20.846333 3.46 76 189 237
3.138542 -20.867264 3.543 76 189 237
3.134002 -20.876173 3.559 76 189 237
3.14261 -20.861479 3.534 76 189 237
3.17343 -20.8076 3.098 76 189 237
3.158045 -20.831186 3.436 76 189 237
3.154414 -20.838314 3.478 76 189 237
3.14715 -20.85257 3.454 76 189 237
3.167545 -20.816948 3.202 76 189 237
3.158045 -20.831186 3.433 76 189 237
3.151236 -20.844551 3.534 76 189 237
3.153035 -20.843224 3.3 76 189 237
3.148058 -20.850788 3.468 76 189 237
3.1585 -20.830296 3.482 76 189 237
3.139432 -20.867716 3.482 76 189 237
3.158045 -20.831186 3.487 76 189 237
3.143518 -20.859699 3.496 76 189 237
3.17343 -20.8076 3.065 76 189 237
3.170723 -20.810711 3.239 76 189 237
3.155759 -20.837877 3.323 76 189 237
3.151236 -20.844551 3.496 76 189 237
3.152144 -20.842768 3.509 76 189 237
3.148949 -20.851242 3.343 76 189 237
3.155322 -20.836533 3.51 76 189 237
3.164839 -20.820057 3.429 76 189 237
3.159862 -20.827621 3.499 76 189 237
3.156667 -20.836096 3.272 76 189 237
3.166655 -20.816494 3.354 76 189 237
3.146696 -20.853462 3.55 76 189 237
3.16304 -20.821384 3.533 76 189 237
3.155322 -20.836533 3.525 76 189 237
3.161644 -20.828529 3.258 76 189 237
3.162098 -20.827639 3.135 76 189 237
3.175247 -20.804035 2.954 76 189 237
3.14942 -20.848116 3.508 76 189 237
3.155759 -20.837877 3.248 76 189 237
3.161678 -20.824059 3.521 76 189 237
3.167545 -20.816948 3.128 76 189 237
3.161678 -20.824059 3.521 76 189 237
3.15396 -20.839205 3.522 76 189 237
3.143518 -20.859699 3.549 76 189 237
3.160316 -20.826731 3.537 76 189 237
3.162115 -20.825403 3.418 76 189 237
3.169361 -20.813383 3.228 76 189 237
3.165309 -20.816931 3.492 76 189 237
3.163477 -20.822731 3.32 76 189 237
3.166638 -20.818729 3.228 76 189 237
3.148512 -20.849897 3.4 76 189 237
3.152127 -20.845005 3.283 76 189 237
3.168017 -20.81382 3.302 76 189 237
3.17343 -20.8076 3.099 76 189 237
3.160299 -20.828968 3.372 76 189 237
3.162569 -20.824512 3.409 76 189 237
3.154867 -20.837423 3.482 76 189 237
3.163494 -20.820494 3.47 76 189 237
3.160753 -20.828075 3.269 76 189 237
3.16346 -20.824966 3.181 76 189 237
3.148512 -20.849897 3.42 76 189 237
3.165309 -20.816931 3.506 76 189 237
3.158029 -20.833422 3.327 76 189 237
3.165293 -20.819166 3.323 76 189 237
3.170707 -20.812946 3.079 76 189 237
3.174792 -20.804928 2.965 76 189 237
3.168925 -20.812038 3.318 76 189 237
3.174339 -20.805819 2.965 76 189 237
3.149858 -20.849461 3.352 76 189 237
3.159391 -20.83075 3.337 76 189 237
3.155305 -20.838768 3.287 76 189 237
3.163477 -20.822731 3.393 76 189 237
3.148042 -20.853024 3.372 76 189 237
3.165763 -20.81604 3.484 76 189 237
3.157121 -20.835205 3.291 76 189 237
3.161189 -20.829422 3.205 76 189 237
3.163477 -20.822731 3.324 76 189 237
3.174339 -20.805819 3.117 76 189 237
3.149403 -20.850351 3.35 76 189 237
3.171178 -20.809818 3.205 76 189 237
3.139886 -20.866827 3.484 76 189 237
3.163947 -20.819603 3.511 76 189 237
3.172069 -20.810272 3.085 76 189 237
3.15396 -20.839205 3.472 76 189 237
3.156667 -20.836096 3.367 76 189 237
3.145334 -20.856134 3.472 76 189 237
3.168017 -20.81382 3.331 76 189 237
3.165729 -20.820511 3.161 76 189 237
3.149874 -20.847225 3.537 76 189 237
3.134002 -20.876173 3.561 76 189 237
3.169361 -20.813383 3.282 76 189 237
3.167074 -20.820074 3.08 76 189 237
3.160753 -20.828075 3.317 76 189 237
3.161661 -20.826294 3.331 76 189 237
3.162115 -20.825403 3.329 76 189 237
3.163931 -20.821838 3.335 76 189 237
3.164367 -20.823185 3.109 76 189 237
3.149403 -20.850351 3.374 76 189 237
3.166183 -20.81962 3.225 76 189 237
3.161661 -20.826294 3.422 76 189 237
3.152144 -20.842768 3.413 76 189 237
3.148058 -20.850788 3.424 76 189 237
3.17343 -20.8076 3.019 76 189 237
3.159827 -20.832094 3.238 76 189 237
3.140794 -20.865046 3.52 76 189 237
3.161207 -20.827185 3.417 76 189 237
3.160753 -20.828075 3.405 76 189 237
3.14942 -20.848116 3.458 76 189 237
3.154414 -20.838314 3.499 76 189 237
3.142156 -20.862371 3.435 76 189 237
3.163023 -20.823622 3.434 76 189 237
3.164385 -20.820948 3.337 76 189 237
3.151673 -20.845896 3.4 76 189 237
3.162098 -20.827639 3.213 76 189 237
3.152598 -20.841879 3.513 76 189 237
3.160282 -20.831203 3.223 76 189 237
3.143971 -20.858809 3.541 76 189 237
3.151673 -20.845896 3.355 76 189 237
3.148058 -20.850788 3.508 76 189 237
3.14942 -20.848116 3.517 76 189 237
3.139886 -20.866827 3.476 76 189 237
3.169345 -20.815619 3.075 76 189 237
3.15892 -20.833876 3.2 76 189 237
3.159827 -20.832094 3.175 76 189 237
3.159862 -20.827621 3.51 76 189 237
3.155322 -20.836533 3.423 76 189 237
3.163913 -20.824076 3.213 76 189 237
3.152581 -20.844114 3.396 76 189 237
3.149403 -20.850351 3.344 76 189 237
3.168 -20.816055 3.276 76 189 237
3.139432 -20.867716 3.486 76 189 237
3.163947 -20.819603 3.494 76 189 237
3.14488 -20.857025 3.478 76 189 237
3.158029 -20.833422 3.282 76 189 237
3.166638 -20.818729 3.247 76 189 237
3.146242 -20.854353 3.443 76 189 237
3.164367 -20.823185 3.235 76 189 237
3.144426 -20.857916 3.423 76 189 237
3.154867 -20.837423 3.464 76 189 237
3.159407 -20.828514 3.468 76 189 237
3.166201 -20.817385 3.388 76 189 237
3.160282 -20.831203 3.213 76 189 237
3.148949 -20.851242 3.387 76 189 237
3.14034 -20.865936 3.501 76 189 237
3.163947 -20.819603 3.521 76 189 237
3.138524 -20.869499 3.523 76 189 237
3.158045 -20.831186 3.498 76 189 237
3.169361 -20.813383 3.18 76 189 237
3.161189 -20.829422 3.244 76 189 237
3.141248 -20.864153 3.497 76 189 237
3.168453 -20.815165 3.278 76 189 237
3.165729 -20.820511 3.186 76 189 237
3.156229 -20.834751 3.521 76 189 237
3.145334 -20.856134 3.516 76 189 237
3.14715 -20.85257 3.456 76 189 237
3.163913 -20.824076 3.215 76 189 237
3.148512 -20.849897 3.423 76 189 237
3.153035 -20.843224 3.27 76 189 237
3.172069 -20.810272 3.063 76 189 237
3.141248 -20.864153 3.448 76 189 237
3.157592 -20.832077 3.549 76 189 237
3.152144 -20.842768 3.452 76 189 237
3.162569 -20.824512 3.397 76 189 237
3.14488 -20.857025 3.413 76 189 237
