ply
format ascii 1.0
element vertex 1377
property double x
property double y
property double z
property uchar red
property uchar green
property uchar blue
element face 0
property list uchar int vertex_indices
end_header
5.789243 -15.625319 1.304 84 0 255
5.735621 -15.737166 1.381 84 0 255
5.779239 -15.647158 1.292 84 0 255
5.670683 -15.866816 1.189 84 0 255
5.716117 -15.773243 1.169 84 0 255
5.724726 -15.758551 1.335 84 0 255
5.8374 -15.526401 1.112 84 0 255
5.775607 -15.654285 1.32 84 0 255
5.707474 -15.792408 1.255 84 0 255
5.686557 -15.837867 1.484 84 0 255
5.776985 -15.649377 1.224 84 0 255
5.80969 -15.582988 1.251 84 0 255
5.738834 -15.726457 1.096 84 0 255
5.712922 -15.781716 1.353 84 0 255
5.855577 -15.488524 1.07 84 0 255
5.6934 -15.820029 1.156 84 0 255
5.720202 -15.765224 1.209 84 0 255
5.797432 -15.607045 1.068 84 0 255
5.810144 -15.582097 1.195 84 0 255
5.728358 -15.751422 1.431 84 0 255
5.767906 -15.667196 1.069 84 0 255
5.771537 -15.660069 1.203 84 0 255
5.712485 -15.780372 1.239 84 0 255
5.658863 -15.892218 1.274 84 0 255
5.760642 -15.681453 1.173 84 0 255
5.696544 -15.818265 1.503 84 0 255
5.679293 -15.852122 1.47 84 0 255
5.807874 -15.586553 1.193 84 0 255
5.724742 -15.756313 1.176 84 0 255
5.676569 -15.857469 1.486 84 0 255
5.785175 -15.631103 1.108 84 0 255
5.702934 -15.801318 1.288 84 0 255
5.791967 -15.619973 1.206 84 0 255
5.801064 -15.599917 1.184 84 0 255
5.706146 -15.790609 1.058 84 0 255
5.72703 -15.749623 1.047 84 0 255
5.674299 -15.861924 1.349 84 0 255
5.790605 -15.622646 1.233 84 0 255
5.675694 -15.854779 1.19 84 0 255
5.808345 -15.583426 1.101 84 0 255
5.733386 -15.737149 1.133 84 0 255
5.694762 -15.817357 1.165 84 0 255
5.670213 -15.869943 1.357 84 0 255
5.715629 -15.778605 1.415 84 0 255
5.713812 -15.78217 1.463 84 0 255
5.752436 -15.701962 1.339 84 0 255
5.700647 -15.808009 1.406 84 0 255
5.683849 -15.840977 1.255 84 0 255
5.654743 -15.904709 1.665 84 0 255
5.684724 -15.843667 1.561 84 0 255
5.733368 -15.739385 1.216 84 0 255
5.706078 -15.799554 1.534 84 0 255
5.841957 -15.515254 1.067 84 0 255
5.831061 -15.536638 1.063 84 0 255
5.827867 -15.545112 1.177 84 0 255
5.705186 -15.7991 1.359 84 0 255
5.798777 -15.606607 1.241 84 0 255
5.76155 -15.67967 1.157 84 0 255
5.786519 -15.630666 1.256 84 0 255
5.711543 -15.786625 1.391 84 0 255
5.762458 -15.677888 1.065 84 0 255
5.843302 -15.514817 1.152 84 0 255
5.766544 -15.669869 1.158 84 0 255
5.655248 -15.89711 1.17 84 0 255
5.70475 -15.797754 1.254 84 0 255
5.75247 -15.697491 1.052 84 0 255
5.699268 -15.812919 1.472 84 0 255
5.727886 -15.754549 1.465 84 0 255
5.656139 -15.897564 1.406 84 0 255
5.676115 -15.85836 1.398 84 0 255
5.7066 -15.789719 1.059 84 0 255
5.685632 -15.841886 1.568 84 0 255
5.662915 -15.888672 1.617 84 0 255
5.780163 -15.64314 1.129 84 0 255
5.744281 -15.715765 1.173 84 0 255
5.723381 -15.758987 1.166 84 0 255
5.806075 -15.58788 1.069 84 0 255
5.74154 -15.723347 1.329 84 0 255
5.714301 -15.776808 1.116 84 0 255
5.69609 -15.819156 1.533 84 0 255
5.707457 -15.794644 1.375 84 0 255
5.791985 -15.617738 1.098 84 0 255
5.824688 -15.551349 1.052 84 0 255
5.65476 -15.902473 1.511 84 0 255
5.672045 -15.864143 1.265 84 0 255
5.655248 -15.89711 1.153 84 0 255
5.683395 -15.841867 1.266 84 0 255
5.767906 -15.667196 1.121 84 0 255
5.703808 -15.804008 1.486 84 0 255
5.794254 -15.613282 1.091 84 0 255
5.797415 -15.609282 1.284 84 0 255
5.688406 -15.829831 1.227 84 0 255
5.839232 -15.5206 1.091 84 0 255
5.728374 -15.749187 1.175 84 0 255
5.86284 -15.474268 1.077 84 0 255
5.691584 -15.823594 1.233 84 0 255
5.815138 -15.572296 1.229 84 0 255
5.694745 -15.819592 1.351 84 0 255
5.654777 -15.900238 1.31 84 0 255
5.663386 -15.885545 1.465 84 0 255
5.695653 -15.817811 1.428 84 0 255
5.736075 -15.736275 1.358 84 0 255
5.737472 -15.72913 1.176 84 0 255
5.835584 -15.529964 1.12 84 0 255
5.81697 -15.566496 1.13 84 0 255
5.689314 -15.82805 1.184 84 0 255
5.660679 -15.888654 1.292 84 0 255
5.751982 -15.702854 1.322 84 0 255
5.655265 -15.894875 1.099 84 0 255
5.680184 -15.852576 1.583 84 0 255
5.806058 -15.590117 1.233 84 0 255
5.707944 -15.789282 1.108 84 0 255
5.693837 -15.821375 1.372 84 0 255
5.73199 -15.744294 1.397 84 0 255
5.673391 -15.863706 1.45 84 0 255
5.753832 -15.694818 1.075 84 0 255
5.747022 -15.708183 1.072 84 0 255
5.716588 -15.770117 1.07 84 0 255
5.697923 -15.813355 1.328 84 0 255
5.729266 -15.74964 1.421 84 0 255
5.718404 -15.766552 1.084 84 0 255
5.785157 -15.633339 1.229 84 0 255
5.779239 -15.647158 1.294 84 0 255
5.680671 -15.847214 1.258 84 0 255
5.776549 -15.648031 1.068 84 0 255
5.682505 -15.841413 1.133 84 0 255
5.732007 -15.742058 1.331 84 0 255
5.723834 -15.758097 1.191 84 0 255
5.765635 -15.671651 1.111 84 0 255
5.660663 -15.89089 1.476 84 0 255
5.744298 -15.713529 1.046 84 0 255
5.812414 -15.577642 1.139 84 0 255
5.814701 -15.570951 1.08 84 0 255
5.820602 -15.559367 1.148 84 0 255
5.806949 -15.59057 1.25 84 0 255
5.73611 -15.731803 1.177 84 0 255
5.727466 -15.750968 1.289 84 0 255
5.852852 -15.49387 1.08 84 0 255
5.710181 -15.789298 1.447 84 0 255
5.845589 -15.508126 1.081 84 0 255
5.738379 -15.727348 1.096 84 0 255
5.738362 -15.729584 1.308 84 0 255
5.756976 -15.693053 1.311 84 0 255
5.689734 -15.83163 1.531 84 0 255
5.709744 -15.787953 1.234 84 0 255
5.707894 -15.795989 1.513 84 0 255
5.670247 -15.865471 1.138 84 0 255
5.838762 -15.523727 1.157 84 0 255
5.723381 -15.758987 1.244 84 0 255
5.652507 -15.904692 1.294 84 0 255
5.768343 -15.668542 1.246 84 0 255
5.661099 -15.892235 1.61 84 0 255
5.65661 -15.894437 1.25 84 0 255
5.707508 -15.787936 1.05 84 0 255
5.677023 -15.856578 1.47 84 0 255
5.65888 -15.889982 1.129 84 0 255
5.732443 -15.743403 1.386 84 0 255
5.669759 -15.870834 1.398 84 0 255
5.659334 -15.889091 1.147 84 0 255
5.817878 -15.564714 1.135 84 0 255
5.821948 -15.558931 1.198 84 0 255
5.685211 -15.838304 1.36 84 0 255
5.678419 -15.849433 1.19 84 0 255
5.837854 -15.525509 1.106 84 0 255
5.851036 -15.497435 1.061 84 0 255
5.770141 -15.667213 1.367 84 0 255
5.810144 -15.582097 1.132 84 0 255
5.765635 -15.671651 1.171 84 0 255
5.74381 -15.718891 1.246 84 0 255
5.704767 -15.795519 1.058 84 0 255
5.828774 -15.54333 1.165 84 0 255
5.736075 -15.736275 1.396 84 0 255
5.710215 -15.784826 1.199 84 0 255
5.806966 -15.588334 1.186 84 0 255
5.687045 -15.832503 1.186 84 0 255
5.660663 -15.89089 1.527 84 0 255
5.680235 -15.845869 1.214 84 0 255
5.670701 -15.86458 1.17 84 0 255
5.726524 -15.757221 1.476 84 0 255
5.740632 -15.725128 1.253 84 0 255
5.666581 -15.877071 1.341 84 0 255
5.822419 -15.555804 1.105 84 0 255
5.69382 -15.82361 1.564 84 0 255
5.827883 -15.542875 1.054 84 0 255
5.773353 -15.656505 1.184 84 0 255
5.778347 -15.646703 1.179 84 0 255
5.67519 -15.862378 1.537 84 0 255
5.72565 -15.754532 1.249 84 0 255
5.671137 -15.865925 1.284 84 0 255
5.707944 -15.789282 1.183 84 0 255
5.763366 -15.676106 1.172 84 0 255
5.774715 -15.653831 1.113 84 0 255
5.766527 -15.672106 1.289 84 0 255
5.699739 -15.809791 1.371 84 0 255
5.786519 -15.630666 1.284 84 0 255
5.729248 -15.751876 1.472 84 0 255
5.770193 -15.660505 1.074 84 0 255
5.756522 -15.693944 1.319 84 0 255
5.684337 -15.835614 1.035 84 0 255
5.662041 -15.885981 1.302 84 0 255
5.775623 -15.65205 1.149 84 0 255
5.663369 -15.88778 1.602 84 0 255
5.790623 -15.62041 1.102 84 0 255
5.784249 -15.63512 1.195 84 0 255
5.753378 -15.695709 1.06 84 0 255
5.770629 -15.661851 1.183 84 0 255
5.772429 -15.660522 1.288 84 0 255
5.671609 -15.862798 1.072 84 0 255
5.806495 -15.59146 1.265 84 0 255
5.775169 -15.65294 1.111 84 0 255
5.852398 -15.494761 1.054 84 0 255
5.715174 -15.779497 1.441 84 0 255
5.682924 -15.844995 1.504 84 0 255
5.792875 -15.618192 1.274 84 0 255
5.839216 -15.522837 1.172 84 0 255
5.811522 -15.577188 1.117 84 0 255
5.666127 -15.877962 1.358 84 0 255
5.80515 -15.591898 1.157 84 0 255
5.687481 -15.833849 1.263 84 0 255
5.724272 -15.759441 1.423 84 0 255
5.788353 -15.624866 1.156 84 0 255
5.754286 -15.693927 1.107 84 0 255
5.694762 -15.817357 1.253 84 0 255
5.841957 -15.515254 1.049 84 0 255
5.812885 -15.574514 1.132 84 0 255
5.684757 -15.839194 1.295 84 0 255
5.771521 -15.662305 1.282 84 0 255
5.705204 -15.796864 1.26 84 0 255
5.663437 -15.878836 1.089 84 0 255
5.801501 -15.601262 1.238 84 0 255
5.806058 -15.590117 1.104 84 0 255
5.740632 -15.725128 1.282 84 0 255
5.687045 -15.832503 1.16 84 0 255
5.655215 -15.901583 1.489 84 0 255
5.73426 -15.739839 1.446 84 0 255
5.693366 -15.824502 1.497 84 0 255
5.742465 -15.719329 1.164 84 0 255
5.769722 -15.663632 1.22 84 0 255
5.765635 -15.671651 1.094 84 0 255
5.886919 -15.424809 1.048 84 0 255
5.772429 -15.660522 1.315 84 0 255
5.654743 -15.904709 1.558 84 0 255
5.660696 -15.886418 1.251 84 0 255
5.806512 -15.589225 1.142 84 0 255
5.722438 -15.765242 1.466 84 0 255
5.780163 -15.64314 1.269 84 0 255
5.698411 -15.807993 1.103 84 0 255
5.666547 -15.881543 1.615 84 0 255
5.782451 -15.636449 1.133 84 0 255
5.705186 -15.7991 1.38 84 0 255
5.801064 -15.599917 1.154 84 0 255
5.697923 -15.813355 1.411 84 0 255
5.737926 -15.728239 1.187 84 0 255
5.684775 -15.836959 1.201 84 0 255
5.725214 -15.753187 1.061 84 0 255
5.817862 -15.56695 1.17 84 0 255
5.68654 -15.840102 1.551 84 0 255
5.683429 -15.837396 1.068 84 0 255
5.680671 -15.847214 1.245 84 0 255
5.79607 -15.609718 1.167 84 0 255
5.672029 -15.866379 1.467 84 0 255
5.672971 -15.860125 1.077 84 0 255
5.784233 -15.637357 1.327 84 0 255
5.759245 -15.688598 1.362 84 0 255
5.771975 -15.661413 1.304 84 0 255
5.671121 -15.868161 1.338 84 0 255
5.841486 -15.518382 1.173 84 0 255
5.751545 -15.701509 1.25 84 0 255
5.721548 -15.764788 1.3 84 0 255
5.65207 -15.903347 1.233 84 0 255
5.677948 -15.85256 1.353 84 0 255
5.709761 -15.785717 1.088 84 0 255
5.762458 -15.677888 1.151 84 0 255
5.768814 -15.665414 1.211 84 0 255
5.704296 -15.798646 1.209 84 0 255
5.715192 -15.777262 1.326 84 0 255
5.736075 -15.736275 1.379 84 0 255
5.733368 -15.739385 1.213 84 0 255
5.828774 -15.54333 1.126 84 0 255
5.762895 -15.679234 1.238 84 0 255
5.725634 -15.756768 1.419 84 0 255
5.682505 -15.841413 1.183 84 0 255
5.683883 -15.836504 1.096 84 0 255
5.872392 -15.453321 1.061 84 0 255
5.74154 -15.723347 1.376 84 0 255
5.686573 -15.83563 1.304 84 0 255
5.764257 -15.67656 1.226 84 0 255
5.679747 -15.851232 1.427 84 0 255
5.747896 -15.710873 1.286 84 0 255
5.699285 -15.810682 1.442 84 0 255
5.710215 -15.784826 1.089 84 0 255
5.707894 -15.795989 1.506 84 0 255
5.728828 -15.748295 1.195 84 0 255
5.832877 -15.533074 1.072 84 0 255
5.810144 -15.582097 1.136 84 0 255
5.743827 -15.716656 1.185 84 0 255
5.820148 -15.560259 1.1 84 0 255
5.806512 -15.589225 1.191 84 0 255
5.689718 -15.833865 1.569 84 0 255
5.705675 -15.793736 1.153 84 0 255
5.812868 -15.576751 1.14 84 0 255
5.790605 -15.622646 1.266 84 0 255
5.683379 -15.844104 1.506 84 0 255
5.792892 -15.615955 1.176 84 0 255
5.765182 -15.672543 1.176 84 0 255
5.731552 -15.742949 1.271 84 0 255
5.695216 -15.816465 1.262 84 0 255
5.800157 -15.601699 1.19 84 0 255
5.789227 -15.627555 1.317 84 0 255
5.756085 -15.692599 1.232 84 0 255
5.797432 -15.607045 1.126 84 0 255
5.707944 -15.789282 1.088 84 0 255
5.690676 -15.825376 1.157 84 0 255
5.659771 -15.890436 1.413 84 0 255
5.76155 -15.67967 1.089 84 0 255
5.669339 -15.867253 1.163 84 0 255
5.724742 -15.756313 1.271 84 0 255
5.769268 -15.664524 1.211 84 0 255
5.678889 -15.846306 1.058 84 0 255
5.659283 -15.895799 1.624 84 0 255
5.683395 -15.841867 1.276 84 0 255
5.676149 -15.853888 1.078 84 0 255
5.706583 -15.791954 1.152 84 0 255
5.672971 -15.860125 1.056 84 0 255
5.845135 -15.509017 1.101 84 0 255
5.811522 -15.577188 1.109 84 0 255
5.808328 -15.585661 1.119 84 0 255
5.769705 -15.665869 1.223 84 0 255
5.834676 -15.531746 1.13 84 0 255
5.699722 -15.812028 1.533 84 0 255
5.790151 -15.623537 1.284 84 0 255
5.850583 -15.498325 1.075 84 0 255
5.678401 -15.851668 1.347 84 0 255
5.657518 -15.892655 1.203 84 0 255
5.783813 -15.633776 1.054 84 0 255
5.73927 -15.727802 1.279 84 0 255
5.691601 -15.821357 1.048 84 0 255
5.781525 -15.640467 1.133 84 0 255
5.787427 -15.628883 1.173 84 0 255
5.796961 -15.610172 1.223 84 0 255
5.709744 -15.787953 1.276 84 0 255
5.675207 -15.860142 1.462 84 0 255
5.784703 -15.63423 1.289 84 0 255
5.727012 -15.75186 1.298 84 0 255
5.766544 -15.669869 1.115 84 0 255
5.809236 -15.583879 1.256 84 0 255
5.701135 -15.802646 1.051 84 0 255
5.694274 -15.82272 1.468 84 0 255
5.687481 -15.833849 1.386 84 0 255
5.745643 -15.713092 1.113 84 0 255
5.739254 -15.730038 1.442 84 0 255
5.67435 -15.855215 1.046 84 0 255
5.695182 -15.820937 1.529 84 0 255
5.795162 -15.611501 1.155 84 0 255
5.788789 -15.62621 1.258 84 0 255
5.717462 -15.772806 1.281 84 0 255
5.742902 -15.720674 1.37 84 0 255
5.790605 -15.622646 1.288 84 0 255
5.806512 -15.589225 1.131 84 0 255
5.742919 -15.718438 1.207 84 0 255
5.661116 -15.889999 1.456 84 0 255
5.865128 -15.467578 1.048 84 0 255
5.694274 -15.82272 1.516 84 0 255
5.694274 -15.82272 1.507 84 0 255
5.690676 -15.825376 1.163 84 0 255
5.801535 -15.596789 1.066 84 0 255
5.692055 -15.820467 1.138 84 0 255
5.684757 -15.839194 1.347 84 0 255
5.786519 -15.630666 1.262 84 0 255
5.734294 -15.735367 1.158 84 0 255
5.720202 -15.765224 1.242 84 0 255
5.679327 -15.847651 1.18 84 0 255
5.842848 -15.515709 1.13 84 0 255
5.694291 -15.820483 1.436 84 0 255
5.756522 -15.693944 1.301 84 0 255
5.677511 -15.851214 1.143 84 0 255
5.702463 -15.804445 1.448 84 0 255
5.770629 -15.661851 1.082 84 0 255
5.685228 -15.836068 1.141 84 0 255
5.703859 -15.7973 1.198 84 0 255
5.656139 -15.897564 1.314 84 0 255
5.734276 -15.737602 1.224 84 0 255
5.789243 -15.625319 1.165 84 0 255
5.660242 -15.887309 1.274 84 0 255
5.67973 -15.853468 1.521 84 0 255
5.653399 -15.905146 1.536 84 0 255
5.717496 -15.768334 1.083 84 0 255
5.754724 -15.695271 1.277 84 0 255
5.822873 -15.554913 1.084 84 0 255
5.710198 -15.787063 1.35 84 0 255
5.746988 -15.712654 1.302 84 0 255
5.797886 -15.606154 1.081 84 0 255
5.679327 -15.847651 1.138 84 0 255
5.712904 -15.783953 1.444 84 0 255
5.667069 -15.871708 1.143 84 0 255
5.780617 -15.642248 1.175 84 0 255
5.819241 -15.562041 1.165 84 0 255
5.824705 -15.549112 1.043 84 0 255
5.772917 -15.65516 1.048 84 0 255
5.703825 -15.801772 1.389 84 0 255
5.817878 -15.564714 1.142 84 0 255
5.698865 -15.807101 1.132 84 0 255
5.74339 -15.715311 1.075 84 0 255
5.697503 -15.809774 1.037 84 0 255
5.70929 -15.788844 1.256 84 0 255
5.771521 -15.662305 1.324 84 0 255
5.831969 -15.534857 1.053 84 0 255
5.721582 -15.760315 1.091 84 0 255
5.689734 -15.83163 1.437 84 0 255
5.762895 -15.679234 1.186 84 0 255
5.780147 -15.645375 1.322 84 0 255
5.847404 -15.504562 1.103 84 0 255
5.728812 -15.750531 1.451 84 0 255
5.684741 -15.841432 1.473 84 0 255
5.828791 -15.541094 1.051 84 0 255
5.793346 -15.615065 1.045 84 0 255
5.668363 -15.877979 1.632 84 0 255
5.706549 -15.796427 1.434 84 0 255
5.711106 -15.78528 1.286 84 0 255
5.744735 -15.714874 1.191 84 0 255
5.886011 -15.426591 1.06 84 0 255
5.667959 -15.872162 1.287 84 0 255
5.656559 -15.901146 1.604 84 0 255
5.695687 -15.813338 1.095 84 0 255
5.654323 -15.901128 1.335 84 0 255
5.752924 -15.696599 1.132 84 0 255
5.685665 -15.837412 1.372 84 0 255
5.790169 -15.621302 1.094 84 0 255
5.658829 -15.89669 1.65 84 0 255
5.794691 -15.614627 1.277 84 0 255
5.742448 -15.721565 1.249 84 0 255
5.656577 -15.898909 1.412 84 0 255
5.762458 -15.677888 1.163 84 0 255
5.792421 -15.619081 1.222 84 0 255
5.696998 -15.817373 1.539 84 0 255
5.832407 -15.536201 1.153 84 0 255
5.737 -15.732257 1.332 84 0 255
5.696544 -15.818265 1.472 84 0 255
5.699268 -15.812919 1.537 84 0 255
5.714284 -15.779043 1.28 84 0 255
5.738816 -15.728693 1.243 84 0 255
5.704278 -15.800881 1.444 84 0 255
5.682521 -15.839178 1.049 84 0 255
5.691147 -15.822248 1.096 84 0 255
5.86738 -15.465358 1.106 84 0 255
5.735656 -15.732694 1.079 84 0 255
5.749292 -15.703728 1.092 84 0 255
5.707928 -15.791517 1.315 84 0 255
5.778801 -15.645813 1.163 84 0 255
5.716083 -15.777716 1.435 84 0 255
5.711089 -15.787517 1.488 84 0 255
5.697049 -15.810666 1.121 84 0 255
5.664328 -15.87929 1.182 84 0 255
5.730644 -15.744731 1.314 84 0 255
5.813338 -15.573625 1.11 84 0 255
5.734276 -15.737602 1.251 84 0 255
5.668397 -15.873507 1.442 84 0 255
5.693837 -15.821375 1.321 84 0 255
5.878747 -15.440846 1.076 84 0 255
5.697049 -15.810666 1.086 84 0 255
5.723347 -15.763458 1.457 84 0 255
5.717496 -15.768334 1.055 84 0 255
5.801064 -15.599917 1.177 84 0 255
5.729702 -15.750984 1.474 84 0 255
5.660208 -15.891782 1.501 84 0 255
5.65476 -15.902473 1.438 84 0 255
5.662949 -15.884199 1.378 84 0 255
5.703371 -15.802664 1.45 84 0 255
5.758355 -15.688144 1.245 84 0 255
5.727938 -15.747841 1.168 84 0 255
5.668834 -15.874852 1.6 84 0 255
5.808799 -15.582534 1.095 84 0 255
5.703388 -15.800427 1.263 84 0 255
5.65661 -15.894437 1.258 84 0 255
5.655651 -15.902927 1.582 84 0 255
5.720674 -15.762097 1.077 84 0 255
5.755631 -15.69349 1.217 84 0 255
5.716083 -15.777716 1.489 84 0 255
5.681159 -15.841851 1.084 84 0 255
5.737018 -15.730021 1.075 84 0 255
5.730174 -15.747858 1.372 84 0 255
5.758371 -15.685908 1.138 84 0 255
5.756976 -15.693053 1.313 84 0 255
5.773337 -15.658741 1.324 84 0 255
5.782887 -15.637793 1.248 84 0 255
5.662915 -15.888672 1.627 84 0 255
5.657031 -15.898019 1.427 84 0 255
5.688406 -15.829831 1.129 84 0 255
5.706566 -15.79419 1.277 84 0 255
5.695653 -15.817811 1.44 84 0 255
5.704784 -15.793283 1.054 84 0 255
5.837871 -15.523273 1.094 84 0 255
5.746063 -15.716674 1.429 84 0 255
5.727484 -15.748733 1.152 84 0 255
5.664799 -15.876163 1.062 84 0 255
5.884195 -15.430155 1.064 84 0 255
5.771537 -15.660069 1.183 84 0 255
5.747476 -15.707292 1.11 84 0 255
5.708399 -15.78839 1.135 84 0 255
5.799719 -15.600354 1.071 84 0 255
5.665202 -15.881981 1.564 84 0 255
5.673862 -15.860579 1.215 84 0 255
5.786537 -15.628429 1.089 84 0 255
5.782433 -15.638684 1.138 84 0 255
5.695653 -15.817811 1.421 84 0 255
5.732443 -15.743403 1.401 84 0 255
5.73384 -15.736259 1.076 84 0 255
5.663419 -15.881072 1.227 84 0 255
5.74154 -15.723347 1.284 84 0 255
5.683867 -15.83874 1.113 84 0 255
5.708416 -15.786155 1.056 84 0 255
5.806966 -15.588334 1.189 84 0 255
5.65434 -15.898892 1.184 84 0 255
5.717008 -15.773697 1.344 84 0 255
5.767452 -15.668088 1.196 84 0 255
5.716134 -15.771008 1.066 84 0 255
5.687953 -15.830722 1.221 84 0 255
5.788789 -15.62621 1.309 84 0 255
5.7293 -15.745169 1.098 84 0 255
5.770613 -15.664086 1.313 84 0 255
5.768797 -15.66765 1.337 84 0 255
5.79607 -15.609718 1.1 84 0 255
5.659755 -15.892672 1.449 84 0 255
5.686119 -15.836522 1.344 84 0 255
5.702934 -15.801318 1.281 84 0 255
5.840124 -15.521055 1.123 84 0 255
5.672936 -15.864597 1.432 84 0 255
5.783813 -15.633776 1.102 84 0 255
5.668885 -15.868144 1.131 84 0 255
5.685228 -15.836068 1.134 84 0 255
5.68158 -15.845431 1.26 84 0 255
5.702463 -15.804445 1.359 84 0 255
5.730644 -15.744731 1.276 84 0 255
5.737 -15.732257 1.303 84 0 255
5.833683 -15.544708 1.524 84 0 255
5.835954 -15.540254 1.498 84 0 255
5.786031 -15.636028 1.386 84 0 255
5.868288 -15.463576 1.152 84 0 255
5.694274 -15.82272 1.575 84 0 255
5.752368 -15.710907 1.634 84 0 255
5.798726 -15.613317 1.456 84 0 255
5.790537 -15.63159 1.529 84 0 255
5.847252 -15.524687 1.693 84 0 255
5.728777 -15.755003 1.536 84 0 255
5.702412 -15.811153 1.702 84 0 255
5.751477 -15.710453 1.592 84 0 255
5.857695 -15.504193 1.695 84 0 255
5.821023 -15.562949 1.287 84 0 255
5.854987 -15.507303 1.627 84 0 255
5.785543 -15.641392 1.569 84 0 255
5.763752 -15.684159 1.557 84 0 255
5.782769 -15.653445 1.709 84 0 255
5.832741 -15.550962 1.623 84 0 255
5.832725 -15.553199 1.681 84 0 255
5.883657 -15.442226 1.401 84 0 255
5.691988 -15.829412 1.601 84 0 255
5.783256 -15.648083 1.618 84 0 255
5.871903 -15.458684 1.222 84 0 255
5.803669 -15.610224 1.699 84 0 255
5.867699 -15.482355 1.7 84 0 255
5.865077 -15.474285 1.238 84 0 255
5.896771 -15.423094 1.591 84 0 255
5.863749 -15.472486 1.125 84 0 255
5.865951 -15.476975 1.379 84 0 255
5.745138 -15.720691 1.527 84 0 255
5.884195 -15.430155 1.092 84 0 255
5.770528 -15.675267 1.687 84 0 255
5.884967 -15.44626 1.597 84 0 255
5.899597 -15.404332 1.213 84 0 255
5.810127 -15.584333 1.269 84 0 255
5.842292 -15.530016 1.589 84 0 255
5.800071 -15.612879 1.529 84 0 255
5.783761 -15.640484 1.414 84 0 255
5.793261 -15.626245 1.574 84 0 255
5.862739 -15.487684 1.55 84 0 255
5.871433 -15.461811 1.241 84 0 255
5.873215 -15.462719 1.41 84 0 255
5.834137 -15.543818 1.511 84 0 255
5.849187 -15.50547 1.282 84 0 255
5.855878 -15.507758 1.713 84 0 255
5.75785 -15.695743 1.516 84 0 255
5.868726 -15.464921 1.213 84 0 255
5.761448 -15.693087 1.688 84 0 255
5.846883 -15.514398 1.383 84 0 255
5.769217 -15.671231 1.472 84 0 255
5.830018 -15.556309 1.664 84 0 255
5.872239 -15.473445 1.673 84 0 255
5.865463 -15.482338 1.526 84 0 255
5.827832 -15.549583 1.303 84 0 255
5.894518 -15.425314 1.558 84 0 255
5.863647 -15.485902 1.518 84 0 255
5.884042 -15.450279 1.681 84 0 255
5.843183 -15.53047 1.668 84 0 255
5.695182 -15.820937 1.565 84 0 255
5.804611 -15.603969 1.548 84 0 255
5.815036 -15.585711 1.625 84 0 255
5.855929 -15.501049 1.522 84 0 255
5.839166 -15.529545 1.406 84 0 255
5.892668 -15.43335 1.707 84 0 255
5.838728 -15.5282 1.295 84 0 255
5.879065 -15.457844 1.584 84 0 255
5.721951 -15.770605 1.627 84 0 255
5.863294 -15.473377 1.126 84 0 255
5.81549 -15.584821 1.609 84 0 255
5.860418 -15.498848 1.704 84 0 255
5.831414 -15.549164 1.527 84 0 255
5.878629 -15.456499 1.539 84 0 255
5.750064 -15.719834 1.755 84 0 255
5.876006 -15.448429 1.167 84 0 255
5.784687 -15.636465 1.375 84 0 255
5.848228 -15.513961 1.46 84 0 255
5.875519 -15.453793 1.257 84 0 255
5.738731 -15.739873 1.716 84 0 255
5.89361 -15.427095 1.587 84 0 255
5.840528 -15.526872 1.362 84 0 255
5.82689 -15.555838 1.443 84 0 255
5.873651 -15.464065 1.444 84 0 255
5.762356 -15.691304 1.688 84 0 255
5.897259 -15.417732 1.503 84 0 255
5.806007 -15.596824 1.419 84 0 255
5.768712 -15.67883 1.638 84 0 255
5.718319 -15.777733 1.644 84 0 255
5.686522 -15.84234 1.644 84 0 255
5.711509 -15.791098 1.599 84 0 255
5.783273 -15.645845 1.548 84 0 255
5.890114 -15.416336 1.052 84 0 255
5.754672 -15.70198 1.504 84 0 255
5.878209 -15.452918 1.439 84 0 255
5.706078 -15.799554 1.569 84 0 255
5.873651 -15.464065 1.479 84 0 255
5.706028 -15.806262 1.724 84 0 255
5.840981 -15.525981 1.391 84 0 255
5.83777 -15.53669 1.508 84 0 255
5.70332 -15.809371 1.649 84 0 255
5.862688 -15.494392 1.744 84 0 255
5.74423 -15.722473 1.529 84 0 255
5.828706 -15.552274 1.416 84 0 255
5.79733 -15.620461 1.645 84 0 255
5.886381 -15.43688 1.424 84 0 255
5.727819 -15.763493 1.745 84 0 255
5.798692 -15.617788 1.606 84 0 255
5.7637 -15.690867 1.693 84 0 255
5.801904 -15.60708 1.521 84 0 255
5.70105 -15.813827 1.676 84 0 255
5.886885 -15.42928 1.197 84 0 255
5.72148 -15.773731 1.692 84 0 255
5.892736 -15.424406 1.448 84 0 255
5.770545 -15.673031 1.602 84 0 255
5.821426 -15.568766 1.518 84 0 255
5.802762 -15.612005 1.678 84 0 255
5.884984 -15.444025 1.528 84 0 255
5.882362 -15.435955 1.173 84 0 255
5.73737 -15.742546 1.714 84 0 255
5.752419 -15.704199 1.458 84 0 255
5.790537 -15.63159 1.552 84 0 255
5.875871 -15.466317 1.676 84 0 255
5.791008 -15.628463 1.489 84 0 255
5.723296 -15.770167 1.713 84 0 255
5.818667 -15.578584 1.619 84 0 255
5.742851 -15.727382 1.595 84 0 255
5.811472 -15.583896 1.363 84 0 255
5.865463 -15.482338 1.565 84 0 255
5.869196 -15.461794 1.111 84 0 255
5.691954 -15.833883 1.751 84 0 255
5.889978 -15.434224 1.548 84 0 255
5.714653 -15.789332 1.756 84 0 255
5.815978 -15.579458 1.508 84 0 255
5.757867 -15.693507 1.431 84 0 255
5.870423 -15.477009 1.697 84 0 255
5.863244 -15.480084 1.344 84 0 255
5.876847 -15.455591 1.388 84 0 255
5.681075 -15.85303 1.657 84 0 255
5.710584 -15.795115 1.663 84 0 255
5.7637 -15.690867 1.739 84 0 255
5.850481 -15.511742 1.537 84 0 255
5.883572 -15.453405 1.716 84 0 255
5.748787 -15.711327 1.48 84 0 255
5.894955 -15.426659 1.653 84 0 255
5.843637 -15.529578 1.62 84 0 255
5.79232 -15.632498 1.693 84 0 255
5.891862 -15.421716 1.292 84 0 255
5.743305 -15.726491 1.561 84 0 255
5.728727 -15.761711 1.765 84 0 255
5.883588 -15.45117 1.69 84 0 255
5.796927 -15.614644 1.43 84 0 255
5.723767 -15.76704 1.598 84 0 255
5.890047 -15.42528 1.287 84 0 255
5.828706 -15.552274 1.414 84 0 255
5.884513 -15.447152 1.615 84 0 255
5.81465 -15.577659 1.352 84 0 255
5.726508 -15.759459 1.549 84 0 255
5.841384 -15.531797 1.565 84 0 255
5.809168 -15.592823 1.475 84 0 255
5.870944 -15.467175 1.403 84 0 255
5.660174 -15.896254 1.716 84 0 255
5.791882 -15.631153 1.643 84 0 255
5.793715 -15.625353 1.54 84 0 255
5.703774 -15.80848 1.688 84 0 255
5.835011 -15.546508 1.674 84 0 255
5.860974 -15.48454 1.314 84 0 255
5.752805 -15.712252 1.728 84 0 255
5.885507 -15.43419 1.273 84 0 255
5.840022 -15.53447 1.592 84 0 255
5.883253 -15.436409 1.208 84 0 255
5.82911 -15.55809 1.668 84 0 255
5.869986 -15.475663 1.6 84 0 255
5.850901 -15.515323 1.63 84 0 255
5.818667 -15.578584 1.637 84 0 255
5.863613 -15.490375 1.694 84 0 255
5.792336 -15.630262 1.603 84 0 255
5.783291 -15.64361 1.462 84 0 255
5.855509 -15.497468 1.374 84 0 255
5.807806 -15.595496 1.464 84 0 255
5.73426 -15.739839 1.468 84 0 255
5.795043 -15.627152 1.703 84 0 255
5.891323 -15.433786 1.64 84 0 255
5.809571 -15.598639 1.685 84 0 255
5.884144 -15.436863 1.254 84 0 255
5.893173 -15.425751 1.469 84 0 255
5.682436 -15.850358 1.682 84 0 255
5.889036 -15.440477 1.671 84 0 255
5.871416 -15.464047 1.33 84 0 255
5.87276 -15.463611 1.44 84 0 255
5.806949 -15.59057 1.275 84 0 255
5.799685 -15.604826 1.302 84 0 255
5.848279 -15.507253 1.24 84 0 255
5.848194 -15.518433 1.608 84 0 255
5.78097 -15.654774 1.645 84 0 255
5.709693 -15.794662 1.595 84 0 255
5.842848 -15.515709 1.203 84 0 255
5.862335 -15.481868 1.353 84 0 255
5.83735 -15.533109 1.401 84 0 255
5.853693 -15.501033 1.38 84 0 255
5.886011 -15.426591 1.116 84 0 255
5.893225 -15.419043 1.304 84 0 255
5.668817 -15.877088 1.671 84 0 255
5.898654 -15.410587 1.376 84 0 255
5.81919 -15.568748 1.337 84 0 255
5.893644 -15.422624 1.448 84 0 255
5.713762 -15.788878 1.683 84 0 255
5.722859 -15.768822 1.615 84 0 255
5.704246 -15.805354 1.639 84 0 255
5.812749 -15.592402 1.682 84 0 255
5.893678 -15.418152 1.302 84 0 255
5.704246 -15.805354 1.616 84 0 255
5.805048 -15.605314 1.604 84 0 255
5.86363 -15.488137 1.58 84 0 255
5.738749 -15.737637 1.629 84 0 255
5.765534 -15.685067 1.647 84 0 255
5.73014 -15.75233 1.554 84 0 255
5.836878 -15.536236 1.418 84 0 255
5.804123 -15.609332 1.662 84 0 255
5.74423 -15.722473 1.499 84 0 255
5.796388 -15.626715 1.734 84 0 255
5.843621 -15.531815 1.693 84 0 255
5.875989 -15.450665 1.217 84 0 255
5.810966 -15.591495 1.592 84 0 255
5.791916 -15.626681 1.452 84 0 255
5.718302 -15.779968 1.685 84 0 255
5.717848 -15.780859 1.666 84 0 255
5.771873 -15.674829 1.723 84 0 255
5.779608 -15.657446 1.698 84 0 255
5.83012 -15.542892 1.234 84 0 255
5.68015 -15.857049 1.758 84 0 255
5.857393 -15.48496 1.155 84 0 255
5.771923 -15.668121 1.511 84 0 255
5.78968 -15.626664 1.336 84 0 255
5.815944 -15.58393 1.638 84 0 255
5.834626 -15.538455 1.391 84 0 255
5.818736 -15.56964 1.347 84 0 255
5.706969 -15.800008 1.649 84 0 255
5.868221 -15.47252 1.418 84 0 255
5.820938 -15.574129 1.605 84 0 255
5.764643 -15.684613 1.623 84 0 255
5.736933 -15.7412 1.649 84 0 255
5.877249 -15.461408 1.624 84 0 255
5.782803 -15.648973 1.597 84 0 255
5.817306 -15.581257 1.615 84 0 255
5.728273 -15.762603 1.741 84 0 255
5.714704 -15.782625 1.585 84 0 255
5.805133 -15.594133 1.314 84 0 255
5.734175 -15.751019 1.736 84 0 255
5.889995 -15.431988 1.475 84 0 255
5.70332 -15.809371 1.66 84 0 255
5.865412 -15.489046 1.724 84 0 255
5.747391 -15.718472 1.613 84 0 255
5.663806 -15.889126 1.693 84 0 255
5.886919 -15.424809 1.103 84 0 255
5.772411 -15.662759 1.406 84 0 255
5.832844 -15.537547 1.271 84 0 255
5.756925 -15.69976 1.569 84 0 255
5.776951 -15.653848 1.393 84 0 255
5.894518 -15.425314 1.587 84 0 255
5.826874 -15.558074 1.534 84 0 255
5.826437 -15.556728 1.46 84 0 255
5.877335 -15.450228 1.281 84 0 255
5.859561 -15.493921 1.507 84 0 255
5.858181 -15.49883 1.593 84 0 255
5.766913 -15.680159 1.591 84 0 255
5.877301 -15.4547 1.388 84 0 255
5.888735 -15.421246 1.101 84 0 255
5.832826 -15.539783 1.328 84 0 255
5.854549 -15.505959 1.618 84 0 255
5.856383 -15.500158 1.519 84 0 255
5.840022 -15.53447 1.566 84 0 255
5.761062 -15.685033 1.401 84 0 255
5.776884 -15.662793 1.696 84 0 255
5.675156 -15.86685 1.725 84 0 255
5.87192 -15.456448 1.165 84 0 255
5.868675 -15.471629 1.384 84 0 255
5.759666 -15.692178 1.503 84 0 255
5.862823 -15.476504 1.204 84 0 255
5.882345 -15.438191 1.233 84 0 255
5.780147 -15.645375 1.367 84 0 255
5.883623 -15.446698 1.53 84 0 255
5.861882 -15.482758 1.342 84 0 255
5.736042 -15.740746 1.568 84 0 255
5.894989 -15.422186 1.493 84 0 255
5.731064 -15.748312 1.521 84 0 255
5.836021 -15.53131 1.254 84 0 255
5.881908 -15.436846 1.145 84 0 255
5.738346 -15.73182 1.465 84 0 255
5.892214 -15.43424 1.716 84 0 255
5.847388 -15.506798 1.223 84 0 255
5.663352 -15.890017 1.726 84 0 255
5.701084 -15.809355 1.567 84 0 255
5.708297 -15.801806 1.745 84 0 255
5.894115 -15.419497 1.324 84 0 255
5.81238 -15.582114 1.381 84 0 255
5.887759 -15.431971 1.366 84 0 255
5.893661 -15.420388 1.329 84 0 255
5.738731 -15.739873 1.715 84 0 255
5.768325 -15.670777 1.422 84 0 255
5.864067 -15.489483 1.697 84 0 255
5.668817 -15.877088 1.64 84 0 255
5.820552 -15.566076 1.4 84 0 255
5.740565 -15.734074 1.66 84 0 255
5.766425 -15.685521 1.709 84 0 255
5.709239 -15.795553 1.643 84 0 255
5.786015 -15.638265 1.483 84 0 255
5.848177 -15.520668 1.675 84 0 255
5.736495 -15.739856 1.595 84 0 255
5.68696 -15.843684 1.718 84 0 255
5.756017 -15.701543 1.611 84 0 255
5.720135 -15.774169 1.636 84 0 255
5.751511 -15.705981 1.423 84 0 255
5.688809 -15.835649 1.609 84 0 255
5.77959 -15.659683 1.734 84 0 255
5.866791 -15.484138 1.641 84 0 255
5.844562 -15.52556 1.604 84 0 255
5.711963 -15.790207 1.637 84 0 255
5.878225 -15.450682 1.355 84 0 255
5.829632 -15.548256 1.354 84 0 255
5.885523 -15.431954 1.229 84 0 255
5.901816 -15.406586 1.453 84 0 255
5.834154 -15.541582 1.475 84 0 255
5.720151 -15.771933 1.552 84 0 255
5.799146 -15.616897 1.637 84 0 255
5.883588 -15.45117 1.675 84 0 255
5.756068 -15.694835 1.413 84 0 255
5.854181 -15.495669 1.277 84 0 255
5.882311 -15.442662 1.321 84 0 255
5.726928 -15.763039 1.665 84 0 255
5.847808 -15.51038 1.343 84 0 255
5.899546 -15.411041 1.412 84 0 255
5.867749 -15.475647 1.496 84 0 255
5.820586 -15.561604 1.258 84 0 255
5.774177 -15.665902 1.567 84 0 255
5.874139 -15.458701 1.362 84 0 255
5.671541 -15.871742 1.679 84 0 255
5.71467 -15.787096 1.695 84 0 255
5.826369 -15.565673 1.709 84 0 255
5.722876 -15.766586 1.575 84 0 255
5.718352 -15.77326 1.524 84 0 255
5.786417 -15.644082 1.653 84 0 255
5.864572 -15.481884 1.452 84 0 255
5.702446 -15.806682 1.567 84 0 255
5.815524 -15.580349 1.5 84 0 255
5.843285 -15.517054 1.276 84 0 255
5.84774 -15.519323 1.615 84 0 255
5.664277 -15.885998 1.678 84 0 255
5.86965 -15.460903 1.138 84 0 255
5.774665 -15.66054 1.499 84 0 255
5.849556 -15.515759 1.594 84 0 255
5.768729 -15.676595 1.564 84 0 255
5.718285 -15.782204 1.753 84 0 255
5.736479 -15.742092 1.636 84 0 255
5.763264 -15.689523 1.671 84 0 255
5.862756 -15.485448 1.476 84 0 255
5.838274 -15.52909 1.305 84 0 255
5.799634 -15.611534 1.467 84 0 255
5.760523 -15.697104 1.697 84 0 255
5.797364 -15.615989 1.488 84 0 255
5.89176 -15.435132 1.688 84 0 255
5.793749 -15.620881 1.444 84 0 255
5.802846 -15.600825 1.348 84 0 255
5.819122 -15.577693 1.651 84 0 255
5.866002 -15.470267 1.221 84 0 255
5.891374 -15.427079 1.452 84 0 255
5.69789 -15.817828 1.611 84 0 255
5.848631 -15.519777 1.638 84 0 255
5.819139 -15.575457 1.588 84 0 255
5.806898 -15.597278 1.513 84 0 255
5.796406 -15.624479 1.691 84 0 255
5.686506 -15.844575 1.718 84 0 255
5.851355 -15.514431 1.657 84 0 255
5.802794 -15.607533 1.523 84 0 255
5.881454 -15.437737 1.173 84 0 255
5.754689 -15.699744 1.47 84 0 255
5.850078 -15.505924 1.337 84 0 255
5.890029 -15.427515 1.334 84 0 255
5.676989 -15.86105 1.66 84 0 255
5.791394 -15.636517 1.732 84 0 255
5.753798 -15.69929 1.409 84 0 255
5.874559 -15.462281 1.461 84 0 255
5.825932 -15.564327 1.622 84 0 255
5.748316 -15.714454 1.497 84 0 255
5.888701 -15.425717 1.21 84 0 255
5.803249 -15.606642 1.57 84 0 255
5.88495 -15.448497 1.686 84 0 255
5.790537 -15.63159 1.546 84 0 255
5.848262 -15.509488 1.316 84 0 255
5.89815 -15.418186 1.54 84 0 255
5.871869 -15.463157 1.35 84 0 255
5.80784 -15.591024 1.375 84 0 255
5.868641 -15.476101 1.551 84 0 255
5.758271 -15.699324 1.681 84 0 255
5.844159 -15.519744 1.389 84 0 255
5.757867 -15.693507 1.465 84 0 255
5.79237 -15.625791 1.509 84 0 255
5.885455 -15.440898 1.499 84 0 255
5.799668 -15.607062 1.375 84 0 255
5.898116 -15.422658 1.715 84 0 255
5.669254 -15.878433 1.72 84 0 255
5.832792 -15.544254 1.448 84 0 255
5.86405 -15.491719 1.725 84 0 255
5.757328 -15.705578 1.763 84 0 255
5.890937 -15.425734 1.379 84 0 255
5.875887 -15.464081 1.581 84 0 255
5.760137 -15.689052 1.48 84 0 255
5.768779 -15.669887 1.383 84 0 255
5.785089 -15.642282 1.545 84 0 255
5.750603 -15.707763 1.456 84 0 255
5.900908 -15.408368 1.45 84 0 255
5.786872 -15.64319 1.687 84 0 255
5.892317 -15.420825 1.281 84 0 255
5.858704 -15.488995 1.341 84 0 255
5.853239 -15.501924 1.422 84 0 255
5.7256 -15.76124 1.592 84 0 255
5.845488 -15.521543 1.515 84 0 255
5.805099 -15.598605 1.402 84 0 255
5.750132 -15.710889 1.541 84 0 255
5.752839 -15.70778 1.592 84 0 255
5.839148 -15.53178 1.476 84 0 255
5.718739 -15.781314 1.741 84 0 255
5.779608 -15.657446 1.671 84 0 255
5.852836 -15.496106 1.189 84 0 255
5.783273 -15.645845 1.517 84 0 255
5.729215 -15.756348 1.648 84 0 255
5.783744 -15.642719 1.451 84 0 255
5.763315 -15.682815 1.487 84 0 255
5.875485 -15.458264 1.424 84 0 255
5.87419 -15.451993 1.149 84 0 255
5.864991 -15.485465 1.607 84 0 255
5.878645 -15.454263 1.503 84 0 255
5.883639 -15.444462 1.509 84 0 255
5.829177 -15.549147 1.362 84 0 255
5.831464 -15.542456 1.288 84 0 255
5.875552 -15.44932 1.14 84 0 255
5.663352 -15.890017 1.718 84 0 255
5.762373 -15.689069 1.578 84 0 255
5.884077 -15.445807 1.533 84 0 255
5.81053 -15.59015 1.515 84 0 255
5.847723 -15.52156 1.684 84 0 255
5.84236 -15.521071 1.299 84 0 255
5.866926 -15.466249 1.147 84 0 255
5.792824 -15.624899 1.448 84 0 255
5.769653 -15.672577 1.514 84 0 255
5.874174 -15.454228 1.217 84 0 255
5.801416 -15.612443 1.61 84 0 255
5.814212 -15.576314 1.297 84 0 255
5.767401 -15.674795 1.481 84 0 255
5.855457 -15.504176 1.567 84 0 255
5.825478 -15.565219 1.62 84 0 255
5.775959 -15.66681 1.742 84 0 255
5.795077 -15.62268 1.545 84 0 255
5.853222 -15.504159 1.456 84 0 255
5.771923 -15.668121 1.499 84 0 255
5.750989 -15.715816 1.743 84 0 255
5.880967 -15.4431 1.314 84 0 255
5.80229 -15.615132 1.754 84 0 255
5.845033 -15.522433 1.546 84 0 255
5.719647 -15.779531 1.732 84 0 255
5.781457 -15.64941 1.562 84 0 255
5.814565 -15.58884 1.684 84 0 255
5.858199 -15.496594 1.516 84 0 255
5.73014 -15.75233 1.596 84 0 255
5.735571 -15.743874 1.649 84 0 255
5.801501 -15.601262 1.294 84 0 255
5.790083 -15.632482 1.561 84 0 255
5.890432 -15.433332 1.548 84 0 255
5.763769 -15.681924 1.471 84 0 255
5.814145 -15.585258 1.568 84 0 255
5.851372 -15.512196 1.576 84 0 255
5.821829 -15.574583 1.725 84 0 255
5.811926 -15.583005 1.368 84 0 255
5.846798 -15.525578 1.697 84 0 255
5.807318 -15.600859 1.656 84 0 255
5.863159 -15.491265 1.695 84 0 255
5.727416 -15.757676 1.571 84 0 255
5.790521 -15.633826 1.595 84 0 255
5.877216 -15.46588 1.718 84 0 255
5.856853 -15.497031 1.483 84 0 255
5.863193 -15.486794 1.527 84 0 255
5.836038 -15.529074 1.214 84 0 255
5.842377 -15.518836 1.264 84 0 255
5.887339 -15.428391 1.221 84 0 255
5.797784 -15.61957 1.605 84 0 255
5.861411 -15.485886 1.388 84 0 255
5.86284 -15.474268 1.124 84 0 255
5.810025 -15.59775 1.66 84 0 255
5.816381 -15.585276 1.727 84 0 255
5.706515 -15.800899 1.589 84 0 255
5.776009 -15.660103 1.529 84 0 255
5.719244 -15.773714 1.577 84 0 255
5.887289 -15.435098 1.409 84 0 255
5.879099 -15.453372 1.497 84 0 255
5.813725 -15.581677 1.42 84 0 255
5.69197 -15.831647 1.647 84 0 255
5.855457 -15.504176 1.601 84 0 255
5.860923 -15.491248 1.514 84 0 255
5.808277 -15.592368 1.421 84 0 255
5.798204 -15.623151 1.749 84 0 255
5.740565 -15.734074 1.65 84 0 255
5.890449 -15.431096 1.492 84 0 255
5.819644 -15.567858 1.381 84 0 255
5.818718 -15.571876 1.423 84 0 255
5.871314 -15.477464 1.733 84 0 255
5.871801 -15.4721 1.629 84 0 255
5.880092 -15.44041 1.177 84 0 255
5.899512 -15.415513 1.526 84 0 255
5.843654 -15.527343 1.566 84 0 255
5.896334 -15.42175 1.578 84 0 255
5.854147 -15.500141 1.377 84 0 255
5.761953 -15.685488 1.431 84 0 255
5.770965 -15.676611 1.763 84 0 255
5.752822 -15.710015 1.641 84 0 255
5.837265 -15.544289 1.693 84 0 255
5.785107 -15.640046 1.488 84 0 255
5.663823 -15.886889 1.663 84 0 255
5.848177 -15.520668 1.676 84 0 255
5.694712 -15.824065 1.641 84 0 255
5.676972 -15.863286 1.697 84 0 255
5.705153 -15.803572 1.587 84 0 255
5.873181 -15.467191 1.572 84 0 255
5.868675 -15.471629 1.431 84 0 255
5.889036 -15.440477 1.656 84 0 255
5.835568 -15.532201 1.228 84 0 255
5.897276 -15.415496 1.41 84 0 255
5.825528 -15.558511 1.461 84 0 255
5.846361 -15.524233 1.684 84 0 255
5.805939 -15.605768 1.714 84 0 255
5.799668 -15.607062 1.365 84 0 255
5.839097 -15.538488 1.625 84 0 255
5.87957 -15.450245 1.411 84 0 255
5.706969 -15.800008 1.613 84 0 255
5.774665 -15.66054 1.463 84 0 255
5.812834 -15.581223 1.376 84 0 255
5.696982 -15.81961 1.607 84 0 255
5.833734 -15.538001 1.328 84 0 255
5.791412 -15.63428 1.685 84 0 255
5.767401 -15.674795 1.434 84 0 255
5.833649 -15.549181 1.637 84 0 255
5.851338 -15.516667 1.724 84 0 255
5.667455 -15.879761 1.649 84 0 255
5.815928 -15.586165 1.679 84 0 255
5.684236 -15.84903 1.724 84 0 255
5.895863 -15.424877 1.608 84 0 255
5.737403 -15.738074 1.602 84 0 255
5.82462 -15.560293 1.416 84 0 255
5.808697 -15.59595 1.571 84 0 255
5.842275 -15.532251 1.671 84 0 255
5.805133 -15.594133 1.31 84 0 255
5.786922 -15.636482 1.508 84 0 255
5.739254 -15.730038 1.471 84 0 255
5.788318 -15.629337 1.322 84 0 255
5.728777 -15.755003 1.537 84 0 255
5.885018 -15.439553 1.415 84 0 255
5.748787 -15.711327 1.446 84 0 255
5.856853 -15.497031 1.46 84 0 255
5.706044 -15.804026 1.667 84 0 255
5.859629 -15.484978 1.244 84 0 255
5.857325 -15.493904 1.419 84 0 255
5.872709 -15.470318 1.578 84 0 255
5.840964 -15.528216 1.429 84 0 255
5.830488 -15.553182 1.571 84 0 255
5.706969 -15.800008 1.647 84 0 255
5.791394 -15.636517 1.763 84 0 255
5.861326 -15.497066 1.699 84 0 255
5.715612 -15.780842 1.582 84 0 255
5.796927 -15.614644 1.412 84 0 255
5.721059 -15.770151 1.539 84 0 255
5.781424 -15.653883 1.647 84 0 255
5.854147 -15.500141 1.401 84 0 255
5.873215 -15.462719 1.437 84 0 255
5.838206 -15.538034 1.556 84 0 255
5.697855 -15.822299 1.728 84 0 255
5.850112 -15.501452 1.178 84 0 255
5.829177 -15.549147 1.367 84 0 255
5.814094 -15.591966 1.75 84 0 255
5.833212 -15.547835 1.549 84 0 255
5.662898 -15.890907 1.692 84 0 255
5.876897 -15.448883 1.245 84 0 255
5.681966 -15.853484 1.738 84 0 255
5.791916 -15.626681 1.472 84 0 255
5.840981 -15.525981 1.36 84 0 255
5.796422 -15.622243 1.617 84 0 255
5.887322 -15.430626 1.263 84 0 255
5.757833 -15.697979 1.579 84 0 255
5.867295 -15.476539 1.441 84 0 255
5.876341 -15.463189 1.617 84 0 255
5.80646 -15.595933 1.405 84 0 255
5.793295 -15.621772 1.4 84 0 255
5.889558 -15.430643 1.446 84 0 255
5.743776 -15.723364 1.504 84 0 255
5.72602 -15.764821 1.705 84 0 255
5.82911 -15.55809 1.607 84 0 255
5.756908 -15.701997 1.648 84 0 255
5.768224 -15.684194 1.765 84 0 255
5.811858 -15.591949 1.653 84 0 255
5.73061 -15.749203 1.53 84 0 255
5.851894 -15.50236 1.335 84 0 255
5.786015 -15.638265 1.463 84 0 255
5.750132 -15.710889 1.548 84 0 255
5.863681 -15.48143 1.397 84 0 255
5.812817 -15.583459 1.405 84 0 255
5.871416 -15.464047 1.347 84 0 255
5.839114 -15.536253 1.608 84 0 255
5.710584 -15.795115 1.713 84 0 255
5.876795 -15.462299 1.624 84 0 255
5.759212 -15.693069 1.5 84 0 255
5.802778 -15.609769 1.63 84 0 255
5.841015 -15.521509 1.266 84 0 255
5.849135 -15.512178 1.439 84 0 255
5.853171 -15.510867 1.686 84 0 255
5.889053 -15.438241 1.603 84 0 255
5.807386 -15.591915 1.371 84 0 255
5.685178 -15.842776 1.594 84 0 255
5.838644 -15.539379 1.656 84 0 255
5.840107 -15.523291 1.257 84 0 255
5.675627 -15.863723 1.672 84 0 255
5.840544 -15.524635 1.319 84 0 255
5.875013 -15.461391 1.484 84 0 255
5.817289 -15.583493 1.673 84 0 255
5.831884 -15.546037 1.444 84 0 255
5.738765 -15.735401 1.558 84 0 255
5.757816 -15.700215 1.629 84 0 255
5.841856 -15.52867 1.513 84 0 255
5.888701 -15.425717 1.22 84 0 255
5.831884 -15.546037 1.467 84 0 255
5.685614 -15.844121 1.647 84 0 255
5.664277 -15.885998 1.66 84 0 255
5.713342 -15.785297 1.55 84 0 255
5.836811 -15.54518 1.717 84 0 255
5.742363 -15.732745 1.711 84 0 255
5.83101 -15.543346 1.312 84 0 255
5.730089 -15.759038 1.761 84 0 255
5.889541 -15.432878 1.489 84 0 255
5.823678 -15.566546 1.6 84 0 255
5.716032 -15.784423 1.679 84 0 255
5.7124 -15.791552 1.685 84 0 255
5.844562 -15.52556 1.601 84 0 255
5.81776 -15.580366 1.65 84 0 255
5.873736 -15.452884 1.157 84 0 255
5.864135 -15.480539 1.419 84 0 255
5.747828 -15.719817 1.62 84 0 255
5.69789 -15.817828 1.581 84 0 255
5.780113 -15.649847 1.505 84 0 255
5.862301 -15.48634 1.463 84 0 255
5.763247 -15.691758 1.757 84 0 255
5.861462 -15.479177 1.172 84 0 255
5.873736 -15.452884 1.112 84 0 255
5.686506 -15.844575 1.752 84 0 255
5.774597 -15.669483 1.71 84 0 255
5.844614 -15.518852 1.413 84 0 255
5.893139 -15.430223 1.652 84 0 255
5.750553 -15.714471 1.635 84 0 255
5.8337 -15.542472 1.452 84 0 255
5.762356 -15.691304 1.678 84 0 255
5.876881 -15.451119 1.283 84 0 255
5.802307 -15.612897 1.686 84 0 255
5.868237 -15.470284 1.361 84 0 255
5.810564 -15.585678 1.381 84 0 255
5.860049 -15.488559 1.37 84 0 255
5.683362 -15.846339 1.613 84 0 255
5.82958 -15.554964 1.603 84 0 255
5.740616 -15.727365 1.447 84 0 255
5.799583 -15.618242 1.715 84 0 255
5.697855 -15.822299 1.71 84 0 255
5.859124 -15.492577 1.482 84 0 255
5.686994 -15.839212 1.613 84 0 255
5.835903 -15.546962 1.719 84 0 255
5.821375 -15.575474 1.723 84 0 255
5.847388 -15.506798 1.188 84 0 255
5.656542 -15.903381 1.685 84 0 255
5.899563 -15.408804 1.327 84 0 255
5.887674 -15.443151 1.665 84 0 255
5.849607 -15.509051 1.384 84 0 255
5.886885 -15.42928 1.197 84 0 255
5.768291 -15.675249 1.547 84 0 255
5.866841 -15.477429 1.476 84 0 255
5.755512 -15.709142 1.762 84 0 255
5.784199 -15.641829 1.483 84 0 255
5.749645 -15.716252 1.679 84 0 255
5.711475 -15.795569 1.729 84 0 255
5.803771 -15.596807 1.298 84 0 255
5.86094 -15.489013 1.471 84 0 255
5.731939 -15.751002 1.667 84 0 255
5.696948 -15.824081 1.718 84 0 255
5.73014 -15.75233 1.536 84 0 255
5.780601 -15.644485 1.35 84 0 255
5.847286 -15.520214 1.612 84 0 255
5.857745 -15.497485 1.519 84 0 255
5.757345 -15.703341 1.745 84 0 255
5.736512 -15.73762 1.517 84 0 255
5.868186 -15.476993 1.556 84 0 255
5.870406 -15.479245 1.736 84 0 255
5.743776 -15.723364 1.506 84 0 255
5.806495 -15.59146 1.273 84 0 255
5.867363 -15.467594 1.213 84 0 255
5.863715 -15.476958 1.253 84 0 255
5.822316 -15.56922 1.592 84 0 255
5.891459 -15.415898 1.059 84 0 255
5.797399 -15.611517 1.333 84 0 255
5.722892 -15.76435 1.511 84 0 255
5.73014 -15.75233 1.563 84 0 255
5.717444 -15.775043 1.51 84 0 255
5.894064 -15.426205 1.535 84 0 255
5.839131 -15.534017 1.519 84 0 255
5.813203 -15.591513 1.665 84 0 255
5.763718 -15.688632 1.673 84 0 255
5.871365 -15.470756 1.569 84 0 255
5.780096 -15.652082 1.571 84 0 255
5.855526 -15.495232 1.348 84 0 255
5.726491 -15.761695 1.635 84 0 255
5.879956 -15.458298 1.689 84 0 255
5.758707 -15.700668 1.688 84 0 255
5.709676 -15.796897 1.666 84 0 255
5.867245 -15.483246 1.643 84 0 255
5.803283 -15.60217 1.446 84 0 255
5.86738 -15.465358 1.165 84 0 255
5.848211 -15.516196 1.543 84 0 255
5.81776 -15.580366 1.651 84 0 255
5.700142 -15.815608 1.684 84 0 255
5.759144 -15.702014 1.763 84 0 255
5.82235 -15.564748 1.456 84 0 255
5.870423 -15.477009 1.658 84 0 255
5.691954 -15.833883 1.73 84 0 255
5.838173 -15.542507 1.687 84 0 255
5.737807 -15.743892 1.742 84 0 255
5.877216 -15.46588 1.733 84 0 255
5.835499 -15.541144 1.481 84 0 255
5.758775 -15.691725 1.479 84 0 255
5.8242 -15.556712 1.301 84 0 255
5.834172 -15.539346 1.37 84 0 255
5.771503 -15.66454 1.387 84 0 255
5.789175 -15.634263 1.568 84 0 255
5.854987 -15.507303 1.687 84 0 255
5.80414 -15.607096 1.633 84 0 255
5.841452 -15.522854 1.286 84 0 255
5.824099 -15.570128 1.718 84 0 255
5.820013 -15.578147 1.725 84 0 255
5.831464 -15.542456 1.341 84 0 255
5.885977 -15.431063 1.225 84 0 255
5.748736 -15.718036 1.615 84 0 255
5.900051 -15.403441 1.217 84 0 255
5.861377 -15.490357 1.522 84 0 255
5.827362 -15.552711 1.393 84 0 255
5.750586 -15.709999 1.529 84 0 255
5.888633 -15.434661 1.503 84 0 255
5.81692 -15.573204 1.353 84 0 255
5.804174 -15.602624 1.463 84 0 255
5.820921 -15.576365 1.693 84 0 255
5.813237 -15.587039 1.54 84 0 255
5.667438 -15.881997 1.701 84 0 255
5.80599 -15.59906 1.494 84 0 255
5.7901 -15.630245 1.509 84 0 255
5.746921 -15.7216 1.669 84 0 255
5.750081 -15.717598 1.717 84 0 255
5.702412 -15.811153 1.653 84 0 255
5.749173 -15.719379 1.723 84 0 255
5.840544 -15.524635 1.326 84 0 255
5.698763 -15.820518 1.716 84 0 255
5.752368 -15.710907 1.64 84 0 255
5.827378 -15.550475 1.293 84 0 255
5.657905 -15.900708 1.693 84 0 255
5.783677 -15.651663 1.728 84 0 255
5.884564 -15.440444 1.427 84 0 255
5.829564 -15.557199 1.618 84 0 255
5.887237 -15.441806 1.632 84 0 255
5.785123 -15.637811 1.381 84 0 255
5.758253 -15.70156 1.746 84 0 255
5.7256 -15.76124 1.565 84 0 255
5.830959 -15.550055 1.528 84 0 255
5.747862 -15.715344 1.501 84 0 255
5.861326 -15.497066 1.733 84 0 255
5.80192 -15.604843 1.404 84 0 255
5.859141 -15.49034 1.429 84 0 255
5.777859 -15.652066 1.396 84 0 255
5.850901 -15.515323 1.653 84 0 255
5.861916 -15.478287 1.216 84 0 255
5.700596 -15.814717 1.678 84 0 255
5.895477 -15.416824 1.354 84 0 255
5.863698 -15.479195 1.321 84 0 255
5.883639 -15.444462 1.465 84 0 255
5.845891 -15.527359 1.685 84 0 255
5.781945 -15.644048 1.433 84 0 255
5.746953 -15.717127 1.484 84 0 255
5.793664 -15.632061 1.731 84 0 255
5.733772 -15.745202 1.571 84 0 255
5.844125 -15.524216 1.544 84 0 255
5.835028 -15.544271 1.611 84 0 255
5.833179 -15.552307 1.74 84 0 255
5.756976 -15.693053 1.418 84 0 255
5.781945 -15.644048 1.376 84 0 255
5.744197 -15.726945 1.627 84 0 255
5.806478 -15.593698 1.374 84 0 255
5.85724 -15.505085 1.73 84 0 255
5.795934 -15.627606 1.75 84 0 255
5.891913 -15.415009 1.118 84 0 255
5.889541 -15.432878 1.479 84 0 255
5.742851 -15.727382 1.576 84 0 255
5.859175 -15.485868 1.259 84 0 255
5.736007 -15.745219 1.673 84 0 255
5.876779 -15.464535 1.703 84 0 255
5.889995 -15.431988 1.515 84 0 255
5.806041 -15.592352 1.279 84 0 255
5.823746 -15.557603 1.291 84 0 255
5.859662 -15.480505 1.165 84 0 255
5.73426 -15.739839 1.466 84 0 255
5.723296 -15.770167 1.729 84 0 255
5.886919 -15.424809 1.081 84 0 255
5.867715 -15.480119 1.577 84 0 255
5.770141 -15.667213 1.394 84 0 255
5.886346 -15.441352 1.555 84 0 255
5.731939 -15.751002 1.665 84 0 255
5.795077 -15.62268 1.56 84 0 255
5.799668 -15.607062 1.384 84 0 255
5.788721 -15.635155 1.562 84 0 255
5.884077 -15.445807 1.533 84 0 255
5.867699 -15.482355 1.696 84 0 255
5.746483 -15.720254 1.548 84 0 255
5.833196 -15.550072 1.656 84 0 255
5.881319 -15.455625 1.682 84 0 255
5.861462 -15.479177 1.172 84 0 255
5.701538 -15.808463 1.562 84 0 255
5.870071 -15.464484 1.3 84 0 255
5.796491 -15.613299 1.378 84 0 255
5.773285 -15.665448 1.548 84 0 255
5.894518 -15.425314 1.553 84 0 255
5.888196 -15.433316 1.447 84 0 255
5.765567 -15.680595 1.52 84 0 255
5.844999 -15.526905 1.669 84 0 255
5.694678 -15.828536 1.755 84 0 255
5.875921 -15.459609 1.493 84 0 255
5.687884 -15.839665 1.666 84 0 255
5.829547 -15.559436 1.703 84 0 255
5.894603 -15.414133 1.249 84 0 255
5.895981 -15.409225 1.135 84 0 255
5.865077 -15.474285 1.277 84 0 255
5.843285 -15.517054 1.221 84 0 255
5.889558 -15.430643 1.403 84 0 255
5.775589 -15.656522 1.432 84 0 255
5.891374 -15.427079 1.448 84 0 255
5.890869 -15.434678 1.589 84 0 255
5.76824 -15.681957 1.718 84 0 255
5.866859 -15.475193 1.405 84 0 255
