ply
format ascii 1.0
element vertex 1302
property double x
property double y
property double z
property uchar red
property uchar green
property uchar blue
element face 0
property list uchar int vertex_indices
end_header
3.549132 -19.860989 1.312 170 84 127
3.575377 -19.820492 1.24 170 84 127
3.545499 -19.868118 1.224 170 84 127
3.565424 -19.835623 1.234 170 84 127
3.554562 -19.852535 1.267 170 84 127
3.548677 -19.861881 1.419 170 84 127
3.546407 -19.866337 1.153 170 84 127
3.536454 -19.881466 1.074 170 84 127
3.560447 -19.843185 1.244 170 84 127
3.542793 -19.871229 1.088 170 84 127
3.526046 -19.897488 1.166 170 84 127
3.560447 -19.843185 1.466 170 84 127
3.505213 -19.931765 1.079 170 84 127
3.560901 -19.842297 1.168 170 84 127
3.56497 -19.836514 1.257 170 84 127
3.546861 -19.865446 1.209 170 84 127
3.569492 -19.82984 1.501 170 84 127
3.535546 -19.883249 1.286 170 84 127
3.574033 -19.820929 1.269 170 84 127
3.541431 -19.873901 1.151 170 84 127
3.520161 -19.906834 1.101 170 84 127
3.549132 -19.860989 1.094 170 84 127
3.557723 -19.848534 1.153 170 84 127
3.525138 -19.899269 1.175 170 84 127
3.571308 -19.826275 1.137 170 84 127
3.548223 -19.862772 1.323 170 84 127
3.5627 -19.840969 1.159 170 84 127
3.528752 -19.894379 1.23 170 84 127
3.560447 -19.843185 1.135 170 84 127
3.569492 -19.82984 1.121 170 84 127
3.561808 -19.840515 1.37 170 84 127
3.5265 -19.896597 1.119 170 84 127
3.561808 -19.840515 1.116 170 84 127
3.541431 -19.873901 1.329 170 84 127
3.566786 -19.832949 1.483 170 84 127
3.554562 -19.852535 1.135 170 84 127
3.516074 -19.914854 1.153 170 84 127
3.542793 -19.871229 1.082 170 84 127
3.546407 -19.866337 1.322 170 84 127
3.57267 -19.823603 1.34 170 84 127
3.537361 -19.879684 1.284 170 84 127
3.575377 -19.820492 1.301 170 84 127
3.560901 -19.842297 1.212 170 84 127
3.525138 -19.899269 1.247 170 84 127
3.519707 -19.907724 1.071 170 84 127
3.537815 -19.878794 1.143 170 84 127
3.549132 -19.860989 1.329 170 84 127
3.558177 -19.847643 1.285 170 84 127
3.573124 -19.822712 1.588 170 84 127
3.546861 -19.865446 1.378 170 84 127
3.555924 -19.849861 1.187 170 84 127
3.570401 -19.828056 1.257 170 84 127
3.575377 -19.820492 1.159 170 84 127
3.542793 -19.871229 1.155 170 84 127
3.546861 -19.865446 1.122 170 84 127
3.561355 -19.841406 1.397 170 84 127
3.56497 -19.836514 1.239 170 84 127
3.563608 -19.839186 1.373 170 84 127
3.573579 -19.821819 1.26 170 84 127
3.525138 -19.899269 1.092 170 84 127
3.548223 -19.862772 1.39 170 84 127
3.555924 -19.849861 1.407 170 84 127
3.559993 -19.844078 1.156 170 84 127
3.516074 -19.914854 1.179 170 84 127
3.523776 -19.901941 1.099 170 84 127
3.55547 -19.850752 1.438 170 84 127
3.54777 -19.863663 1.193 170 84 127
3.56497 -19.836514 1.386 170 84 127
3.528752 -19.894379 1.232 170 84 127
3.544155 -19.868555 1.205 170 84 127
3.557269 -19.849422 1.115 170 84 127
3.530568 -19.890814 1.248 170 84 127
3.565878 -19.834732 1.156 170 84 127
3.556379 -19.84897 1.369 170 84 127
3.561355 -19.841406 1.327 170 84 127
3.540523 -19.875683 1.139 170 84 127
3.559085 -19.84586 1.168 170 84 127
3.544609 -19.867664 1.3 170 84 127
3.555017 -19.851643 1.438 170 84 127
3.548677 -19.861881 1.093 170 84 127
3.575377 -19.820492 1.34 170 84 127
3.52966 -19.892595 1.152 170 84 127
3.567694 -19.831167 1.32 170 84 127
3.544155 -19.868555 1.326 170 84 127
3.534637 -19.885031 1.264 170 84 127
3.570401 -19.828056 1.512 170 84 127
3.559085 -19.84586 1.471 170 84 127
3.554108 -19.853426 1.404 170 84 127
3.571308 -19.826275 1.251 170 84 127
3.575377 -19.820492 1.34 170 84 127
3.519252 -19.908617 1.169 170 84 127
3.561355 -19.841406 1.426 170 84 127
3.517891 -19.911289 1.077 170 84 127
3.550039 -19.859209 1.432 170 84 127
3.553201 -19.855207 1.436 170 84 127
3.529207 -19.893486 1.067 170 84 127
3.528298 -19.895267 1.107 170 84 127
3.55863 -19.846752 1.125 170 84 127
3.558177 -19.847643 1.109 170 84 127
3.559539 -19.844969 1.235 170 84 127
3.530568 -19.890814 1.161 170 84 127
3.523776 -19.901941 1.243 170 84 127
3.507483 -19.927311 1.081 170 84 127
3.564517 -19.837404 1.29 170 84 127
3.56724 -19.832058 1.419 170 84 127
3.564062 -19.838295 1.363 170 84 127
3.567694 -19.831167 1.334 170 84 127
3.547315 -19.864555 1.158 170 84 127
3.564517 -19.837404 1.524 170 84 127
3.564517 -19.837404 1.116 170 84 127
3.520614 -19.905945 1.166 170 84 127
3.531023 -19.889921 1.196 170 84 127
3.57267 -19.823603 1.204 170 84 127
3.541884 -19.873011 1.1 170 84 127
3.553655 -19.854317 1.437 170 84 127
3.553655 -19.854317 1.213 170 84 127
3.553201 -19.855207 1.446 170 84 127
3.564062 -19.838295 1.395 170 84 127
3.53373 -19.886812 1.237 170 84 127
3.537361 -19.879684 1.248 170 84 127
3.536454 -19.881466 1.219 170 84 127
3.53373 -19.886812 1.237 170 84 127
3.560901 -19.842297 1.502 170 84 127
3.569946 -19.828949 1.5 170 84 127
3.521506 -19.906399 1.072 170 84 127
3.575377 -19.820492 1.164 170 84 127
3.516529 -19.913961 1.097 170 84 127
3.569946 -19.828949 1.553 170 84 127
3.550039 -19.859209 1.166 170 84 127
3.535999 -19.882359 1.072 170 84 127
3.552746 -19.856098 1.223 170 84 127
3.528752 -19.894379 1.218 170 84 127
3.545954 -19.867226 1.263 170 84 127
3.57674 -19.81782 1.559 170 84 127
3.51562 -19.915745 1.066 170 84 127
3.528752 -19.894379 1.215 170 84 127
3.570854 -19.827166 1.291 170 84 127
3.541431 -19.873901 1.125 170 84 127
3.569946 -19.828949 1.451 170 84 127
3.57267 -19.823603 1.325 170 84 127
3.543247 -19.870338 1.098 170 84 127
3.557269 -19.849422 1.158 170 84 127
3.570401 -19.828056 1.38 170 84 127
3.560447 -19.843185 1.142 170 84 127
3.551839 -19.85788 1.359 170 84 127
3.523322 -19.902834 1.079 170 84 127
3.52966 -19.892595 1.254 170 84 127
3.559539 -19.844969 1.183 170 84 127
3.548223 -19.862772 1.171 170 84 127
3.540977 -19.874792 1.214 170 84 127
3.569946 -19.828949 1.131 170 84 127
3.534184 -19.885921 1.178 170 84 127
3.535092 -19.884138 1.206 170 84 127
3.56497 -19.836514 1.244 170 84 127
3.544155 -19.868555 1.167 170 84 127
3.559539 -19.844969 1.251 170 84 127
3.510644 -19.923311 1.062 170 84 127
3.538723 -19.877012 1.295 170 84 127
3.55547 -19.850752 1.233 170 84 127
3.565424 -19.835623 1.254 170 84 127
3.545954 -19.867226 1.145 170 84 127
3.568602 -19.829386 1.517 170 84 127
3.569492 -19.82984 1.177 170 84 127
3.531476 -19.88903 1.24 170 84 127
3.504305 -19.933548 1.066 170 84 127
3.560447 -19.843185 1.202 170 84 127
3.573124 -19.822712 1.324 170 84 127
3.542793 -19.871229 1.131 170 84 127
3.57267 -19.823603 1.199 170 84 127
3.566332 -19.833839 1.314 170 84 127
3.577648 -19.816036 1.514 170 84 127
3.552293 -19.856989 1.387 170 84 127
3.57674 -19.81782 1.581 170 84 127
3.561808 -19.840515 1.507 170 84 127
3.537361 -19.879684 1.317 170 84 127
3.531023 -19.889921 1.116 170 84 127
3.576286 -19.81871 1.557 170 84 127
3.52739 -19.897051 1.214 170 84 127
3.528298 -19.895267 1.251 170 84 127
3.570401 -19.828056 1.216 170 84 127
3.567694 -19.831167 1.244 170 84 127
3.522868 -19.903725 1.076 170 84 127
3.53373 -19.886812 1.144 170 84 127
3.571763 -19.825382 1.246 170 84 127
3.564062 -19.838295 1.498 170 84 127
3.545499 -19.868118 1.202 170 84 127
3.516529 -19.913961 1.139 170 84 127
3.539615 -19.877466 1.187 170 84 127
3.530568 -19.890814 1.218 170 84 127
3.542793 -19.871229 1.311 170 84 127
3.574033 -19.820929 1.38 170 84 127
3.560901 -19.842297 1.097 170 84 127
3.562263 -19.839622 1.456 170 84 127
3.529207 -19.893486 1.076 170 84 127
3.571308 -19.826275 1.473 170 84 127
3.566332 -19.833839 1.346 170 84 127
3.520614 -19.905945 1.22 170 84 127
3.562263 -19.839622 1.244 170 84 127
3.565878 -19.834732 1.329 170 84 127
3.560447 -19.843185 1.26 170 84 127
3.52966 -19.892595 1.268 170 84 127
3.544155 -19.868555 1.13 170 84 127
3.52966 -19.892595 1.175 170 84 127
3.571308 -19.826275 1.525 170 84 127
3.551839 -19.85788 1.213 170 84 127
3.520614 -19.905945 1.077 170 84 127
3.534184 -19.885921 1.232 170 84 127
3.574033 -19.820929 1.368 170 84 127
3.536908 -19.880575 1.325 170 84 127
3.522414 -19.904615 1.198 170 84 127
3.561355 -19.841406 1.093 170 84 127
3.571308 -19.826275 1.501 170 84 127
3.560901 -19.842297 1.287 170 84 127
3.531476 -19.88903 1.264 170 84 127
3.577648 -19.816036 1.623 170 84 127
3.557269 -19.849422 1.145 170 84 127
3.564062 -19.838295 1.187 170 84 127
3.501144 -19.937548 1.073 170 84 127
3.542793 -19.871229 1.268 170 84 127
3.575832 -19.819601 1.388 170 84 127
3.55863 -19.846752 1.415 170 84 127
3.57267 -19.823603 1.423 170 84 127
3.561808 -19.840515 1.098 170 84 127
3.569946 -19.828949 1.478 170 84 127
3.521506 -19.906399 1.103 170 84 127
3.548223 -19.862772 1.171 170 84 127
3.54777 -19.863663 1.292 170 84 127
3.517437 -19.912182 1.142 170 84 127
3.561808 -19.840515 1.387 170 84 127
3.52966 -19.892595 1.255 170 84 127
3.512914 -19.918856 1.124 170 84 127
3.523776 -19.901941 1.153 170 84 127
3.559993 -19.844078 1.24 170 84 127
3.564517 -19.837404 1.461 170 84 127
3.529207 -19.893486 1.105 170 84 127
3.571763 -19.825382 1.511 170 84 127
3.568148 -19.830276 1.541 170 84 127
3.566332 -19.833839 1.406 170 84 127
3.575832 -19.819601 1.156 170 84 127
3.145988 -20.652205 1.132 170 84 127
3.153791 -20.625875 1.238 170 84 127
3.148105 -20.667873 1.206 170 84 127
3.155488 -20.637964 1.284 170 84 127
3.150833 -20.603046 1.117 170 84 127
3.162196 -20.638016 1.408 170 84 127
3.153939 -20.665236 1.308 170 84 127
3.146341 -20.664728 1.168 170 84 127
3.154444 -20.657637 1.302 170 84 127
3.162196 -20.638016 1.42 170 84 127
3.14819 -20.656693 1.186 170 84 127
3.147418 -20.640587 1.142 170 84 127
3.153536 -20.659416 1.288 170 84 127
3.15971 -20.612059 1.314 170 84 127
3.146289 -20.671436 1.176 170 84 127
3.170788 -20.625559 1.559 170 84 127
3.154868 -20.601734 1.204 170 84 127
3.14799 -20.624044 1.108 170 84 127
3.148529 -20.611973 1.092 170 84 127
3.163761 -20.608511 1.394 170 84 127
3.151367 -20.650455 1.226 170 84 127
3.156884 -20.630819 1.306 170 84 127
3.162598 -20.643833 1.434 170 84 127
3.150073 -20.644186 1.183 170 84 127
3.155237 -20.612024 1.226 170 84 127
3.166684 -20.635813 1.492 170 84 127
3.155975 -20.632603 1.296 170 84 127
3.153637 -20.646002 1.263 170 84 127
3.161407 -20.624146 1.373 170 84 127
3.153574 -20.595465 1.155 170 84 127
3.165441 -20.622835 1.448 170 84 127
3.159642 -20.621 1.33 170 84 127
3.153574 -20.595465 1.165 170 84 127
3.151016 -20.637932 1.193 170 84 127
3.164937 -20.630434 1.463 170 84 127
3.150227 -20.62406 1.147 170 84 127
3.160397 -20.639343 1.391 170 84 127
3.161254 -20.64427 1.423 170 84 127
3.146509 -20.64237 1.128 170 84 127
3.154936 -20.592791 1.178 170 84 127
3.155454 -20.642435 1.296 170 84 127
3.151287 -20.602156 1.12 170 84 127
3.154528 -20.646456 1.298 170 84 127
3.155539 -20.631258 1.273 170 84 127
3.150867 -20.598574 1.118 170 84 127
3.151355 -20.59321 1.116 170 84 127
3.153706 -20.637056 1.25 170 84 127
3.155437 -20.644672 1.299 170 84 127
3.162803 -20.617001 1.384 170 84 127
3.152195 -20.600372 1.151 170 84 127
3.166299 -20.62776 1.485 170 84 127
3.147435 -20.63835 1.131 170 84 127
3.151839 -20.647329 1.23 170 84 127
3.150982 -20.642403 1.219 170 84 127
3.165356 -20.634014 1.479 170 84 127
3.157037 -20.610695 1.25 170 84 127
3.165493 -20.616127 1.448 170 84 127
3.16349 -20.644287 1.451 170 84 127
3.149518 -20.658491 1.21 170 84 127
3.146827 -20.659367 1.153 170 84 127
3.163507 -20.64205 1.463 170 84 127
3.162582 -20.646069 1.445 170 84 127
3.151401 -20.645985 1.225 170 84 127
3.157575 -20.598625 1.245 170 84 127
3.162836 -20.61253 1.37 170 84 127
3.152429 -20.62855 1.202 170 84 127
3.156145 -20.610241 1.252 170 84 127
3.157053 -20.608461 1.25 170 84 127
3.152678 -20.654491 1.263 170 84 127
3.159726 -20.609823 1.303 170 84 127
3.155756 -20.661669 1.338 170 84 127
3.159909 -20.644707 1.39 170 84 127
3.15357 -20.654945 1.282 170 84 127
3.157638 -20.649162 1.351 170 84 127
3.152848 -20.63213 1.212 170 84 127
3.162246 -20.631308 1.403 170 84 127
3.151974 -20.629442 1.197 170 84 127
3.163087 -20.63847 1.434 170 84 127
3.167644 -20.627323 1.507 170 84 127
3.157979 -20.604441 1.263 170 84 127
3.15811 -20.646034 1.349 170 84 127
3.164483 -20.631325 1.457 170 84 127
3.152361 -20.637495 1.216 170 84 127
3.165527 -20.611654 1.43 170 84 127
3.161759 -20.636671 1.409 170 84 127
3.15786 -20.620092 1.292 170 84 127
3.154898 -20.656744 1.321 170 84 127
3.164147 -20.616564 1.422 170 84 127
3.150057 -20.646421 1.196 170 84 127
3.153031 -20.667015 1.299 170 84 127
3.157592 -20.596388 1.249 170 84 127
3.153604 -20.650473 1.266 170 84 127
3.172116 -20.627357 1.588 170 84 127
3.152666 -20.597246 1.149 170 84 127
3.146255 -20.675909 1.187 170 84 127
3.149166 -20.645967 1.181 170 84 127
3.149471 -20.605719 1.104 170 84 127
3.160397 -20.639343 1.388 170 84 127
3.172586 -20.624231 1.585 170 84 127
3.156247 -20.596827 1.213 170 84 127
3.15337 -20.622297 1.209 170 84 127
3.154563 -20.641983 1.274 170 84 127
3.160346 -20.646051 1.409 170 84 127
3.16127 -20.642035 1.406 170 84 127
3.156633 -20.604879 1.233 170 84 127
3.149064 -20.659384 1.207 170 84 127
3.164079 -20.625507 1.433 170 84 127
3.155301 -20.662561 1.332 170 84 127
3.150358 -20.665653 1.248 170 84 127
3.149047 -20.661619 1.219 170 84 127
3.149891 -20.609301 1.107 170 84 127
3.157304 -20.634401 1.32 170 84 127
3.152666 -20.597246 1.146 170 84 127
3.164181 -20.612093 1.409 170 84 127
3.152262 -20.591429 1.118 170 84 127
3.152123 -20.668798 1.284 170 84 127
3.15589 -20.643782 1.299 170 84 127
3.151151 -20.620043 1.158 170 84 127
3.161407 -20.624146 1.382 170 84 127
3.147469 -20.633879 1.126 170 84 127
3.148058 -20.615099 1.096 170 84 127
3.155305 -20.603079 1.222 170 84 127
3.166752 -20.626869 1.482 170 84 127
3.145835 -20.672327 1.16 170 84 127
3.154024 -20.654055 1.298 170 84 127
3.163608 -20.628635 1.436 170 84 127
3.152144 -20.60708 1.162 170 84 127
3.165963 -20.613001 1.45 170 84 127
3.152916 -20.623188 1.206 170 84 127
3.155789 -20.657198 1.328 170 84 127
3.15853 -20.649616 1.364 170 84 127
3.149624 -20.585596 1.074 170 84 127
3.15564 -20.61784 1.255 170 84 127
3.150867 -20.598574 1.115 170 84 127
3.154045 -20.592337 1.158 170 84 127
3.162349 -20.617891 1.387 170 84 127
3.147583 -20.67771 1.205 170 84 127
3.16761 -20.631796 1.516 170 84 127
3.164869 -20.639378 1.473 170 84 127
3.153604 -20.650473 1.284 170 84 127
3.153069 -20.603064 1.159 170 84 127
3.163138 -20.631762 1.428 170 84 127
3.150812 -20.664762 1.261 170 84 127
3.152429 -20.62855 1.216 170 84 127
3.157592 -20.596388 1.241 170 84 127
3.154966 -20.6478 1.303 170 84 127
3.156617 -20.607115 1.253 170 84 127
3.15177 -20.656273 1.247 170 84 127
3.150815 -20.605282 1.123 170 84 127
3.157456 -20.614277 1.269 170 84 127
3.163155 -20.629526 1.414 170 84 127
3.146323 -20.666965 1.166 170 84 127
3.162616 -20.641596 1.433 170 84 127
3.163693 -20.617455 1.398 170 84 127
3.163256 -20.61611 1.396 170 84 127
3.159642 -20.621 1.33 170 84 127
3.160112 -20.617876 1.34 170 84 127
3.156464 -20.627237 1.278 170 84 127
3.153536 -20.659416 1.302 170 84 127
3.1509 -20.594103 1.106 170 84 127
3.150414 -20.599464 1.104 170 84 127
3.152174 -20.66209 1.271 170 84 127
3.161559 -20.604021 1.332 170 84 127
3.171258 -20.622431 1.569 170 84 127
3.160868 -20.636217 1.388 170 84 127
3.159607 -20.625475 1.348 170 84 127
3.159676 -20.616529 1.314 170 84 127
3.15135 -20.652693 1.243 170 84 127
3.157236 -20.643345 1.331 170 84 127
3.151974 -20.629442 1.206 170 84 127
3.154563 -20.641983 1.268 170 84 127
3.160515 -20.623692 1.363 170 84 127
3.152696 -20.652254 1.261 170 84 127
3.159018 -20.644253 1.373 170 84 127
3.164852 -20.641613 1.484 170 84 127
3.146845 -20.657129 1.154 170 84 127
3.145364 -20.675455 1.159 170 84 127
3.146341 -20.664728 1.155 170 84 127
3.162161 -20.642488 1.437 170 84 127
3.159761 -20.605349 1.313 170 84 127
3.148491 -20.675926 1.226 170 84 127
3.154478 -20.653162 1.304 170 84 127
3.148508 -20.673689 1.214 170 84 127
3.153167 -20.649128 1.258 170 84 127
3.154851 -20.603971 1.201 170 84 127
3.146544 -20.637896 1.12 170 84 127
3.165981 -20.610764 1.444 170 84 127
3.158496 -20.654087 1.388 170 84 127
3.151253 -20.606627 1.131 170 84 127
3.14698 -20.639242 1.127 170 84 127
3.167257 -20.61927 1.482 170 84 127
3.158496 -20.654087 1.384 170 84 127
3.153893 -20.612461 1.206 170 84 127
3.157622 -20.651398 1.361 170 84 127
3.151283 -20.661636 1.259 170 84 127
3.151168 -20.617807 1.161 170 84 127
3.156328 -20.645126 1.32 170 84 127
3.165963 -20.613001 1.443 170 84 127
3.15001 -20.593649 1.093 170 84 127
3.156651 -20.602642 1.231 170 84 127
3.151873 -20.642857 1.221 170 84 127
3.149806 -20.620481 1.138 170 84 127
3.16581 -20.633123 1.482 170 84 127
3.156867 -20.633057 1.298 170 84 127
3.148962 -20.672798 1.227 170 84 127
3.151809 -20.592319 1.126 170 84 127
3.155623 -20.620077 1.245 170 84 127
3.156731 -20.650944 1.339 170 84 127
3.162854 -20.610292 1.365 170 84 127
3.15253 -20.615135 1.179 170 84 127
3.150663 -20.625406 1.172 170 84 127
3.154597 -20.63751 1.278 170 84 127
3.152797 -20.63884 1.236 170 84 127
3.170299 -20.630922 1.566 170 84 127
3.149556 -20.59454 1.073 170 84 127
3.14533 -20.679926 1.176 170 84 127
3.164551 -20.622381 1.434 170 84 127
3.152678 -20.654491 1.264 170 84 127
3.151083 -20.628988 1.192 170 84 127
3.159171 -20.624128 1.325 170 84 127
3.152611 -20.663435 1.275 170 84 127
3.16576 -20.639832 1.493 170 84 127
3.151958 -20.631678 1.212 170 84 127
3.146544 -20.637896 1.117 170 84 127
3.150039 -20.648657 1.21 170 84 127
3.151486 -20.634804 1.201 170 84 127
3.166265 -20.632233 1.488 170 84 127
3.145449 -20.664274 1.152 170 84 127
3.156264 -20.594589 1.211 170 84 127
3.167172 -20.630451 1.494 170 84 127
3.15127 -20.604391 1.132 170 84 127
3.15396 -20.603518 1.178 170 84 127
3.152781 -20.641075 1.23 170 84 127
3.15786 -20.620092 1.304 170 84 127
3.145432 -20.666512 1.157 170 84 127
3.164551 -20.622381 1.439 170 84 127
3.150465 -20.592756 1.086 170 84 127
3.161776 -20.634436 1.395 170 84 127
3.155708 -20.608898 1.224 170 84 127
3.151639 -20.614679 1.159 170 84 127
3.152162 -20.604845 1.146 170 84 127
3.149403 -20.614662 1.122 170 84 127
3.146492 -20.644604 1.132 170 84 127
3.149335 -20.623606 1.137 170 84 127
3.166684 -20.635813 1.501 170 84 127
3.159539 -20.634418 1.354 170 84 127
3.147685 -20.664291 1.183 170 84 127
3.15172 -20.662981 1.265 170 84 127
3.171678 -20.626013 1.59 170 84 127
3.157337 -20.629929 1.298 170 84 127
3.149183 -20.643732 1.184 170 84 127
3.151304 -20.599918 1.126 170 84 127
3.161962 -20.609838 1.351 170 84 127
3.153052 -20.605299 1.173 170 84 127
3.151236 -20.608862 1.15 170 84 127
3.14959 -20.590067 1.076 170 84 127
3.160481 -20.628164 1.369 170 84 127
3.159943 -20.640234 1.379 170 84 127
3.161339 -20.633089 1.391 170 84 127
3.164113 -20.621037 1.428 170 84 127
3.153518 -20.661654 1.302 170 84 127
3.157979 -20.604441 1.267 170 84 127
3.171661 -20.62825 1.584 170 84 127
3.153455 -20.611116 1.191 170 84 127
3.153103 -20.598591 1.16 170 84 127
3.169493 -20.619287 1.529 170 84 127
3.15446 -20.655399 1.31 170 84 127
3.149471 -20.605719 1.096 170 84 127
3.156782 -20.644236 1.319 170 84 127
3.14945 -20.667437 1.233 170 84 127
3.155369 -20.653616 1.316 170 84 127
3.15791 -20.613386 1.289 170 84 127
3.150578 -20.636587 1.194 170 84 127
3.155033 -20.638857 1.273 170 84 127
3.155975 -20.632603 1.285 170 84 127
3.155572 -20.626783 1.273 170 84 127
3.160028 -20.629053 1.359 170 84 127
3.200688 -20.516214 1.383 170 84 127
3.228754 -20.412672 1.196 170 84 127
3.175621 -20.519156 1.062 170 84 127
3.192867 -20.544779 1.435 170 84 127
3.171161 -20.576366 1.316 170 84 127
3.172205 -20.556696 1.225 170 84 127
3.18204 -20.557219 1.365 170 84 127
3.173732 -20.591145 1.433 170 84 127
3.199712 -20.526941 1.432 170 84 127
3.210005 -20.467091 1.248 170 84 127
3.210272 -20.490795 1.376 170 84 127
3.228198 -20.426979 1.263 170 84 127
3.220883 -20.447943 1.289 170 84 127
3.218414 -20.419748 1.094 170 84 127
3.212156 -20.478289 1.326 170 84 127
3.208155 -20.475128 1.263 170 84 127
3.184496 -20.528166 1.235 170 84 127
3.17587 -20.545097 1.209 170 84 127
3.216275 -20.465796 1.313 170 84 127
3.178391 -20.566582 1.368 170 84 127
3.182222 -20.592104 1.557 170 84 127
3.204943 -20.485836 1.278 170 84 127
3.214023 -20.468016 1.303 170 84 127
3.198371 -20.467897 1.096 170 84 127
3.200539 -20.476858 1.162 170 84 127
3.206725 -20.486744 1.31 170 84 127
3.201379 -20.48402 1.221 170 84 127
3.214057 -20.463545 1.28 170 84 127
3.159459 -20.586117 1.212 170 84 127
3.163528 -20.580334 1.243 170 84 127
3.172858 -20.588453 1.416 170 84 127
3.161157 -20.598204 1.311 170 84 127
3.177131 -20.55584 1.29 170 84 127
3.250699 -20.349779 1.138 170 84 127
3.172591 -20.564749 1.274 170 84 127
3.21468 -20.440292 1.161 170 84 127
3.227796 -20.421162 1.23 170 84 127
3.227494 -20.401928 1.117 170 84 127
3.215623 -20.434038 1.133 170 84 127
3.251674 -20.339052 1.1 170 84 127
3.1889 -20.537146 1.35 170 84 127
3.180478 -20.527243 1.182 170 84 127
3.173884 -20.57102 1.335 170 84 127
3.155038 -20.579374 1.119 170 84 127
3.190602 -20.489754 1.111 170 84 127
3.174908 -20.613068 1.578 170 84 127
3.247555 -20.351545 1.113 170 84 127
3.165662 -20.593767 1.344 170 84 127
3.206623 -20.50016 1.38 170 84 127
3.197997 -20.51709 1.357 170 84 127
3.181132 -20.559002 1.353 170 84 127
3.185048 -20.573341 1.498 170 84 127
3.200403 -20.494747 1.264 170 84 127
3.21342 -20.42955 1.084 170 84 127
3.227023 -20.405056 1.133 170 84 127
3.16973 -20.587984 1.363 170 84 127
3.176508 -20.57909 1.407 170 84 127
3.212377 -20.449219 1.182 170 84 127
3.203365 -20.458096 1.103 170 84 127
3.206492 -20.458569 1.142 170 84 127
3.163766 -20.549028 1.075 170 84 127
3.156298 -20.590118 1.199 170 84 127
3.179082 -20.534388 1.202 170 84 127
3.228283 -20.4158 1.202 170 84 127
3.160083 -20.562864 1.095 170 84 127
3.200688 -20.516214 1.382 170 84 127
3.207752 -20.469309 1.225 170 84 127
3.20706 -20.501505 1.391 170 84 127
3.185269 -20.544273 1.328 170 84 127
3.179554 -20.531261 1.193 170 84 127
3.191051 -20.548344 1.437 170 84 127
3.173528 -20.617977 1.589 170 84 127
3.170236 -20.580385 1.334 170 84 127
3.170639 -20.586201 1.375 170 84 127
3.199393 -20.509945 1.328 170 84 127
3.202169 -20.49789 1.307 170 84 127
3.17187 -20.541937 1.134 170 84 127
3.188697 -20.563978 1.486 170 84 127
3.224634 -20.425163 1.201 170 84 127
3.243015 -20.360455 1.098 170 84 127
3.170406 -20.558025 1.208 170 84 127
3.217638 -20.463123 1.318 170 84 127
3.177318 -20.531244 1.159 170 84 127
3.199898 -20.502346 1.299 170 84 127
3.242089 -20.364473 1.109 170 84 127
3.200602 -20.527395 1.445 170 84 127
3.205867 -20.481819 1.266 170 84 127
3.240659 -20.376089 1.147 170 84 127
3.193775 -20.542995 1.438 170 84 127
3.176791 -20.600559 1.524 170 84 127
3.233748 -20.40287 1.207 170 84 127
3.180843 -20.597013 1.567 170 84 127
3.172184 -20.618414 1.564 170 84 127
3.190212 -20.54118 1.38 170 84 127
3.189053 -20.517021 1.236 170 84 127
3.206287 -20.485399 1.294 170 84 127
3.196907 -20.483986 1.158 170 84 127
3.165883 -20.564697 1.186 170 84 127
3.157375 -20.565977 1.075 170 84 127
3.200318 -20.505926 1.319 170 84 127
3.193878 -20.529579 1.365 170 84 127
3.162518 -20.595533 1.315 170 84 127
3.169311 -20.584402 1.344 170 84 127
3.231916 -20.40867 1.222 170 84 127
3.218431 -20.417513 1.089 170 84 127
3.227528 -20.397457 1.093 170 84 127
3.200216 -20.519342 1.393 170 84 127
3.187976 -20.541162 1.353 170 84 127
3.194246 -20.539869 1.424 170 84 127
3.208744 -20.456348 1.161 170 84 127
3.179502 -20.53797 1.219 170 84 127
3.188192 -20.571577 1.528 170 84 127
3.167428 -20.59691 1.391 170 84 127
3.198286 -20.479078 1.147 170 84 127
3.212643 -20.472925 1.306 170 84 127
3.180024 -20.528133 1.173 170 84 127
3.219101 -20.447035 1.26 170 84 127
3.188061 -20.529984 1.299 170 84 127
3.243837 -20.369852 1.159 170 84 127
3.155543 -20.571775 1.078 170 84 127
3.200267 -20.512634 1.36 170 84 127
3.180291 -20.551838 1.306 170 84 127
3.178747 -20.519627 1.104 170 84 127
3.196975 -20.475042 1.103 170 84 127
3.172704 -20.60858 1.515 170 84 127
3.175246 -20.568348 1.338 170 84 127
3.200773 -20.505035 1.322 170 84 127
3.182782 -20.518316 1.152 170 84 127
3.204642 -20.466604 1.174 170 84 127
3.193253 -20.552832 1.489 170 84 127
3.174542 -20.543299 1.18 170 84 127
3.171547 -20.584419 1.367 170 84 127
3.242913 -20.373871 1.165 170 84 127
3.183333 -20.56349 1.416 170 84 127
3.1947 -20.538979 1.431 170 84 127
3.159879 -20.589697 1.243 170 84 127
3.191455 -20.554159 1.47 170 84 127
3.229712 -20.404182 1.166 170 84 127
3.177988 -20.560766 1.332 170 84 127
3.198723 -20.480421 1.17 170 84 127
3.202927 -20.456751 1.088 170 84 127
3.163329 -20.547684 1.06 170 84 127
3.17691 -20.584908 1.449 170 84 127
3.182918 -20.500427 1.065 170 84 127
3.21589 -20.457743 1.269 170 84 127
3.172238 -20.552225 1.2 170 84 127
3.208223 -20.466183 1.217 170 84 127
3.169986 -20.554443 1.191 170 84 127
3.222988 -20.406366 1.085 170 84 127
3.16716 -20.573206 1.246 170 84 127
3.17671 -20.552259 1.261 170 84 127
3.238339 -20.387253 1.184 170 84 127
3.179082 -20.534388 1.199 170 84 127
3.209381 -20.490341 1.365 170 84 127
3.165077 -20.553064 1.117 170 84 127
3.169901 -20.565624 1.24 170 84 127
3.180071 -20.580906 1.462 170 84 127
3.204841 -20.499252 1.343 170 84 127
3.156383 -20.578938 1.143 170 84 127
3.203784 -20.461678 1.132 170 84 127
3.238458 -20.371601 1.099 170 84 127
3.205498 -20.471529 1.201 170 84 127
3.193575 -20.510347 1.253 170 84 127
3.185218 -20.550982 1.366 170 84 127
3.214294 -20.43224 1.111 170 84 127
3.167732 -20.556664 1.159 170 84 127
3.19324 -20.495586 1.17 170 84 127
3.233311 -20.401525 1.195 170 84 127
3.227057 -20.400583 1.108 170 84 127
3.219505 -20.45285 1.292 170 84 127
3.2058 -20.490763 1.31 170 84 127
3.227999 -20.394329 1.086 170 84 127
3.222063 -20.410385 1.086 170 84 127
3.187924 -20.547871 1.395 170 84 127
3.189286 -20.545198 1.401 170 84 127
3.220616 -20.424238 1.147 170 84 127
3.226619 -20.399239 1.088 170 84 127
3.219254 -20.42691 1.141 170 84 127
3.170503 -20.60409 1.471 170 84 127
3.197208 -20.503218 1.269 170 84 127
3.242578 -20.359108 1.088 170 84 127
3.206339 -20.478691 1.263 170 84 127
3.186864 -20.569778 1.495 170 84 127
3.172409 -20.529863 1.081 170 84 127
3.179871 -20.548258 1.285 170 84 127
3.242527 -20.365818 1.125 170 84 127
3.173465 -20.56744 1.297 170 84 127
3.198587 -20.49831 1.254 170 84 127
3.161008 -20.558847 1.094 170 84 127
3.197561 -20.515743 1.342 170 84 127
3.170071 -20.543262 1.122 170 84 127
3.186244 -20.533548 1.284 170 84 127
3.178844 -20.565691 1.362 170 84 127
3.193792 -20.54076 1.434 170 84 127
3.153676 -20.582048 1.111 170 84 127
3.185892 -20.521021 1.208 170 84 127
3.178458 -20.557638 1.321 170 84 127
3.184666 -20.505808 1.117 170 84 127
3.213722 -20.448782 1.19 170 84 127
3.208609 -20.474236 1.263 170 84 127
3.22329 -20.4256 1.191 170 84 127
3.204756 -20.510431 1.407 170 84 127
3.255323 -20.329689 1.089 170 84 127
3.180127 -20.514717 1.095 170 84 127
3.22023 -20.416185 1.097 170 84 127
3.171903 -20.537462 1.111 170 84 127
3.18739 -20.500462 1.12 170 84 127
3.225457 -20.434561 1.273 170 84 127
3.222699 -20.44438 1.293 170 84 127
3.197912 -20.528269 1.421 170 84 127
3.19467 -20.483971 1.133 170 84 127
3.224163 -20.428291 1.22 170 84 127
3.202389 -20.468822 1.156 170 84 127
3.206542 -20.451859 1.113 170 84 127
3.176473 -20.583563 1.426 170 84 127
3.191896 -20.496023 1.161 170 84 127
3.161479 -20.555719 1.073 170 84 127
3.168488 -20.575005 1.284 170 84 127
3.16472 -20.600019 1.363 170 84 127
3.170775 -20.568314 1.269 170 84 127
3.209738 -20.443386 1.11 170 84 127
3.176023 -20.524973 1.099 170 84 127
3.214005 -20.470253 1.313 170 84 127
3.175416 -20.545988 1.212 170 84 127
3.164317 -20.594204 1.328 170 84 127
3.233782 -20.398399 1.187 170 84 127
3.222398 -20.425146 1.179 170 84 127
3.188481 -20.533564 1.322 170 84 127
3.197259 -20.496511 1.227 170 84 127
3.23469 -20.396616 1.179 170 84 127
3.185774 -20.536674 1.294 170 84 127
3.187772 -20.567995 1.505 170 84 127
3.19277 -20.498714 1.186 170 84 127
3.184412 -20.539347 1.295 170 84 127
3.185824 -20.529966 1.259 170 84 127
3.179719 -20.56838 1.398 170 84 127
3.234809 -20.380964 1.101 170 84 127
3.214629 -20.447002 1.2 170 84 127
3.201901 -20.474184 1.177 170 84 127
3.180508 -20.582253 1.477 170 84 127
3.156921 -20.566866 1.074 170 84 127
3.211316 -20.471125 1.275 170 84 127
3.195108 -20.485315 1.135 170 84 127
3.174241 -20.524065 1.077 170 84 127
3.211719 -20.476944 1.324 170 84 127
3.184026 -20.531294 1.247 170 84 127
3.164822 -20.586605 1.298 170 84 127
3.173699 -20.595617 1.468 170 84 127
3.196936 -20.538996 1.463 170 84 127
3.228873 -20.39702 1.106 170 84 127
3.206827 -20.473328 1.226 170 84 127
3.173164 -20.548206 1.2 170 84 127
3.227341 -20.422054 1.225 170 84 127
3.181921 -20.57287 1.453 170 84 127
3.161157 -20.598204 1.302 170 84 127
3.187725 -20.515223 1.214 170 84 127
3.206168 -20.501051 1.384 170 84 127
3.173074 -20.618868 1.585 170 84 127
3.163142 -20.572279 1.189 170 84 127
3.168755 -20.598711 1.406 170 84 127
3.222212 -20.449741 1.313 170 84 127
3.211197 -20.486778 1.368 170 84 127
3.225156 -20.415327 1.159 170 84 127
3.169548 -20.553099 1.171 170 84 127
3.17414 -20.537481 1.142 170 84 127
3.165916 -20.560226 1.163 170 84 127
3.15909 -20.575829 1.156 170 84 127
3.192015 -20.480371 1.069 170 84 127
3.228652 -20.426086 1.266 170 84 127
3.179786 -20.559437 1.347 170 84 127
3.191878 -20.49826 1.175 170 84 127
3.248008 -20.350655 1.108 170 84 127
3.160923 -20.570026 1.142 170 84 127
3.185252 -20.546509 1.342 170 84 127
3.156905 -20.569101 1.083 170 84 127
3.20126 -20.499672 1.299 170 84 127
3.201277 -20.497437 1.294 170 84 127
3.186079 -20.496426 1.074 170 84 127
3.202185 -20.495655 1.297 170 84 127
3.20521 -20.509541 1.411 170 84 127
3.212104 -20.484997 1.365 170 84 127
3.178327 -20.516045 1.084 170 84 127
3.187538 -20.539818 1.343 170 84 127
3.167562 -20.579023 1.291 170 84 127
3.195108 -20.485315 1.139 170 84 127
3.20824 -20.463947 1.204 170 84 127
3.18406 -20.526823 1.224 170 84 127
3.174072 -20.546425 1.193 170 84 127
3.182431 -20.505791 1.087 170 84 127
3.229679 -20.408653 1.182 170 84 127
3.190127 -20.552361 1.446 170 84 127
3.178527 -20.548695 1.263 170 84 127
3.240206 -20.37698 1.153 170 84 127
3.180597 -20.511591 1.094 170 84 127
3.168301 -20.599602 1.415 170 84 127
3.178828 -20.567926 1.381 170 84 127
3.154147 -20.57892 1.112 170 84 127
3.199278 -20.466116 1.088 170 84 127
3.163965 -20.581678 1.256 170 84 127
3.175854 -20.547333 1.223 170 84 127
3.192333 -20.497368 1.175 170 84 127
3.208392 -20.443825 1.097 170 84 127
3.178123 -20.542877 1.232 170 84 127
3.204307 -20.451841 1.085 170 84 127
3.176405 -20.592506 1.487 170 84 127
3.160333 -20.588806 1.245 170 84 127
3.203632 -20.481802 1.235 170 84 127
3.177096 -20.560312 1.315 170 84 127
3.169231 -20.5361 1.067 170 84 127
3.161008 -20.558847 1.084 170 84 127
3.188328 -20.553688 1.432 170 84 127
3.185319 -20.537565 1.305 170 84 127
3.234757 -20.387672 1.135 170 84 127
3.162654 -20.577644 1.213 170 84 127
3.22603 -20.418018 1.184 170 84 127
3.156366 -20.581175 1.141 170 84 127
3.221474 -20.429163 1.193 170 84 127
3.163392 -20.598221 1.331 170 84 127
3.19608 -20.534069 1.419 170 84 127
3.19768 -20.500092 1.251 170 84 127
3.173749 -20.588907 1.431 170 84 127
3.189677 -20.493771 1.118 170 84 127
3.210629 -20.44384 1.115 170 84 127
3.178828 -20.567926 1.383 170 84 127
3.235127 -20.397961 1.198 170 84 127
3.213704 -20.451019 1.206 170 84 127
3.180882 -20.53306 1.207 170 84 127
3.191187 -20.530455 1.335 170 84 127
3.18818 -20.514332 1.206 170 84 127
3.199864 -20.506817 1.328 170 84 127
3.168318 -20.597364 1.397 170 84 127
3.226887 -20.422945 1.224 170 84 127
3.18823 -20.507624 1.175 170 84 127
3.204926 -20.488071 1.296 170 84 127
3.191693 -20.522856 1.299 170 84 127
3.190801 -20.522402 1.284 170 84 127
3.177788 -20.528116 1.149 170 84 127
3.180491 -20.584486 1.496 170 84 127
3.222262 -20.443035 1.27 170 84 127
3.179264 -20.569273 1.394 170 84 127
3.228771 -20.410435 1.185 170 84 127
3.198048 -20.510382 1.319 170 84 127
3.183555 -20.534422 1.254 170 84 127
3.207213 -20.48138 1.277 170 84 127
3.172425 -20.527628 1.071 170 84 127
3.180678 -20.559891 1.356 170 84 127
3.221609 -20.411276 1.097 170 84 127
3.219152 -20.440327 1.223 170 84 127
3.174594 -20.536591 1.146 170 84 127
3.211973 -20.443403 1.142 170 84 127
3.198099 -20.503674 1.283 170 84 127
3.176809 -20.598324 1.516 170 84 127
3.207887 -20.451422 1.124 170 84 127
3.167194 -20.568733 1.222 170 84 127
3.17321 -20.600981 1.486 170 84 127
3.174254 -20.581308 1.396 170 84 127
3.163795 -20.60404 1.373 170 84 127
3.236557 -20.386345 1.151 170 84 127
3.174572 -20.598307 1.483 170 84 127
3.173265 -20.534792 1.122 170 84 127
3.187051 -20.545181 1.366 170 84 127
3.174679 -20.52541 1.088 170 84 127
3.202185 -20.495655 1.292 170 84 127
3.20247 -20.517122 1.421 170 84 127
3.17091 -20.550426 1.17 170 84 127
3.208189 -20.470655 1.234 170 84 127
3.213841 -20.43313 1.106 170 84 127
3.171865 -20.601418 1.463 170 84 127
3.210225 -20.438023 1.088 170 84 127
3.247067 -20.356907 1.127 170 84 127
3.25576 -20.331034 1.106 170 84 127
3.182748 -20.522787 1.187 170 84 127
3.175904 -20.540625 1.192 170 84 127
3.185472 -20.517441 1.186 170 84 127
3.230655 -20.397928 1.139 170 84 127
3.190513 -20.560413 1.487 170 84 127
3.19112 -20.539398 1.39 170 84 127
3.177818 -20.583124 1.442 170 84 127
3.196033 -20.481297 1.138 170 84 127
3.191017 -20.552814 1.463 170 84 127
3.190331 -20.525528 1.305 170 84 127
3.159896 -20.587461 1.229 170 84 127
3.219725 -20.423784 1.134 170 84 127
3.211133 -20.436241 1.092 170 84 127
3.198149 -20.496965 1.245 170 84 127
3.205163 -20.456768 1.117 170 84 127
3.194417 -20.517509 1.31 170 84 127
3.184361 -20.546055 1.331 170 84 127
3.176541 -20.574617 1.385 170 84 127
3.173198 -20.543736 1.165 170 84 127
3.181484 -20.571526 1.432 170 84 127
3.222279 -20.440798 1.262 170 84 127
3.199796 -20.51576 1.38 170 84 127
3.220163 -20.425129 1.153 170 84 127
3.162353 -20.558411 1.099 170 84 127
3.198872 -20.519779 1.383 170 84 127
3.173766 -20.586674 1.41 170 84 127
3.185905 -20.578268 1.53 170 84 127
3.165865 -20.566935 1.192 170 84 127
3.178607 -20.596996 1.536 170 84 127
3.178658 -20.590288 1.506 170 84 127
3.185353 -20.533094 1.275 170 84 127
3.167177 -20.570971 1.232 170 84 127
3.192635 -20.516602 1.286 170 84 127
3.173027 -20.566095 1.285 170 84 127
3.235246 -20.382309 1.121 170 84 127
3.176706 -20.61174 1.591 170 84 127
3.220667 -20.41753 1.105 170 84 127
3.230639 -20.400164 1.151 170 84 127
3.19958 -20.485348 1.195 170 84 127
3.201663 -20.505489 1.335 170 84 127
3.177296 -20.59296 1.491 170 84 127
3.175882 -20.602343 1.532 170 84 127
3.203228 -20.475985 1.201 170 84 127
3.170588 -20.592911 1.399 170 84 127
3.171428 -20.600073 1.457 170 84 127
3.169998 -20.611689 1.494 170 84 127
3.191693 -20.522856 1.296 170 84 127
3.189121 -20.508078 1.18 170 84 127
3.209283 -20.444277 1.112 170 84 127
3.177482 -20.568365 1.358 170 84 127
3.190181 -20.486172 1.079 170 84 127
3.216411 -20.44791 1.216 170 84 127
3.214091 -20.459072 1.257 170 84 127
3.189439 -20.525074 1.28 170 84 127
3.171751 -20.557589 1.225 170 84 127
3.201629 -20.50996 1.359 170 84 127
3.187691 -20.519695 1.235 170 84 127
3.197344 -20.485332 1.173 170 84 127
3.168505 -20.572769 1.271 170 84 127
3.214578 -20.453709 1.231 170 84 127
3.176409 -20.533026 1.153 170 84 127
3.200119 -20.473276 1.138 170 84 127
3.165849 -20.56917 1.214 170 84 127
3.183652 -20.580486 1.512 170 84 127
3.209029 -20.477818 1.294 170 84 127
3.194179 -20.548813 1.476 170 84 127
3.170151 -20.591566 1.395 170 84 127
3.253508 -20.333252 1.085 170 84 127
3.184917 -20.531748 1.253 170 84 127
3.22006 -20.438545 1.223 170 84 127
3.163647 -20.56468 1.151 170 84 127
3.171518 -20.529409 1.06 170 84 127
3.192328 -20.55685 1.494 170 84 127
3.202842 -20.467932 1.154 170 84 127
3.169833 -20.574568 1.293 170 84 127
3.19613 -20.527361 1.392 170 84 127
3.160804 -20.58568 1.238 170 84 127
3.219321 -20.417967 1.096 170 84 127
3.191221 -20.525982 1.318 170 84 127
3.230672 -20.395691 1.126 170 84 127
3.16506 -20.555302 1.118 170 84 127
3.155929 -20.579828 1.13 170 84 127
3.198706 -20.482658 1.17 170 84 127
3.172744 -20.544626 1.16 170 84 127
3.177648 -20.605486 1.575 170 84 127
3.166132 -20.590639 1.33 170 84 127
3.16595 -20.555756 1.138 170 84 127
3.174436 -20.616194 1.588 170 84 127
3.199427 -20.505472 1.316 170 84 127
3.201129 -20.458078 1.078 170 84 127
3.194718 -20.536741 1.415 170 84 127
3.208422 -20.498833 1.396 170 84 127
3.188061 -20.529984 1.298 170 84 127
3.17456 -20.541061 1.169 170 84 127
3.186864 -20.569778 1.491 170 84 127
3.230099 -20.412235 1.208 170 84 127
3.173647 -20.602325 1.495 170 84 127
3.226904 -20.420708 1.215 170 84 127
3.178187 -20.593414 1.516 170 84 127
3.196117 -20.470116 1.069 170 84 127
3.228351 -20.406855 1.153 170 84 127
3.231916 -20.40867 1.223 170 84 127
3.183825 -20.498646 1.066 170 84 127
3.205617 -20.455877 1.122 170 84 127
3.209011 -20.480053 1.296 170 84 127
3.25349 -20.335489 1.102 170 84 127
3.185048 -20.573341 1.492 170 84 127
3.176121 -20.571037 1.354 170 84 127
3.186346 -20.520132 1.221 170 84 127
3.251203 -20.34218 1.102 170 84 127
3.18781 -20.504044 1.144 170 84 127
3.2095 -20.474689 1.279 170 84 127
3.181101 -20.503992 1.062 170 84 127
3.223913 -20.402349 1.079 170 84 127
3.218414 -20.419748 1.091 170 84 127
3.183804 -20.560362 1.404 170 84 127
3.209738 -20.443386 1.104 170 84 127
3.176558 -20.572384 1.376 170 84 127
3.167835 -20.543245 1.093 170 84 127
3.198753 -20.535431 1.461 170 84 127
3.172285 -20.604998 1.492 170 84 127
3.208206 -20.46842 1.22 170 84 127
3.183249 -20.574669 1.474 170 84 127
3.171649 -20.571003 1.306 170 84 127
3.214426 -20.473833 1.343 170 84 127
3.22376 -20.422472 1.188 170 84 127
3.1717 -20.564295 1.261 170 84 127
3.206691 -20.491217 1.329 170 84 127
3.210391 -20.475143 1.294 170 84 127
3.223896 -20.404583 1.089 170 84 127
3.181988 -20.563927 1.403 170 84 127
3.194786 -20.527798 1.366 170 84 127
3.175395 -20.607704 1.558 170 84 127
3.179617 -20.581799 1.463 170 84 127
3.192851 -20.547014 1.446 170 84 127
3.192248 -20.508547 1.236 170 84 127
3.229327 -20.39613 1.11 170 84 127
3.178086 -20.606831 1.576 170 84 127
3.22233 -20.43409 1.23 170 84 127
3.204336 -20.506851 1.391 170 84 127
3.202656 -20.492527 1.288 170 84 127
3.203178 -20.482691 1.233 170 84 127
3.21875 -20.434511 1.184 170 84 127
3.240172 -20.381453 1.18 170 84 127
3.204505 -20.484491 1.265 170 84 127
3.189944 -20.517475 1.245 170 84 127
3.181802 -20.588522 1.529 170 84 127
3.186244 -20.533548 1.294 170 84 127
3.198854 -20.522015 1.394 170 84 127
3.182125 -20.546038 1.302 170 84 127
3.170304 -20.57144 1.28 170 84 127
3.185103 -20.507153 1.122 170 84 127
3.197429 -20.474152 1.114 170 84 127
3.214561 -20.455946 1.244 170 84 127
3.199745 -20.522469 1.409 170 84 127
3.188985 -20.525965 1.284 170 84 127
3.182278 -20.525915 1.188 170 84 127
3.184089 -20.581831 1.526 170 84 127
3.16859 -20.561588 1.209 170 84 127
3.210827 -20.47649 1.305 170 84 127
3.183941 -20.542475 1.306 170 84 127
3.191085 -20.543871 1.404 170 84 127
3.20168 -20.503254 1.323 170 84 127
3.166905 -20.606747 1.43 170 84 127
3.165916 -20.560226 1.166 170 84 127
3.173686 -20.53837 1.139 170 84 127
3.196011 -20.543015 1.474 170 84 127
3.169094 -20.553989 1.168 170 84 127
3.194819 -20.523327 1.342 170 84 127
3.17153 -20.586655 1.382 170 84 127
3.224265 -20.414873 1.144 170 84 127
3.214477 -20.467125 1.306 170 84 127
3.188565 -20.522385 1.264 170 84 127
3.243855 -20.367617 1.156 170 84 127
3.223425 -20.407711 1.101 170 84 127
3.216598 -20.423313 1.095 170 84 127
3.212138 -20.480524 1.343 170 84 127
3.184195 -20.508934 1.123 170 84 127
3.155055 -20.577139 1.108 170 84 127
3.185706 -20.54562 1.343 170 84 127
3.246595 -20.360035 1.151 170 84 127
3.176337 -20.60145 1.535 170 84 127
3.185939 -20.573795 1.5 170 84 127
3.217183 -20.464016 1.319 170 84 127
3.173816 -20.579964 1.374 170 84 127
3.18865 -20.511204 1.192 170 84 127
3.226468 -20.419363 1.202 170 84 127
3.161479 -20.555719 1.076 170 84 127
3.223341 -20.418892 1.162 170 84 127
3.203479 -20.501925 1.342 170 84 127
3.202893 -20.461224 1.111 170 84 127
3.231092 -20.399273 1.152 170 84 127
3.196148 -20.525126 1.375 170 84 127
3.169328 -20.582167 1.322 170 84 127
3.201981 -20.522488 1.443 170 84 127
3.244797 -20.361362 1.133 170 84 127
3.227057 -20.400583 1.107 170 84 127
3.182091 -20.55051 1.324 170 84 127
3.240206 -20.37698 1.148 170 84 127
3.176121 -20.571037 1.353 170 84 127
3.165662 -20.593767 1.35 170 84 127
3.190127 -20.552361 1.439 170 84 127
3.177788 -20.528116 1.146 170 84 127
3.211536 -20.442059 1.131 170 84 127
3.189728 -20.487062 1.08 170 84 127
3.218885 -20.416622 1.08 170 84 127
3.223442 -20.405476 1.09 170 84 127
3.218902 -20.414387 1.072 170 84 127
3.20479 -20.50596 1.394 170 84 127
3.169196 -20.540575 1.097 170 84 127
3.205244 -20.50507 1.381 170 84 127
3.184462 -20.53264 1.259 170 84 127
3.190144 -20.550123 1.439 170 84 127
3.208728 -20.458584 1.174 170 84 127
3.176846 -20.53437 1.162 170 84 127
3.168755 -20.598711 1.417 170 84 127
3.170843 -20.55937 1.23 170 84 127
3.167614 -20.572315 1.246 170 84 127
3.17565 -20.574163 1.372 170 84 127
3.193475 -20.523764 1.332 170 84 127
3.201731 -20.496546 1.298 170 84 127
3.21653 -20.432259 1.143 170 84 127
3.195358 -20.511255 1.29 170 84 127
3.213773 -20.442074 1.158 170 84 127
3.237953 -20.3792 1.127 170 84 127
3.227915 -20.40551 1.142 170 84 127
3.203967 -20.496563 1.327 170 84 127
3.226887 -20.422945 1.232 170 84 127
3.208694 -20.463055 1.206 170 84 127
3.197458 -20.52916 1.42 170 84 127
3.198115 -20.501438 1.27 170 84 127
3.196067 -20.476826 1.11 170 84 127
3.180626 -20.566599 1.396 170 84 127
3.162654 -20.577644 1.209 170 84 127
3.17789 -20.514702 1.066 170 84 127
3.200165 -20.526051 1.428 170 84 127
3.201867 -20.478657 1.199 170 84 127
3.207564 -20.493906 1.363 170 84 127
3.216327 -20.459087 1.283 170 84 127
3.158953 -20.593716 1.245 170 84 127
3.175064 -20.533463 1.13 170 84 127
3.202808 -20.472404 1.171 170 84 127
3.174051 -20.608141 1.537 170 84 127
3.159124 -20.571356 1.128 170 84 127
3.159896 -20.587461 1.23 170 84 127
3.242509 -20.368053 1.129 170 84 127
3.233277 -20.405998 1.216 170 84 127
3.167851 -20.54101 1.074 170 84 127
3.163766 -20.549028 1.067 170 84 127
3.160384 -20.582098 1.201 170 84 127
3.212461 -20.43804 1.114 170 84 127
3.162637 -20.57988 1.227 170 84 127
3.194887 -20.514381 1.296 170 84 127
3.202826 -20.470167 1.166 170 84 127
3.197225 -20.500984 1.263 170 84 127
3.1757 -20.567457 1.333 170 84 127
3.172251 -20.60947 1.518 170 84 127
3.17338 -20.578621 1.366 170 84 127
3.187305 -20.511642 1.177 170 84 127
3.176002 -20.586689 1.443 170 84 127
3.223896 -20.404583 1.087 170 84 127
3.171467 -20.536118 1.098 170 84 127
3.16425 -20.603148 1.375 170 84 127
3.237396 -20.393507 1.199 170 84 127
3.177403 -20.520063 1.092 170 84 127
3.168505 -20.572769 1.259 170 84 127
3.170843 -20.55937 1.227 170 84 127
3.174003 -20.555368 1.241 170 84 127
3.199898 -20.502346 1.298 170 84 127
3.174458 -20.554478 1.252 170 84 127
3.187772 -20.567995 1.499 170 84 127
3.222886 -20.419785 1.157 170 84 127
3.236926 -20.396633 1.215 170 84 127
3.174644 -20.529881 1.111 170 84 127
3.199596 -20.483112 1.191 170 84 127
3.180882 -20.53306 1.212 170 84 127
3.173232 -20.539263 1.149 170 84 127
3.187793 -20.506277 1.165 170 84 127
3.205885 -20.479582 1.25 170 84 127
3.16279 -20.559755 1.12 170 84 127
3.188968 -20.528202 1.294 170 84 127
3.213369 -20.436258 1.119 170 84 127
3.196165 -20.522888 1.37 170 84 127
3.173312 -20.587563 1.412 170 84 127
3.241517 -20.381016 1.193 170 84 127
3.182477 -20.558563 1.378 170 84 127
3.192583 -20.52331 1.318 170 84 127
3.173227 -20.598743 1.478 170 84 127
3.170202 -20.584858 1.356 170 84 127
3.186881 -20.567541 1.486 170 84 127
3.236489 -20.395288 1.2 170 84 127
3.247101 -20.352436 1.103 170 84 127
3.176791 -20.600559 1.524 170 84 127
3.167763 -20.611671 1.474 170 84 127
3.240172 -20.381453 1.179 170 84 127
3.196555 -20.47146 1.087 170 84 127
3.173363 -20.580854 1.382 170 84 127
3.219907 -20.45867 1.328 170 84 127
3.171581 -20.579947 1.353 170 84 127
3.196987 -20.532288 1.43 170 84 127
3.201074 -20.524267 1.444 170 84 127
3.197896 -20.530504 1.435 170 84 127
3.227392 -20.415344 1.19 170 84 127
3.171382 -20.547298 1.161 170 84 127
3.190263 -20.534472 1.353 170 84 127
3.191442 -20.496914 1.157 170 84 127
3.180593 -20.571072 1.422 170 84 127
3.176893 -20.587143 1.46 170 84 127
3.207514 -20.500614 1.391 170 84 127
3.167262 -20.55979 1.176 170 84 127
3.210073 -20.458147 1.195 170 84 127
3.231025 -20.408216 1.202 170 84 127
3.253019 -20.338617 1.117 170 84 127
3.228351 -20.406855 1.164 170 84 127
3.182897 -20.562143 1.398 170 84 127
3.213403 -20.431786 1.093 170 84 127
3.182409 -20.567509 1.419 170 84 127
3.214124 -20.454601 1.227 170 84 127
3.155509 -20.576246 1.111 170 84 127
3.153222 -20.582939 1.114 170 84 127
3.213131 -20.467562 1.282 170 84 127
3.180474 -20.586723 1.504 170 84 127
3.181267 -20.541113 1.266 170 84 127
3.154652 -20.571321 1.065 170 84 127
3.209301 -20.442041 1.091 170 84 127
3.199261 -20.468351 1.109 170 84 127
3.16884 -20.58753 1.349 170 84 127
3.187772 -20.567995 1.493 170 84 127
3.168067 -20.571424 1.256 170 84 127
3.171937 -20.532991 1.087 170 84 127
3.176677 -20.55673 1.292 170 84 127
3.172823 -20.592928 1.438 170 84 127
3.171496 -20.591127 1.413 170 84 127
3.241113 -20.375198 1.158 170 84 127
3.202083 -20.509069 1.372 170 84 127
3.160571 -20.557503 1.066 170 84 127
3.204761 -20.450951 1.078 170 84 127
3.18776 -20.51075 1.181 170 84 127
3.185456 -20.519678 1.202 170 84 127
3.188265 -20.503151 1.143 170 84 127
3.184666 -20.505808 1.12 170 84 127
3.174453 -20.613958 1.57 170 84 127
3.234724 -20.392145 1.162 170 84 127
3.179923 -20.54155 1.245 170 84 127
3.153692 -20.579813 1.11 170 84 127
3.20109 -20.522032 1.42 170 84 127
3.155861 -20.588774 1.182 170 84 127
3.191068 -20.546106 1.426 170 84 127
3.178646 -20.533043 1.178 170 84 127
3.209011 -20.480053 1.305 170 84 127
3.215419 -20.460871 1.275 170 84 127
3.169782 -20.581276 1.329 170 84 127
3.182613 -20.540676 1.272 170 84 127
3.172391 -20.532101 1.092 170 84 127
3.234843 -20.376493 1.08 170 84 127
3.164118 -20.561556 1.14 170 84 127
3.175429 -20.603233 1.533 170 84 127
3.222971 -20.408604 1.087 170 84 127
3.156031 -20.566414 1.064 170 84 127
3.189457 -20.522839 1.272 170 84 127
3.164152 -20.557081 1.114 170 84 127
3.184598 -20.514751 1.165 170 84 127
3.249353 -20.350216 1.131 170 84 127
3.176859 -20.591616 1.478 170 84 127
3.18086 -20.594776 1.557 170 84 127
3.246209 -20.351982 1.089 170 84 127
3.175785 -20.556276 1.276 170 84 127
3.193707 -20.551939 1.493 170 84 127
3.198349 -20.529613 1.433 170 84 127
3.210526 -20.457256 1.191 170 84 127
3.179936 -20.598795 1.566 170 84 127
3.194769 -20.530033 1.38 170 84 127
3.198099 -20.503674 1.284 170 84 127
3.21009 -20.45591 1.185 170 84 127
3.155407 -20.589664 1.179 170 84 127
3.250766 -20.340836 1.1 170 84 127
3.164402 -20.583023 1.261 170 84 127
3.186562 -20.550545 1.39 170 84 127
3.183186 -20.524132 1.191 170 84 127
3.180614 -20.509354 1.081 170 84 127
3.215623 -20.434038 1.142 170 84 127
3.174725 -20.578182 1.382 170 84 127
3.235094 -20.402433 1.222 170 84 127
3.184746 -20.554108 1.378 170 84 127
3.179095 -20.591631 1.51 170 84 127
3.208422 -20.498833 1.396 170 84 127
3.219051 -20.453743 1.288 170 84 127
3.227948 -20.401037 1.123 170 84 127
3.212041 -20.43446 1.089 170 84 127
3.186533 -20.495535 1.077 170 84 127
3.18268 -20.531733 1.236 170 84 127
3.168199 -20.613016 1.49 170 84 127
3.206123 -20.448278 1.087 170 84 127
3.215419 -20.460871 1.285 170 84 127
3.17074 -20.572786 1.298 170 84 127
3.176342 -20.541969 1.206 170 84 127
3.201833 -20.48313 1.221 170 84 127
3.239281 -20.380999 1.155 170 84 127
3.167732 -20.556664 1.163 170 84 127
3.162739 -20.566463 1.158 170 84 127
3.20126 -20.499672 1.304 170 84 127
3.208728 -20.458584 1.184 170 84 127
3.175769 -20.558512 1.28 170 84 127
3.182779 -20.577797 1.491 170 84 127
3.199224 -20.532303 1.458 170 84 127
3.246159 -20.35869 1.126 170 84 127
3.211384 -20.462183 1.239 170 84 127
3.177199 -20.546896 1.24 170 84 127
3.188043 -20.532219 1.306 170 84 127
3.165344 -20.576769 1.243 170 84 127
3.168067 -20.571424 1.247 170 84 127
3.199512 -20.494293 1.247 170 84 127
3.169311 -20.584402 1.347 170 84 127
3.20247 -20.517122 1.424 170 84 127
3.170758 -20.570549 1.29 170 84 127
