ply
format ascii 1.0
element vertex 1378
property double x
property double y
property double z
property uchar red
property uchar green
property uchar blue
element face 0
property list uchar int vertex_indices
end_header
2.496099 -21.132511 0.316 0 84 127
2.417644 -21.275475 0.562 0 84 127
2.413558 -21.283495 0.528 0 84 127
2.424891 -21.263454 0.518 0 84 127
2.44574 -21.22694 0.065 0 84 127
2.46617 -21.186846 0.438 0 84 127
2.463446 -21.192192 0.465 0 84 127
2.508811 -21.107563 0.289 0 84 127
2.417173 -21.278603 0.454 0 84 127
2.486129 -21.149878 0.362 0 84 127
2.475233 -21.171261 0.359 0 84 127
2.489289 -21.145876 0.264 0 84 127
2.486111 -21.152113 0.121 0 84 127
2.459814 -21.19932 0.394 0 84 127
2.540556 -21.049664 0.194 0 84 127
2.428523 -21.256327 0.393 0 84 127
2.5038 -21.1196 0.168 0 84 127
2.421713 -21.269691 0.569 0 84 127
2.46617 -21.186846 0.387 0 84 127
2.451205 -21.214012 0.456 0 84 127
2.552344 -21.028734 0.173 0 84 127
2.429431 -21.254545 0.495 0 84 127
2.465699 -21.189972 0.117 0 84 127
2.444832 -21.228724 0.226 0 84 127
2.453458 -21.211794 0.123 0 84 127
2.443033 -21.230049 0.368 0 84 127
2.469785 -21.181955 0.32 0 84 127
2.495191 -21.134293 0.239 0 84 127
2.428051 -21.259455 0.07 0 84 127
2.505616 -21.116035 0.152 0 84 127
2.511064 -21.105345 0.212 0 84 127
2.490669 -21.140966 0.352 0 84 127
2.417189 -21.276367 0.613 0 84 127
2.418989 -21.275038 0.271 0 84 127
2.476577 -21.170824 0.086 0 84 127
2.474325 -21.173044 0.17 0 84 127
2.445303 -21.225595 0.435 0 84 127
2.431247 -21.25098 0.448 0 84 127
2.508794 -21.109798 0.145 0 84 127
2.413558 -21.283495 0.614 0 84 127
2.409471 -21.291513 0.511 0 84 127
2.408564 -21.293295 0.5 0 84 127
2.431229 -21.253218 0.216 0 84 127
2.427597 -21.260345 0.159 0 84 127
2.498823 -21.127165 0.181 0 84 127
2.537379 -21.055901 0.201 0 84 127
2.530114 -21.070158 0.234 0 84 127
2.468893 -21.181499 0.415 0 84 127
2.435332 -21.242962 0.532 0 84 127
2.425345 -21.262564 0.355 0 84 127
2.506994 -21.111128 0.327 0 84 127
2.557337 -21.018932 0.157 0 84 127
2.413541 -21.28573 0.141 0 84 127
2.496553 -21.13162 0.329 0 84 127
2.521052 -21.085741 0.252 0 84 127
2.447572 -21.221142 0.513 0 84 127
2.443033 -21.230049 0.278 0 84 127
2.481589 -21.158787 0.204 0 84 127
2.499277 -21.126274 0.277 0 84 127
2.479773 -21.162352 0.336 0 84 127
2.483405 -21.155224 0.386 0 84 127
2.518782 -21.090199 0.19 0 84 127
2.452112 -21.212231 0.396 0 84 127
2.426253 -21.260782 0.362 0 84 127
2.53647 -21.057684 0.101 0 84 127
2.439838 -21.238523 0.056 0 84 127
2.54555 -21.039864 0.206 0 84 127
2.435769 -21.244307 0.159 0 84 127
2.409018 -21.292404 0.556 0 84 127
2.522414 -21.083069 0.238 0 84 127
2.559607 -21.014479 0.145 0 84 127
2.440763 -21.234507 0.429 0 84 127
2.418535 -21.275928 0.28 0 84 127
2.414431 -21.286184 0.117 0 84 127
2.546442 -21.040318 0.089 0 84 127
2.451642 -21.215359 0.312 0 84 127
2.492467 -21.139639 0.102 0 84 127
2.415827 -21.279039 0.614 0 84 127
2.419443 -21.274147 0.476 0 84 127
2.433517 -21.246527 0.49 0 84 127
2.525137 -21.077724 0.239 0 84 127
2.517874 -21.091978 0.245 0 84 127
2.511518 -21.104452 0.306 0 84 127
2.434425 -21.244743 0.534 0 84 127
2.548257 -21.036753 0.116 0 84 127
2.481117 -21.161915 0.165 0 84 127
2.423074 -21.267019 0.538 0 84 127
2.436677 -21.242523 0.239 0 84 127
2.442579 -21.230942 0.319 0 84 127
2.51288 -21.10178 0.192 0 84 127
2.426253 -21.260782 0.5 0 84 127
2.470693 -21.180172 0.057 0 84 127
2.44801 -21.222486 0.288 0 84 127
2.539631 -21.053684 0.088 0 84 127
2.438947 -21.23807 0.487 0 84 127
2.47614 -21.169481 0.175 0 84 127
2.41492 -21.280821 0.538 0 84 127
2.446211 -21.223812 0.371 0 84 127
2.419426 -21.276382 0.115 0 84 127
2.423983 -21.265238 0.494 0 84 127
2.438493 -21.23896 0.328 0 84 127
2.395869 -21.316008 0.628 0 84 127
2.517421 -21.092869 0.185 0 84 127
2.451642 -21.215359 0.118 0 84 127
2.480227 -21.161461 0.315 0 84 127
2.480209 -21.163696 0.128 0 84 127
2.565946 -21.00424 0.065 0 84 127
2.486566 -21.151222 0.184 0 84 127
2.482933 -21.15835 0.104 0 84 127
2.473871 -21.173935 0.258 0 84 127
2.425327 -21.264801 0.157 0 84 127
2.44347 -21.231396 0.077 0 84 127
2.478411 -21.165024 0.374 0 84 127
2.465245 -21.190863 0.242 0 84 127
2.434425 -21.244743 0.563 0 84 127
2.49156 -21.14142 0.17 0 84 127
2.417644 -21.275475 0.571 0 84 127
2.463446 -21.192192 0.443 0 84 127
2.437131 -21.241634 0.212 0 84 127
2.456636 -21.205557 0.21 0 84 127
2.438039 -21.239853 0.433 0 84 127
2.504725 -21.115582 0.255 0 84 127
2.45889 -21.203337 0.051 0 84 127
2.48068 -21.16057 0.327 0 84 127
2.4412 -21.235851 0.159 0 84 127
2.41492 -21.280821 0.564 0 84 127
2.416735 -21.277258 0.52 0 84 127
2.404932 -21.300423 0.59 0 84 127
2.457544 -21.203775 0.366 0 84 127
2.427614 -21.25811 0.565 0 84 127
2.488399 -21.145422 0.346 0 84 127
2.453458 -21.211794 0.277 0 84 127
2.456166 -21.208683 0.092 0 84 127
2.547804 -21.037643 0.164 0 84 127
2.449389 -21.217575 0.434 0 84 127
2.505633 -21.1138 0.235 0 84 127
2.440747 -21.236742 0.168 0 84 127
2.47071 -21.177935 0.36 0 84 127
2.415811 -21.281275 0.427 0 84 127
2.400846 -21.308443 0.571 0 84 127
2.550073 -21.03319 0.093 0 84 127
2.437131 -21.241634 0.245 0 84 127
2.465715 -21.187737 0.339 0 84 127
2.423529 -21.266129 0.538 0 84 127
2.449372 -21.219812 0.26 0 84 127
2.489289 -21.145876 0.109 0 84 127
2.500185 -21.124493 0.176 0 84 127
2.49926 -21.12851 0.107 0 84 127
2.45482 -21.209122 0.32 0 84 127
2.520598 -21.086632 0.224 0 84 127
2.428959 -21.257671 0.211 0 84 127
2.436223 -21.243416 0.311 0 84 127
2.532839 -21.064812 0.213 0 84 127
2.434407 -21.246981 0.336 0 84 127
2.451642 -21.215359 0.307 0 84 127
2.438947 -21.23807 0.384 0 84 127
2.417609 -21.279947 0.168 0 84 127
2.440763 -21.234507 0.401 0 84 127
2.429867 -21.25589 0.233 0 84 127
2.496553 -21.13162 0.237 0 84 127
2.448027 -21.220249 0.517 0 84 127
2.444832 -21.228724 0.148 0 84 127
2.494283 -21.136076 0.335 0 84 127
2.452096 -21.214466 0.238 0 84 127
2.412633 -21.287512 0.259 0 84 127
2.456652 -21.203321 0.484 0 84 127
2.534654 -21.061247 0.182 0 84 127
2.420351 -21.272366 0.456 0 84 127
2.50153 -21.124056 0.154 0 84 127
2.495191 -21.134293 0.368 0 84 127
2.515604 -21.096436 0.149 0 84 127
2.454366 -21.210012 0.329 0 84 127
2.480227 -21.161461 0.28 0 84 127
2.432591 -21.250544 0.389 0 84 127
2.451205 -21.214012 0.393 0 84 127
2.405386 -21.299532 0.603 0 84 127
2.494737 -21.135183 0.346 0 84 127
2.426689 -21.262127 0.126 0 84 127
2.497461 -21.129839 0.296 0 84 127
2.452988 -21.21492 0.067 0 84 127
2.437585 -21.240744 0.227 0 84 127
2.48702 -21.150331 0.138 0 84 127
2.424436 -21.264347 0.572 0 84 127
2.427161 -21.259001 0.443 0 84 127
2.493375 -21.137857 0.29 0 84 127
2.420351 -21.272366 0.504 0 84 127
2.47614 -21.169481 0.268 0 84 127
2.446194 -21.226049 0.093 0 84 127
2.422149 -21.271038 0.237 0 84 127
2.559135 -21.017605 0.057 0 84 127
2.418081 -21.276821 0.279 0 84 127
2.464354 -21.190409 0.265 0 84 127
2.466607 -21.188192 0.225 0 84 127
2.45936 -21.200211 0.408 0 84 127
2.426253 -21.260782 0.591 0 84 127
2.4412 -21.235851 0.114 0 84 127
2.430775 -21.254108 0.14 0 84 127
2.4412 -21.235851 0.144 0 84 127
2.490651 -21.143204 0.186 0 84 127
2.458435 -21.204229 0.149 0 84 127
2.552797 -21.027843 0.157 0 84 127
2.472055 -21.177498 0.144 0 84 127
2.406293 -21.29775 0.554 0 84 127
2.435298 -21.247435 0.076 0 84 127
2.539194 -21.052338 0.222 0 84 127
2.432591 -21.250544 0.139 0 84 127
2.553705 -21.026062 0.176 0 84 127
2.418551 -21.273693 0.595 0 84 127
2.483387 -21.157459 0.067 0 84 127
2.413995 -21.28484 0.454 0 84 127
2.502892 -21.121382 0.089 0 84 127
2.45075 -21.214905 0.462 0 84 127
2.434844 -21.248325 0.066 0 84 127
2.484313 -21.15344 0.244 0 84 127
2.435769 -21.244307 0.193 0 84 127
2.524667 -21.080849 0.131 0 84 127
2.453458 -21.211794 0.335 0 84 127
2.447119 -21.222033 0.412 0 84 127
2.417173 -21.278603 0.213 0 84 127
2.438476 -21.241198 0.176 0 84 127
2.486129 -21.149878 0.368 0 84 127
2.417173 -21.278603 0.358 0 84 127
2.427144 -21.261234 0.145 0 84 127
2.527845 -21.074612 0.172 0 84 127
2.461159 -21.198883 0.105 0 84 127
2.535108 -21.060356 0.186 0 84 127
2.475687 -21.17037 0.289 0 84 127
2.45255 -21.213575 0.14 0 84 127
2.418989 -21.275038 0.261 0 84 127
2.575933 -20.984638 0.073 0 84 127
2.518328 -21.091087 0.215 0 84 127
2.466624 -21.185955 0.296 0 84 127
2.481589 -21.158787 0.348 0 84 127
2.413087 -21.286621 0.35 0 84 127
2.451188 -21.216249 0.077 0 84 127
2.465715 -21.187737 0.459 0 84 127
2.426253 -21.260782 0.494 0 84 127
2.46844 -21.18239 0.423 0 84 127
2.430775 -21.254108 0.186 0 84 127
2.428523 -21.256327 0.567 0 84 127
2.413995 -21.28484 0.327 0 84 127
2.488382 -21.147657 0.262 0 84 127
2.454366 -21.210012 0.386 0 84 127
2.467515 -21.186409 0.26 0 84 127
2.479318 -21.163244 0.307 0 84 127
2.484767 -21.15255 0.295 0 84 127
2.421242 -21.27282 0.127 0 84 127
2.451188 -21.216249 0.323 0 84 127
2.453912 -21.210903 0.162 0 84 127
2.496553 -21.13162 0.304 0 84 127
2.483841 -21.156569 0.082 0 84 127
2.472055 -21.177498 0.075 0 84 127
2.429413 -21.256781 0.116 0 84 127
2.500639 -21.123602 0.295 0 84 127
2.508794 -21.109798 0.129 0 84 127
2.532384 -21.065702 0.24 0 84 127
2.464354 -21.190409 0.449 0 84 127
2.427614 -21.25811 0.572 0 84 127
2.580019 -20.976618 0.078 0 84 127
2.439855 -21.236286 0.354 0 84 127
2.449826 -21.218922 0.236 0 84 127
2.492031 -21.138294 0.37 0 84 127
2.496536 -21.133856 0.07 0 84 127
2.518782 -21.090199 0.155 0 84 127
2.448481 -21.219358 0.41 0 84 127
2.521943 -21.086195 0.135 0 84 127
2.45075 -21.214905 0.477 0 84 127
2.440747 -21.236742 0.154 0 84 127
2.431229 -21.253218 0.089 0 84 127
2.453004 -21.212685 0.202 0 84 127
2.507903 -21.109344 0.29 0 84 127
2.502001 -21.120928 0.298 0 84 127
2.468877 -21.183735 0.087 0 84 127
2.443925 -21.230505 0.2 0 84 127
2.514696 -21.098215 0.232 0 84 127
2.432609 -21.248308 0.449 0 84 127
2.476124 -21.171715 0.056 0 84 127
2.465699 -21.189972 0.21 0 84 127
2.440763 -21.234507 0.231 0 84 127
2.520598 -21.086632 0.241 0 84 127
2.393146 -21.321354 0.639 0 84 127
2.462084 -21.194864 0.321 0 84 127
2.482497 -21.157007 0.369 0 84 127
2.524212 -21.081741 0.145 0 84 127
2.456199 -21.204212 0.497 0 84 127
2.409926 -21.290623 0.576 0 84 127
2.437114 -21.24387 0.056 0 84 127
2.423074 -21.267019 0.282 0 84 127
2.497461 -21.129839 0.291 0 84 127
2.439838 -21.238523 0.094 0 84 127
2.49156 -21.14142 0.224 0 84 127
2.45936 -21.200211 0.337 0 84 127
2.531023 -21.068375 0.249 0 84 127
2.424891 -21.263454 0.405 0 84 127
2.507432 -21.112473 0.245 0 84 127
2.497915 -21.128946 0.178 0 84 127
2.456619 -21.207792 0.096 0 84 127
2.487927 -21.14855 0.237 0 84 127
2.477486 -21.169043 0.058 0 84 127
2.394507 -21.318682 0.681 0 84 127
2.469802 -21.179718 0.414 0 84 127
2.552344 -21.028734 0.077 0 84 127
2.443925 -21.230505 0.227 0 84 127
2.448935 -21.218468 0.42 0 84 127
2.470693 -21.180172 0.152 0 84 127
2.472071 -21.175262 0.396 0 84 127
2.421713 -21.269691 0.571 0 84 127
2.450734 -21.21714 0.065 0 84 127
2.519236 -21.089306 0.181 0 84 127
2.506978 -21.113363 0.208 0 84 127
2.546004 -21.038973 0.203 0 84 127
2.412615 -21.289749 0.112 0 84 127
2.508357 -21.108454 0.316 0 84 127
2.470239 -21.181063 0.239 0 84 127
2.482951 -21.156115 0.334 0 84 127
2.456652 -21.203321 0.471 0 84 127
2.476595 -21.168589 0.402 0 84 127
2.413524 -21.287966 0.124 0 84 127
2.556883 -21.019825 0.097 0 84 127
2.45936 -21.200211 0.368 0 84 127
2.501547 -21.121819 0.216 0 84 127
2.47567 -21.172606 0.052 0 84 127
2.474325 -21.173044 0.129 0 84 127
2.478393 -21.167261 0.13 0 84 127
2.497461 -21.129839 0.156 0 84 127
2.428959 -21.257671 0.293 0 84 127
2.411742 -21.287058 0.589 0 84 127
2.429885 -21.253654 0.541 0 84 127
2.445286 -21.227833 0.267 0 84 127
2.483405 -21.155224 0.3 0 84 127
2.394053 -21.319572 0.577 0 84 127
2.428069 -21.257217 0.586 0 84 127
2.448027 -21.220249 0.513 0 84 127
2.435315 -21.245197 0.433 0 84 127
2.426707 -21.259892 0.467 0 84 127
2.448918 -21.220703 0.29 0 84 127
2.448935 -21.218468 0.416 0 84 127
2.44574 -21.22694 0.182 0 84 127
2.41492 -21.280821 0.56 0 84 127
2.426235 -21.263018 0.316 0 84 127
2.440292 -21.237633 0.124 0 84 127
2.413995 -21.28484 0.308 0 84 127
2.441216 -21.233616 0.305 0 84 127
2.431229 -21.253218 0.238 0 84 127
2.447556 -21.223377 0.212 0 84 127
2.470693 -21.180172 0.249 0 84 127
2.419896 -21.273256 0.539 0 84 127
2.50834 -21.110689 0.192 0 84 127
2.428505 -21.258564 0.255 0 84 127
2.539194 -21.052338 0.144 0 84 127
2.453912 -21.210903 0.267 0 84 127
2.491105 -21.142313 0.091 0 84 127
2.523322 -21.081287 0.244 0 84 127
2.469802 -21.179718 0.391 0 84 127
2.555975 -21.021606 0.167 0 84 127
2.453458 -21.211794 0.179 0 84 127
2.457544 -21.203775 0.356 0 84 127
2.501093 -21.122709 0.179 0 84 127
2.426235 -21.263018 0.307 0 84 127
2.420367 -21.27013 0.572 0 84 127
2.511972 -21.103561 0.291 0 84 127
2.420787 -21.27371 0.062 0 84 127
2.446665 -21.222923 0.351 0 84 127
2.445303 -21.225595 0.368 0 84 127
2.477957 -21.165915 0.236 0 84 127
2.497461 -21.129839 0.164 0 84 127
2.45028 -21.218031 0.072 0 84 127
2.40357 -21.303097 0.616 0 84 127
2.556429 -21.020716 0.12 0 84 127
2.411288 -21.287949 0.54 0 84 127
2.448935 -21.218468 0.394 0 84 127
2.513788 -21.099998 0.215 0 84 127
2.412615 -21.289749 0.111 0 84 127
2.472509 -21.176607 0.246 0 84 127
2.40584 -21.298641 0.486 0 84 127
2.526028 -21.078176 0.149 0 84 127
2.428977 -21.255436 0.576 0 84 127
2.573663 -20.989094 0.059 0 84 127
2.4639 -21.191301 0.275 0 84 127
2.421258 -21.270584 0.275 0 84 127
2.416718 -21.279493 0.404 0 84 127
2.504271 -21.116472 0.28 0 84 127
2.47071 -21.177935 0.394 0 84 127
2.399502 -21.30888 0.615 0 84 127
2.415357 -21.282166 0.209 0 84 127
2.435752 -21.246544 0.072 0 84 127
2.464354 -21.190409 0.395 0 84 127
2.451642 -21.215359 0.361 0 84 127
2.436661 -21.244761 0.051 0 84 127
2.429431 -21.254545 0.382 0 84 127
2.520581 -21.088869 0.116 0 84 127
2.52512 -21.079958 0.168 0 84 127
2.414466 -21.281712 0.563 0 84 127
2.397668 -21.31468 0.509 0 84 127
2.461176 -21.196646 0.322 0 84 127
2.446194 -21.226049 0.266 0 84 127
2.462521 -21.196209 0.082 0 84 127
2.50607 -21.115145 0.17 0 84 127
2.443941 -21.22827 0.3 0 84 127
2.45255 -21.213575 0.39 0 84 127
2.434861 -21.24609 0.437 0 84 127
2.448935 -21.218468 0.387 0 84 127
2.436677 -21.242523 0.274 0 84 127
2.505616 -21.116035 0.112 0 84 127
2.45255 -21.213575 0.291 0 84 127
2.448464 -21.221596 0.113 0 84 127
2.516966 -21.093761 0.216 0 84 127
2.413541 -21.28573 0.353 0 84 127
2.470693 -21.180172 0.057 0 84 127
2.457544 -21.203775 0.408 0 84 127
2.418097 -21.274584 0.6 0 84 127
2.549619 -21.034081 0.151 0 84 127
2.461176 -21.196646 0.219 0 84 127
2.428051 -21.259455 0.273 0 84 127
2.418989 -21.275038 0.345 0 84 127
2.509702 -21.108017 0.24 0 84 127
2.493829 -21.136967 0.18 0 84 127
2.553251 -21.026953 0.141 0 84 127
2.504271 -21.116472 0.236 0 84 127
2.547349 -21.038536 0.126 0 84 127
2.424891 -21.263454 0.455 0 84 127
2.537832 -21.05501 0.153 0 84 127
2.428959 -21.257671 0.124 0 84 127
2.497007 -21.13073 0.229 0 84 127
2.426235 -21.263018 0.203 0 84 127
2.534201 -21.062138 0.054 0 84 127
2.508794 -21.109798 0.252 0 84 127
2.394053 -21.319572 0.589 0 84 127
2.558699 -21.01626 0.137 0 84 127
2.469348 -21.180609 0.402 0 84 127
2.407202 -21.295969 0.576 0 84 127
2.422149 -21.271038 0.251 0 84 127
2.425327 -21.264801 0.274 0 84 127
2.462975 -21.195318 0.062 0 84 127
2.436677 -21.242523 0.394 0 84 127
2.477049 -21.167698 0.163 0 84 127
2.416282 -21.278149 0.518 0 84 127
2.508794 -21.109798 0.089 0 84 127
2.424436 -21.264347 0.52 0 84 127
2.497007 -21.13073 0.251 0 84 127
2.409471 -21.291513 0.614 0 84 127
2.3936 -21.320463 0.554 0 84 127
2.486129 -21.149878 0.323 0 84 127
2.443487 -21.22916 0.466 0 84 127
2.520144 -21.087524 0.285 0 84 127
2.446211 -21.223812 0.463 0 84 127
2.575025 -20.98642 0.079 0 84 127
2.51061 -21.106236 0.247 0 84 127
2.486566 -21.151222 0.067 0 84 127
2.418971 -21.277275 0.091 0 84 127
2.486111 -21.152113 0.189 0 84 127
2.456182 -21.206448 0.415 0 84 127
2.428505 -21.258564 0.142 0 84 127
2.482043 -21.157896 0.392 0 84 127
2.529206 -21.071939 0.246 0 84 127
2.481117 -21.161915 0.089 0 84 127
2.528298 -21.073721 0.098 0 84 127
2.486111 -21.152113 0.228 0 84 127
2.506978 -21.113363 0.063 0 84 127
2.413104 -21.284386 0.496 0 84 127
2.511518 -21.104452 0.297 0 84 127
2.464808 -21.189518 0.394 0 84 127
2.44574 -21.22694 0.133 0 84 127
2.449826 -21.218922 0.186 0 84 127
2.441654 -21.234961 0.093 0 84 127
2.430792 -21.251873 0.432 0 84 127
2.407655 -21.295078 0.645 0 84 127
2.507449 -21.110235 0.324 0 84 127
2.468424 -21.184626 0.142 0 84 127
2.445286 -21.227833 0.177 0 84 127
2.508811 -21.107563 0.303 0 84 127
2.530568 -21.069267 0.141 0 84 127
2.414903 -21.283058 0.448 0 84 127
2.4412 -21.235851 0.077 0 84 127
2.437585 -21.240744 0.228 0 84 127
2.467062 -21.1873 0.164 0 84 127
2.480227 -21.161461 0.411 0 84 127
2.445303 -21.225595 0.516 0 84 127
2.530114 -21.070158 0.116 0 84 127
2.505616 -21.116035 0.18 0 84 127
2.437131 -21.241634 0.429 0 84 127
2.447572 -21.221142 0.384 0 84 127
2.406293 -21.29775 0.658 0 84 127
2.516966 -21.093761 0.268 0 84 127
2.446211 -21.223812 0.372 0 84 127
2.561423 -21.010914 0.125 0 84 127
2.523305 -21.083523 0.157 0 84 127
2.460706 -21.199774 0.081 0 84 127
2.438023 -21.242088 0.154 0 84 127
2.497007 -21.13073 0.267 0 84 127
2.484295 -21.155678 0.186 0 84 127
2.551889 -21.029625 0.181 0 84 127
2.41492 -21.280821 0.491 0 84 127
2.473417 -21.174826 0.266 0 84 127
2.458906 -21.201101 0.263 0 84 127
2.486111 -21.152113 0.136 0 84 127
2.419443 -21.274147 0.425 0 84 127
2.421242 -21.27282 0.181 0 84 127
2.469331 -21.182844 0.194 0 84 127
2.464354 -21.190409 0.447 0 84 127
2.445756 -21.224705 0.402 0 84 127
2.481117 -21.161915 0.075 0 84 127
2.503817 -21.117365 0.256 0 84 127
2.446648 -21.225159 0.257 0 84 127
2.419879 -21.275492 0.145 0 84 127
2.455274 -21.208229 0.404 0 84 127
2.489289 -21.145876 0.3 0 84 127
2.454837 -21.206884 0.448 0 84 127
2.45482 -21.209122 0.302 0 84 127
2.517874 -21.091978 0.217 0 84 127
2.504725 -21.115582 0.231 0 84 127
2.478393 -21.167261 0.1 0 84 127
2.481135 -21.159678 0.239 0 84 127
2.40811 -21.294186 0.623 0 84 127
2.413995 -21.28484 0.165 0 84 127
2.440309 -21.235397 0.328 0 84 127
2.498823 -21.127165 0.319 0 84 127
2.447556 -21.223377 0.27 0 84 127
2.555521 -21.022497 0.074 0 84 127
2.493375 -21.137857 0.217 0 84 127
2.45936 -21.200211 0.344 0 84 127
2.453458 -21.211794 0.169 0 84 127
2.449826 -21.218922 0.063 0 84 127
2.497007 -21.13073 0.257 0 84 127
2.536924 -21.056793 0.171 0 84 127
2.511972 -21.103561 0.208 0 84 127
2.46617 -21.186846 0.455 0 84 127
2.428959 -21.257671 0.173 0 84 127
2.537379 -21.055901 0.089 0 84 127
2.481589 -21.158787 0.25 0 84 127
2.492467 -21.139639 0.306 0 84 127
2.451205 -21.214012 0.397 0 84 127
2.421258 -21.270584 0.521 0 84 127
2.530114 -21.070158 0.219 0 84 127
2.413995 -21.28484 0.159 0 84 127
2.418551 -21.273693 0.546 0 84 127
2.490669 -21.140966 0.356 0 84 127
2.501985 -21.123163 0.13 0 84 127
2.413995 -21.28484 0.199 0 84 127
2.440292 -21.237633 0.157 0 84 127
2.494737 -21.135183 0.071 0 84 127
2.423529 -21.266129 0.423 0 84 127
2.449826 -21.218922 0.136 0 84 127
2.472055 -21.177498 0.23 0 84 127
2.426235 -21.263018 0.205 0 84 127
2.436661 -21.244761 0.06 0 84 127
2.553705 -21.026062 0.169 0 84 127
2.530114 -21.070158 0.168 0 84 127
2.513334 -21.100889 0.209 0 84 127
2.478865 -21.164133 0.199 0 84 127
2.492467 -21.139639 0.166 0 84 127
2.432137 -21.251434 0.259 0 84 127
2.448935 -21.218468 0.403 0 84 127
2.534201 -21.062138 0.149 0 84 127
2.457998 -21.202883 0.462 0 84 127
2.538286 -21.054119 0.141 0 84 127
2.507886 -21.111582 0.216 0 84 127
2.422621 -21.26791 0.345 0 84 127
2.466607 -21.188192 0.054 0 84 127
2.424419 -21.266582 0.054 0 84 127
2.474325 -21.173044 0.241 0 84 127
2.428977 -21.255436 0.391 0 84 127
2.416248 -21.282619 0.132 0 84 127
2.491105 -21.142313 0.258 0 84 127
2.428505 -21.258564 0.138 0 84 127
2.539194 -21.052338 0.221 0 84 127
2.428977 -21.255436 0.462 0 84 127
2.417189 -21.276367 0.551 0 84 127
2.432591 -21.250544 0.18 0 84 127
2.498823 -21.127165 0.255 0 84 127
2.519236 -21.089306 0.247 0 84 127
2.497915 -21.128946 0.234 0 84 127
2.445286 -21.227833 0.206 0 84 127
2.57094 -20.994438 0.112 0 84 127
2.462992 -21.193083 0.311 0 84 127
2.473417 -21.174826 0.194 0 84 127
2.53874 -21.053228 0.181 0 84 127
2.45075 -21.214905 0.477 0 84 127
2.413995 -21.28484 0.217 0 84 127
2.419426 -21.276382 0.128 0 84 127
2.472963 -21.175718 0.25 0 84 127
2.481117 -21.161915 0.144 0 84 127
2.420351 -21.272366 0.346 0 84 127
2.435769 -21.244307 0.251 0 84 127
2.437569 -21.242979 0.08 0 84 127
2.518328 -21.091087 0.167 0 84 127
2.45936 -21.200211 0.291 0 84 127
2.435787 -21.242071 0.484 0 84 127
2.540993 -21.05101 0.094 0 84 127
2.456182 -21.206448 0.304 0 84 127
2.482951 -21.156115 0.259 0 84 127
2.467532 -21.184172 0.436 0 84 127
2.412633 -21.287512 0.413 0 84 127
2.421258 -21.270584 0.51 0 84 127
2.45482 -21.209122 0.209 0 84 127
2.513788 -21.099998 0.092 0 84 127
2.533292 -21.063921 0.09 0 84 127
2.438493 -21.23896 0.355 0 84 127
2.513334 -21.100889 0.289 0 84 127
2.422621 -21.26791 0.462 0 84 127
2.422149 -21.271038 0.197 0 84 127
2.513334 -21.100889 0.242 0 84 127
2.463883 -21.193537 0.193 0 84 127
2.4412 -21.235851 0.059 0 84 127
2.468893 -21.181499 0.37 0 84 127
2.432154 -21.249199 0.456 0 84 127
2.430792 -21.251873 0.472 0 84 127
2.414903 -21.283058 0.434 0 84 127
2.417627 -21.277712 0.473 0 84 127
2.424873 -21.265692 0.099 0 84 127
2.478865 -21.164133 0.382 0 84 127
2.427614 -21.25811 0.395 0 84 127
2.477503 -21.166807 0.424 0 84 127
2.506087 -21.112909 0.319 0 84 127
2.408564 -21.293295 0.631 0 84 127
2.509719 -21.105782 0.309 0 84 127
2.526028 -21.078176 0.181 0 84 127
2.492467 -21.139639 0.117 0 84 127
2.511518 -21.104452 0.234 0 84 127
2.499731 -21.125383 0.298 0 84 127
2.535108 -21.060356 0.094 0 84 127
2.551889 -21.029625 0.177 0 84 127
2.500639 -21.123602 0.338 0 84 127
2.533746 -21.06303 0.179 0 84 127
2.423983 -21.265238 0.309 0 84 127
2.417173 -21.278603 0.341 0 84 127
2.485204 -21.153894 0.055 0 84 127
2.493375 -21.137857 0.277 0 84 127
2.474779 -21.172152 0.115 0 84 127
2.418081 -21.276821 0.274 0 84 127
2.478865 -21.164133 0.394 0 84 127
2.438039 -21.239853 0.473 0 84 127
2.439855 -21.236286 0.216 0 84 127
2.439385 -21.239414 0.164 0 84 127
2.416718 -21.279493 0.225 0 84 127
2.417627 -21.277712 0.439 0 84 127
2.428977 -21.255436 0.574 0 84 127
2.472509 -21.176607 0.16 0 84 127
2.40584 -21.298641 0.641 0 84 127
2.449826 -21.218922 0.062 0 84 127
2.445286 -21.227833 0.205 0 84 127
2.502909 -21.119146 0.218 0 84 127
2.456636 -21.205557 0.401 0 84 127
2.516058 -21.095543 0.194 0 84 127
2.421713 -21.269691 0.417 0 84 127
2.418535 -21.275928 0.522 0 84 127
2.459343 -21.202446 0.103 0 84 127
2.421713 -21.269691 0.549 0 84 127
2.45936 -21.200211 0.321 0 84 127
2.432591 -21.250544 0.334 0 84 127
2.533292 -21.063921 0.129 0 84 127
2.529206 -21.071939 0.231 0 84 127
2.425345 -21.262564 0.4 0 84 127
2.435752 -21.246544 0.1 0 84 127
2.539194 -21.052338 0.174 0 84 127
2.429413 -21.256781 0.188 0 84 127
2.430792 -21.251873 0.568 0 84 127
2.481571 -21.161024 0.076 0 84 127
2.447119 -21.222033 0.369 0 84 127
2.451205 -21.214012 0.413 0 84 127
2.478411 -21.165024 0.282 0 84 127
2.44801 -21.222486 0.325 0 84 127
2.419879 -21.275492 0.083 0 84 127
2.467062 -21.1873 0.148 0 84 127
2.418535 -21.275928 0.504 0 84 127
2.464354 -21.190409 0.342 0 84 127
2.457998 -21.202883 0.197 0 84 127
2.414449 -21.283949 0.289 0 84 127
2.438039 -21.239853 0.411 0 84 127
2.486566 -21.151222 0.065 0 84 127
2.420351 -21.272366 0.427 0 84 127
2.543717 -21.045664 0.147 0 84 127
2.450734 -21.21714 0.069 0 84 127
2.52285 -21.084414 0.137 0 84 127
2.507886 -21.111582 0.23 0 84 127
2.422149 -21.271038 0.257 0 84 127
2.480227 -21.161461 0.325 0 84 127
2.49926 -21.12851 0.069 0 84 127
2.456182 -21.206448 0.366 0 84 127
2.550073 -21.03319 0.18 0 84 127
2.504271 -21.116472 0.248 0 84 127
2.492922 -21.138748 0.197 0 84 127
2.570031 -20.996222 0.119 0 84 127
2.531476 -21.067484 0.158 0 84 127
2.470693 -21.180172 0.165 0 84 127
2.431683 -21.252327 0.277 0 84 127
2.490651 -21.143204 0.179 0 84 127
2.420351 -21.272366 0.318 0 84 127
2.45889 -21.203337 0.094 0 84 127
2.478411 -21.165024 0.305 0 84 127
2.426707 -21.259892 0.433 0 84 127
2.415357 -21.282166 0.213 0 84 127
2.430775 -21.254108 0.249 0 84 127
2.412195 -21.286167 0.466 0 84 127
2.511064 -21.105345 0.166 0 84 127
2.443487 -21.22916 0.459 0 84 127
2.393146 -21.321354 0.486 0 84 127
2.45709 -21.204666 0.44 0 84 127
2.540556 -21.049664 0.217 0 84 127
2.435298 -21.247435 0.111 0 84 127
2.481135 -21.159678 0.205 0 84 127
2.575933 -20.984638 0.11 0 84 127
2.558245 -21.017151 0.147 0 84 127
2.525574 -21.079067 0.163 0 84 127
2.417644 -21.275475 0.576 0 84 127
2.486111 -21.152113 0.107 0 84 127
2.47614 -21.169481 0.323 0 84 127
2.443033 -21.230049 0.531 0 84 127
2.475233 -21.171261 0.266 0 84 127
2.477049 -21.167698 0.365 0 84 127
2.565037 -21.006021 0.081 0 84 127
2.499731 -21.125383 0.287 0 84 127
2.511518 -21.104452 0.312 0 84 127
2.438947 -21.23807 0.344 0 84 127
2.524212 -21.081741 0.112 0 84 127
2.523776 -21.080395 0.254 0 84 127
2.449826 -21.218922 0.13 0 84 127
2.474779 -21.172152 0.212 0 84 127
2.460722 -21.197538 0.44 0 84 127
2.456182 -21.206448 0.282 0 84 127
2.458906 -21.201101 0.432 0 84 127
2.477031 -21.169933 0.093 0 84 127
2.516058 -21.095543 0.123 0 84 127
2.419005 -21.272802 0.566 0 84 127
2.421242 -21.27282 0.222 0 84 127
2.545079 -21.04299 0.114 0 84 127
2.425327 -21.264801 0.288 0 84 127
2.432591 -21.250544 0.347 0 84 127
2.497007 -21.13073 0.224 0 84 127
2.456636 -21.205557 0.319 0 84 127
2.576387 -20.983747 0.102 0 84 127
2.448027 -21.220249 0.503 0 84 127
2.517421 -21.092869 0.139 0 84 127
2.53647 -21.057684 0.141 0 84 127
2.418535 -21.275928 0.429 0 84 127
2.495191 -21.134293 0.196 0 84 127
2.394053 -21.319572 0.577 0 84 127
2.422167 -21.268801 0.476 0 84 127
2.40584 -21.298641 0.479 0 84 127
2.438947 -21.23807 0.415 0 84 127
2.417627 -21.277712 0.485 0 84 127
2.422604 -21.270145 0.182 0 84 127
2.418097 -21.274584 0.595 0 84 127
2.419005 -21.272802 0.616 0 84 127
2.399047 -21.309771 0.653 0 84 127
2.436207 -21.245651 0.1 0 84 127
2.434407 -21.246981 0.174 0 84 127
2.475687 -21.17037 0.389 0 84 127
2.431229 -21.253218 0.389 0 84 127
2.430758 -21.256344 0.051 0 84 127
2.426707 -21.259892 0.558 0 84 127
2.52512 -21.079958 0.057 0 84 127
2.453458 -21.211794 0.268 0 84 127
2.469348 -21.180609 0.343 0 84 127
2.495191 -21.134293 0.361 0 84 127
2.423057 -21.269255 0.134 0 84 127
2.466607 -21.188192 0.159 0 84 127
2.43397 -21.245636 0.563 0 84 127
2.5038 -21.1196 0.166 0 84 127
2.517421 -21.092869 0.283 0 84 127
2.462992 -21.193083 0.306 0 84 127
2.449372 -21.219812 0.266 0 84 127
2.451205 -21.214012 0.4 0 84 127
2.446648 -21.225159 0.074 0 84 127
2.45936 -21.200211 0.407 0 84 127
2.522414 -21.083069 0.224 0 84 127
2.426235 -21.263018 0.233 0 84 127
2.436677 -21.242523 0.317 0 84 127
2.409926 -21.290623 0.527 0 84 127
2.433953 -21.247871 0.314 0 84 127
2.509248 -21.10891 0.124 0 84 127
2.524684 -21.078613 0.256 0 84 127
2.436677 -21.242523 0.476 0 84 127
2.428959 -21.257671 0.33 0 84 127
2.437585 -21.240744 0.464 0 84 127
2.523322 -21.081287 0.236 0 84 127
2.502892 -21.121382 0.075 0 84 127
2.472509 -21.176607 0.181 0 84 127
2.536016 -21.058575 0.22 0 84 127
2.403587 -21.300861 0.664 0 84 127
2.420805 -21.271475 0.391 0 84 127
2.539648 -21.051447 0.225 0 84 127
2.47614 -21.169481 0.219 0 84 127
2.466624 -21.185955 0.347 0 84 127
2.445286 -21.227833 0.131 0 84 127
2.449826 -21.218922 0.227 0 84 127
2.46617 -21.186846 0.431 0 84 127
2.418971 -21.277275 0.206 0 84 127
2.415811 -21.281275 0.436 0 84 127
2.539648 -21.051447 0.171 0 84 127
2.483841 -21.156569 0.174 0 84 127
2.419443 -21.274147 0.471 0 84 127
2.526046 -21.075941 0.266 0 84 127
2.548711 -21.035862 0.134 0 84 127
2.436223 -21.243416 0.296 0 84 127
2.430321 -21.254997 0.173 0 84 127
2.404478 -21.301315 0.507 0 84 127
2.459814 -21.19932 0.336 0 84 127
2.438476 -21.241198 0.072 0 84 127
2.442108 -21.23407 0.131 0 84 127
2.419896 -21.273256 0.472 0 84 127
2.428051 -21.259455 0.066 0 84 127
2.444378 -21.229614 0.124 0 84 127
2.413995 -21.28484 0.211 0 84 127
2.490651 -21.143204 0.295 0 84 127
2.452533 -21.215813 0.051 0 84 127
2.462538 -21.193974 0.447 0 84 127
2.466624 -21.185955 0.3 0 84 127
2.513788 -21.099998 0.141 0 84 127
2.502001 -21.120928 0.239 0 84 127
2.421275 -21.268347 0.595 0 84 127
2.425798 -21.261673 0.428 0 84 127
2.472055 -21.177498 0.259 0 84 127
2.449826 -21.218922 0.266 0 84 127
2.413541 -21.28573 0.237 0 84 127
2.535108 -21.060356 0.22 0 84 127
2.508794 -21.109798 0.178 0 84 127
2.516058 -21.095543 0.093 0 84 127
2.426689 -21.262127 0.243 0 84 127
2.547804 -21.037643 0.132 0 84 127
2.520144 -21.087524 0.272 0 84 127
2.516512 -21.094652 0.287 0 84 127
2.458906 -21.201101 0.176 0 84 127
2.422621 -21.26791 0.402 0 84 127
2.524667 -21.080849 0.125 0 84 127
2.488835 -21.146767 0.193 0 84 127
2.453458 -21.211794 0.407 0 84 127
2.418064 -21.279057 0.116 0 84 127
2.3936 -21.320463 0.495 0 84 127
2.550982 -21.031406 0.117 0 84 127
2.467969 -21.185518 0.126 0 84 127
2.482933 -21.15835 0.124 0 84 127
2.537832 -21.05501 0.173 0 84 127
2.51969 -21.088415 0.158 0 84 127
2.520598 -21.086632 0.139 0 84 127
2.429867 -21.25589 0.067 0 84 127
2.4335 -21.24876 0.316 0 84 127
2.4335 -21.24876 0.304 0 84 127
2.504271 -21.116472 0.226 0 84 127
2.428505 -21.258564 0.34 0 84 127
2.463883 -21.193537 0.189 0 84 127
2.483841 -21.156569 0.208 0 84 127
2.451642 -21.215359 0.078 0 84 127
2.442563 -21.233177 0.106 0 84 127
2.400409 -21.307098 0.649 0 84 127
2.490669 -21.140966 0.349 0 84 127
2.481117 -21.161915 0.154 0 84 127
2.447572 -21.221142 0.368 0 84 127
2.488382 -21.147657 0.257 0 84 127
2.468877 -21.183735 0.119 0 84 127
2.459343 -21.202446 0.162 0 84 127
2.517421 -21.092869 0.302 0 84 127
2.501547 -21.121819 0.297 0 84 127
2.413087 -21.286621 0.269 0 84 127
2.483405 -21.155224 0.355 0 84 127
2.424873 -21.265692 0.189 0 84 127
2.550073 -21.03319 0.127 0 84 127
2.435787 -21.242071 0.498 0 84 127
2.425798 -21.261673 0.366 0 84 127
2.555067 -21.023388 0.159 0 84 127
2.43397 -21.245636 0.522 0 84 127
2.497007 -21.13073 0.21 0 84 127
2.427144 -21.261234 0.208 0 84 127
2.517421 -21.092869 0.266 0 84 127
2.45482 -21.209122 0.209 0 84 127
2.424873 -21.265692 0.16 0 84 127
2.523758 -21.082632 0.148 0 84 127
2.53874 -21.053228 0.226 0 84 127
2.456182 -21.206448 0.141 0 84 127
2.491105 -21.142313 0.143 0 84 127
2.425798 -21.261673 0.417 0 84 127
2.462084 -21.194864 0.447 0 84 127
2.487927 -21.14855 0.057 0 84 127
2.544188 -21.042536 0.185 0 84 127
2.479318 -21.163244 0.203 0 84 127
2.474779 -21.172152 0.249 0 84 127
2.407655 -21.295078 0.582 0 84 127
2.411742 -21.287058 0.457 0 84 127
2.423511 -21.268364 0.074 0 84 127
2.427597 -21.260345 0.175 0 84 127
2.467062 -21.1873 0.102 0 84 127
2.416265 -21.280384 0.288 0 84 127
2.457981 -21.20512 0.051 0 84 127
2.495645 -21.133402 0.317 0 84 127
2.437585 -21.240744 0.263 0 84 127
2.495191 -21.134293 0.264 0 84 127
2.443925 -21.230505 0.142 0 84 127
2.477049 -21.167698 0.271 0 84 127
2.413995 -21.28484 0.166 0 84 127
2.565491 -21.005131 0.111 0 84 127
2.510627 -21.103998 0.312 0 84 127
2.52966 -21.071049 0.202 0 84 127
2.447119 -21.222033 0.516 0 84 127
2.456182 -21.206448 0.4 0 84 127
2.427614 -21.25811 0.496 0 84 127
2.580911 -20.977072 0.054 0 84 127
2.475687 -21.17037 0.409 0 84 127
2.458452 -21.201992 0.386 0 84 127
2.453004 -21.212685 0.171 0 84 127
2.465715 -21.187737 0.419 0 84 127
2.426689 -21.262127 0.236 0 84 127
2.447119 -21.222033 0.525 0 84 127
2.433936 -21.250107 0.09 0 84 127
2.497445 -21.132074 0.064 0 84 127
2.469785 -21.181955 0.063 0 84 127
2.482497 -21.157007 0.41 0 84 127
2.496991 -21.132965 0.072 0 84 127
2.536924 -21.056793 0.17 0 84 127
2.437114 -21.24387 0.068 0 84 127
2.394507 -21.318682 0.636 0 84 127
2.447103 -21.224268 0.2 0 84 127
2.48068 -21.16057 0.32 0 84 127
2.491123 -21.140076 0.338 0 84 127
2.490197 -21.144094 0.169 0 84 127
2.415811 -21.281275 0.305 0 84 127
2.457544 -21.203775 0.293 0 84 127
2.427597 -21.260345 0.193 0 84 127
2.447103 -21.224268 0.103 0 84 127
2.517874 -21.091978 0.121 0 84 127
2.471164 -21.177044 0.382 0 84 127
2.423529 -21.266129 0.491 0 84 127
2.511064 -21.105345 0.279 0 84 127
2.536016 -21.058575 0.1 0 84 127
2.423057 -21.269255 0.133 0 84 127
2.417173 -21.278603 0.412 0 84 127
2.416702 -21.281729 0.154 0 84 127
2.449843 -21.216686 0.433 0 84 127
2.493829 -21.136967 0.087 0 84 127
2.435332 -21.242962 0.513 0 84 127
2.542826 -21.04521 0.201 0 84 127
2.485675 -21.150768 0.285 0 84 127
2.425327 -21.264801 0.139 0 84 127
2.466607 -21.188192 0.276 0 84 127
2.458906 -21.201101 0.316 0 84 127
2.520598 -21.086632 0.16 0 84 127
2.419426 -21.276382 0.131 0 84 127
2.443925 -21.230505 0.123 0 84 127
2.458452 -21.201992 0.411 0 84 127
2.447572 -21.221142 0.417 0 84 127
2.412195 -21.286167 0.536 0 84 127
2.427597 -21.260345 0.292 0 84 127
2.484295 -21.155678 0.205 0 84 127
2.43893 -21.240307 0.135 0 84 127
2.453458 -21.211794 0.208 0 84 127
2.41038 -21.289732 0.644 0 84 127
2.562768 -21.010477 0.09 0 84 127
2.435315 -21.245197 0.203 0 84 127
2.506541 -21.112019 0.311 0 84 127
2.394507 -21.318682 0.577 0 84 127
2.471147 -21.179281 0.219 0 84 127
2.416265 -21.280384 0.398 0 84 127
2.497915 -21.128946 0.19 0 84 127
2.455728 -21.207338 0.348 0 84 127
2.470239 -21.181063 0.313 0 84 127
2.437585 -21.240744 0.452 0 84 127
2.462538 -21.193974 0.453 0 84 127
2.521489 -21.087086 0.095 0 84 127
2.433953 -21.247871 0.422 0 84 127
2.397231 -21.313335 0.672 0 84 127
2.422149 -21.271038 0.151 0 84 127
2.451659 -21.213121 0.508 0 84 127
2.531476 -21.067484 0.216 0 84 127
2.479755 -21.164587 0.15 0 84 127
2.471601 -21.178389 0.338 0 84 127
2.429431 -21.254545 0.489 0 84 127
2.4639 -21.191301 0.34 0 84 127
2.426689 -21.262127 0.113 0 84 127
2.522396 -21.085304 0.114 0 84 127
2.448481 -21.219358 0.42 0 84 127
2.520144 -21.087524 0.252 0 84 127
2.399955 -21.307989 0.675 0 84 127
2.481589 -21.158787 0.347 0 84 127
2.440309 -21.235397 0.459 0 84 127
2.413104 -21.284386 0.574 0 84 127
2.485221 -21.151659 0.314 0 84 127
2.434861 -21.24609 0.444 0 84 127
2.446194 -21.226049 0.158 0 84 127
2.466607 -21.188192 0.076 0 84 127
2.416718 -21.279493 0.246 0 84 127
2.4335 -21.24876 0.205 0 84 127
2.480209 -21.163696 0.087 0 84 127
2.462084 -21.194864 0.404 0 84 127
2.420805 -21.271475 0.395 0 84 127
2.435769 -21.244307 0.339 0 84 127
2.504271 -21.116472 0.29 0 84 127
2.444394 -21.227379 0.458 0 84 127
2.406748 -21.29686 0.644 0 84 127
2.462992 -21.193083 0.391 0 84 127
2.457544 -21.203775 0.278 0 84 127
2.539648 -21.051447 0.121 0 84 127
2.433517 -21.246527 0.505 0 84 127
2.550073 -21.03319 0.193 0 84 127
2.525574 -21.079067 0.106 0 84 127
2.465699 -21.189972 0.253 0 84 127
2.428505 -21.258564 0.22 0 84 127
2.448481 -21.219358 0.512 0 84 127
2.475233 -21.171261 0.351 0 84 127
2.440309 -21.235397 0.359 0 84 127
2.437114 -21.24387 0.096 0 84 127
2.458906 -21.201101 0.374 0 84 127
2.480209 -21.163696 0.093 0 84 127
2.522868 -21.082178 0.213 0 84 127
2.443487 -21.22916 0.486 0 84 127
2.45709 -21.204666 0.436 0 84 127
2.413087 -21.286621 0.18 0 84 127
2.429885 -21.253654 0.455 0 84 127
2.487473 -21.149441 0.115 0 84 127
2.493375 -21.137857 0.14 0 84 127
2.502892 -21.121382 0.12 0 84 127
2.517874 -21.091978 0.286 0 84 127
2.461159 -21.198883 0.117 0 84 127
2.468877 -21.183735 0.299 0 84 127
2.534654 -21.061247 0.179 0 84 127
2.473871 -21.173935 0.231 0 84 127
2.497445 -21.132074 0.066 0 84 127
2.449843 -21.216686 0.444 0 84 127
2.467515 -21.186409 0.069 0 84 127
2.430339 -21.252764 0.505 0 84 127
2.41038 -21.289732 0.462 0 84 127
2.467969 -21.185518 0.213 0 84 127
2.46163 -21.195755 0.373 0 84 127
2.402208 -21.305769 0.602 0 84 127
2.552797 -21.027843 0.101 0 84 127
2.553705 -21.026062 0.136 0 84 127
2.414449 -21.283949 0.164 0 84 127
2.460251 -21.200666 0.057 0 84 127
2.4335 -21.24876 0.362 0 84 127
2.428051 -21.259455 0.265 0 84 127
2.460251 -21.200666 0.173 0 84 127
2.418971 -21.277275 0.119 0 84 127
2.450734 -21.21714 0.116 0 84 127
2.462538 -21.193974 0.257 0 84 127
2.455728 -21.207338 0.39 0 84 127
2.443941 -21.22827 0.53 0 84 127
2.51969 -21.088415 0.207 0 84 127
2.437148 -21.239399 0.536 0 84 127
2.459814 -21.19932 0.469 0 84 127
2.438947 -21.23807 0.327 0 84 127
2.520598 -21.086632 0.237 0 84 127
2.433045 -21.249653 0.244 0 84 127
2.411742 -21.287058 0.535 0 84 127
2.501093 -21.122709 0.205 0 84 127
2.565491 -21.005131 0.06 0 84 127
2.428051 -21.259455 0.167 0 84 127
2.51061 -21.106236 0.246 0 84 127
2.411742 -21.287058 0.466 0 84 127
2.416265 -21.280384 0.216 0 84 127
2.483405 -21.155224 0.305 0 84 127
2.45482 -21.209122 0.277 0 84 127
2.462975 -21.195318 0.183 0 84 127
2.471601 -21.178389 0.342 0 84 127
2.429867 -21.25589 0.161 0 84 127
2.428505 -21.258564 0.107 0 84 127
2.460722 -21.197538 0.407 0 84 127
2.501547 -21.121819 0.216 0 84 127
2.456636 -21.205557 0.303 0 84 127
2.431701 -21.25009 0.487 0 84 127
2.424436 -21.264347 0.526 0 84 127
2.462975 -21.195318 0.154 0 84 127
2.4639 -21.191301 0.448 0 84 127
2.45889 -21.203337 0.156 0 84 127
2.414011 -21.282604 0.574 0 84 127
2.541918 -21.046991 0.197 0 84 127
2.433063 -21.247417 0.456 0 84 127
2.403116 -21.303988 0.592 0 84 127
2.457528 -21.206011 0.138 0 84 127
2.429885 -21.253654 0.461 0 84 127
2.393146 -21.321354 0.586 0 84 127
2.567762 -21.000675 0.1 0 84 127
2.802993 -20.589672 0.061 0 84 127
2.613513 -20.924101 0.215 0 84 127
2.478848 -21.166368 0.528 0 84 127
2.599019 -20.948141 0.22 0 84 127
2.455274 -21.208229 0.563 0 84 127
2.687428 -20.790047 0.082 0 84 127
2.614404 -20.924555 0.3 0 84 127
2.613059 -20.924992 0.258 0 84 127
2.760788 -20.6703 0.279 0 84 127
2.496956 -21.137438 0.596 0 84 127
2.729093 -20.721491 0.199 0 84 127
2.875041 -20.465891 0.062 0 84 127
2.59268 -20.958378 0.21 0 84 127
2.644351 -20.867983 0.139 0 84 127
2.678752 -20.813684 0.31 0 84 127
2.893167 -20.434721 0.081 0 84 127
2.637086 -20.88224 0.196 0 84 127
2.76126 -20.667171 0.238 0 84 127
2.786178 -20.624874 0.259 0 84 127
2.457528 -21.206011 0.59 0 84 127
2.657011 -20.849745 0.295 0 84 127
2.569526 -21.00382 0.321 0 84 127
2.565475 -21.007366 0.222 0 84 127
2.538235 -21.060829 0.407 0 84 127
2.424873 -21.265692 0.683 0 84 127
2.674246 -20.818121 0.234 0 84 127
2.630277 -20.895605 0.271 0 84 127
2.859623 -20.493948 0.129 0 84 127
2.544121 -21.051479 0.483 0 84 127
2.927165 -20.374605 0.087 0 84 127
2.647006 -20.871582 0.423 0 84 127
2.622542 -20.912989 0.398 0 84 127
2.496973 -21.135201 0.548 0 84 127
2.567694 -21.009621 0.443 0 84 127
2.64161 -20.875565 0.237 0 84 127
2.645224 -20.870674 0.309 0 84 127
2.613967 -20.923208 0.215 0 84 127
2.817015 -20.568758 0.138 0 84 127
2.858261 -20.496622 0.115 0 84 127
2.721864 -20.731274 0.106 0 84 127
2.620777 -20.909845 0.172 0 84 127
2.820193 -20.562521 0.167 0 84 127
2.848289 -20.513988 0.123 0 84 127
2.82337 -20.556284 0.103 0 84 127
2.486095 -21.154348 0.556 0 84 127
2.62345 -20.911207 0.378 0 84 127
2.446194 -21.226049 0.624 0 84 127
2.780747 -20.633331 0.183 0 84 127
2.539581 -21.06039 0.498 0 84 127
2.541918 -21.046991 0.226 0 84 127
2.664275 -20.835487 0.225 0 84 127
2.768978 -20.652025 0.178 0 84 127
2.453928 -21.208668 0.512 0 84 127
2.680181 -20.802067 0.059 0 84 127
2.938952 -20.353674 0.07 0 84 127
2.797999 -20.599472 0.1 0 84 127
2.644351 -20.867983 0.189 0 84 127
2.787994 -20.621311 0.21 0 84 127
2.643442 -20.869766 0.189 0 84 127
2.455728 -21.207338 0.518 0 84 127
2.80205 -20.595926 0.173 0 84 127
2.610335 -20.930338 0.27 0 84 127
2.897706 -20.425812 0.061 0 84 127
2.846927 -20.516661 0.132 0 84 127
2.770322 -20.651588 0.199 0 84 127
2.801159 -20.595472 0.161 0 84 127
2.697383 -20.774916 0.123 0 84 127
2.6575 -20.844379 0.156 0 84 127
2.760805 -20.668064 0.216 0 84 127
2.675625 -20.813213 0.129 0 84 127
2.527323 -21.084448 0.557 0 84 127
2.534637 -21.063484 0.301 0 84 127
2.648454 -20.857729 0.073 0 84 127
2.63754 -20.88135 0.183 0 84 127
2.447119 -21.222033 0.549 0 84 127
2.600398 -20.943232 0.118 0 84 127
2.706394 -20.766041 0.332 0 84 127
2.494704 -21.139656 0.517 0 84 127
2.792551 -20.610167 0.124 0 84 127
2.959347 -20.31805 0.051 0 84 127
2.56497 -21.014965 0.431 0 84 127
2.822026 -20.556721 0.055 0 84 127
2.650184 -20.865345 0.408 0 84 127
2.816124 -20.568306 0.072 0 84 127
2.628461 -20.899168 0.254 0 84 127
2.568584 -21.010075 0.489 0 84 127
2.704612 -20.765133 0.226 0 84 127
2.809315 -20.581669 0.171 0 84 127
2.811567 -20.579451 0.205 0 84 127
2.584072 -20.973072 0.206 0 84 127
2.657516 -20.842146 0.075 0 84 127
2.492887 -21.143221 0.555 0 84 127
2.59041 -20.962835 0.23 0 84 127
2.809331 -20.579433 0.08 0 84 127
2.570906 -20.998911 0.266 0 84 127
2.683343 -20.798065 0.108 0 84 127
2.610301 -20.934811 0.411 0 84 127
2.467969 -21.185518 0.535 0 84 127
2.640264 -20.876003 0.186 0 84 127
2.613983 -20.920975 0.164 0 84 127
2.793441 -20.610619 0.212 0 84 127
2.5949 -20.96063 0.347 0 84 127
2.764454 -20.658699 0.096 0 84 127
2.670177 -20.823904 0.19 0 84 127
2.727277 -20.725054 0.213 0 84 127
2.588628 -20.961927 0.105 0 84 127
2.709101 -20.76293 0.351 0 84 127
2.417189 -21.276367 0.634 0 84 127
2.632127 -20.887569 0.131 0 84 127
2.77762 -20.63286 0.06 0 84 127
2.626662 -20.900497 0.204 0 84 127
2.590428 -20.960598 0.127 0 84 127
2.655632 -20.854652 0.331 0 84 127
2.765782 -20.660498 0.27 0 84 127
2.598112 -20.949923 0.226 0 84 127
2.786632 -20.623983 0.21 0 84 127
2.799781 -20.60038 0.193 0 84 127
2.768506 -20.655151 0.261 0 84 127
2.665149 -20.838179 0.351 0 84 127
2.590796 -20.970888 0.454 0 84 127
2.607594 -20.93792 0.342 0 84 127
2.599036 -20.945904 0.157 0 84 127
2.551855 -21.034098 0.33 0 84 127
2.659718 -20.846634 0.337 0 84 127
2.654742 -20.854198 0.285 0 84 127
2.607594 -20.93792 0.341 0 84 127
2.841497 -20.525116 0.102 0 84 127
2.58313 -20.979326 0.351 0 84 127
2.863725 -20.483692 0.053 0 84 127
2.911309 -20.401318 0.052 0 84 127
2.877311 -20.461433 0.074 0 84 127
2.472037 -21.179735 0.543 0 84 127
2.575848 -20.995817 0.455 0 84 127
2.692372 -20.786953 0.208 0 84 127
2.476124 -21.171715 0.523 0 84 127
2.866432 -20.480583 0.104 0 84 127
2.699182 -20.773588 0.195 0 84 127
2.737215 -20.71216 0.308 0 84 127
2.860531 -20.492165 0.15 0 84 127
2.546878 -21.041662 0.279 0 84 127
2.535512 -21.066174 0.485 0 84 127
2.673758 -20.823484 0.358 0 84 127
2.65343 -20.850163 0.119 0 84 127
2.888644 -20.441397 0.079 0 84 127
2.680165 -20.804302 0.104 0 84 127
2.837865 -20.532246 0.121 0 84 127
2.470222 -21.183298 0.576 0 84 127
2.63892 -20.87644 0.137 0 84 127
2.867795 -20.477911 0.054 0 84 127
2.668344 -20.829704 0.26 0 84 127
2.571308 -21.004728 0.455 0 84 127
2.637506 -20.885822 0.369 0 84 127
2.596296 -20.953485 0.231 0 84 127
2.701015 -20.767788 0.116 0 84 127
2.608553 -20.92943 0.156 0 84 127
2.637052 -20.886713 0.335 0 84 127
2.862363 -20.486366 0.057 0 84 127
2.775334 -20.639551 0.096 0 84 127
2.510593 -21.108471 0.448 0 84 127
2.615295 -20.925009 0.335 0 84 127
2.632076 -20.894278 0.3 0 84 127
2.580894 -20.979309 0.174 0 84 127
2.575916 -20.986876 0.159 0 84 127
2.642937 -20.877365 0.397 0 84 127
2.537815 -21.057247 0.311 0 84 127
2.545953 -21.045681 0.392 0 84 127
2.517369 -21.099577 0.523 0 84 127
2.700072 -20.774042 0.272 0 84 127
2.505598 -21.118273 0.451 0 84 127
2.668832 -20.824343 0.127 0 84 127
2.540068 -21.055027 0.372 0 84 127
2.737215 -20.71216 0.301 0 84 127
2.64973 -20.866236 0.387 0 84 127
2.450297 -21.215796 0.521 0 84 127
2.82337 -20.556284 0.094 0 84 127
2.591722 -20.966867 0.4 0 84 127
2.580927 -20.974836 0.095 0 84 127
2.466136 -21.191317 0.591 0 84 127
2.686975 -20.790937 0.069 0 84 127
2.575025 -20.98642 0.137 0 84 127
2.489289 -21.145876 0.429 0 84 127
2.690589 -20.786045 0.131 0 84 127
2.583549 -20.982908 0.428 0 84 127
2.415373 -21.27993 0.635 0 84 127
2.602197 -20.941904 0.205 0 84 127
2.453912 -21.210903 0.538 0 84 127
2.797527 -20.6026 0.144 0 84 127
2.559135 -21.017605 0.213 0 84 127
2.691934 -20.785608 0.19 0 84 127
2.621668 -20.910299 0.231 0 84 127
2.881397 -20.453417 0.059 0 84 127
2.591284 -20.965523 0.334 0 84 127
2.610823 -20.924974 0.145 0 84 127
2.520093 -21.094231 0.467 0 84 127
2.503312 -21.124964 0.534 0 84 127
2.489727 -21.147221 0.518 0 84 127
2.674212 -20.822594 0.375 0 84 127
2.661971 -20.844416 0.353 0 84 127
2.565441 -21.011839 0.398 0 84 127
2.582642 -20.984688 0.485 0 84 127
2.497864 -21.135654 0.558 0 84 127
2.682838 -20.805664 0.277 0 84 127
2.617616 -20.913845 0.132 0 84 127
2.752213 -20.680521 0.151 0 84 127
2.439385 -21.239414 0.664 0 84 127
2.528231 -21.082664 0.549 0 84 127
2.505582 -21.120508 0.522 0 84 127
2.709152 -20.756222 0.158 0 84 127
2.705538 -20.761114 0.15 0 84 127
2.81883 -20.565195 0.12 0 84 127
2.866869 -20.481928 0.123 0 84 127
2.441216 -21.233616 0.591 0 84 127
2.662442 -20.841288 0.3 0 84 127
2.597607 -20.957521 0.44 0 84 127
2.569493 -21.008291 0.465 0 84 127
2.822917 -20.557175 0.113 0 84 127
2.426689 -21.262127 0.661 0 84 127
2.399047 -21.309771 0.69 0 84 127
2.676045 -20.816793 0.276 0 84 127
2.776241 -20.63777 0.092 0 84 127
2.6919 -20.790081 0.324 0 84 127
2.595404 -20.953032 0.149 0 84 127
2.760839 -20.663591 0.067 0 84 127
2.608485 -20.938374 0.386 0 84 127
2.511467 -21.11116 0.556 0 84 127
2.693767 -20.779808 0.059 0 84 127
2.670597 -20.827486 0.297 0 84 127
2.631639 -20.892931 0.262 0 84 127
2.429885 -21.253654 0.604 0 84 127
2.562683 -21.021656 0.511 0 84 127
2.651126 -20.859091 0.254 0 84 127
2.741301 -20.70414 0.265 0 84 127
2.925349 -20.378168 0.089 0 84 127
2.715037 -20.746876 0.178 0 84 127
2.8723 -20.473473 0.154 0 84 127
2.880926 -20.456543 0.141 0 84 127
2.705487 -20.76782 0.339 0 84 127
2.763966 -20.664062 0.283 0 84 127
2.594496 -20.954815 0.18 0 84 127
2.52238 -21.08754 0.443 0 84 127
2.734491 -20.717506 0.311 0 84 127
2.619449 -20.908047 0.08 0 84 127
2.599019 -20.948141 0.23 0 84 127
2.634817 -20.886694 0.246 0 84 127
2.648368 -20.86891 0.385 0 84 127
2.553655 -21.032768 0.379 0 84 127
2.66562 -20.835051 0.292 0 84 127
2.734995 -20.709908 0.129 0 84 127
2.628881 -20.90275 0.38 0 84 127
2.854191 -20.502403 0.11 0 84 127
2.690085 -20.793644 0.336 0 84 127
2.726824 -20.725945 0.213 0 84 127
2.77577 -20.640896 0.16 0 84 127
2.437585 -21.240744 0.59 0 84 127
2.619415 -20.912518 0.197 0 84 127
2.75038 -20.686321 0.198 0 84 127
2.603525 -20.943703 0.308 0 84 127
2.677895 -20.808758 0.134 0 84 127
2.85056 -20.509531 0.111 0 84 127
2.67512 -20.820812 0.365 0 84 127
2.80205 -20.595926 0.215 0 84 127
2.577228 -20.99091 0.335 0 84 127
2.738157 -20.705906 0.159 0 84 127
2.633892 -20.890713 0.317 0 84 127
2.723664 -20.729946 0.137 0 84 127
2.480664 -21.162806 0.513 0 84 127
2.626174 -20.905861 0.358 0 84 127
2.794349 -20.608837 0.171 0 84 127
2.840571 -20.529135 0.166 0 84 127
2.761276 -20.664936 0.118 0 84 127
2.669706 -20.82703 0.242 0 84 127
2.542372 -21.046101 0.23 0 84 127
2.575429 -20.992237 0.32 0 84 127
2.583113 -20.981562 0.377 0 84 127
2.542355 -21.048336 0.25 0 84 127
2.645224 -20.870674 0.278 0 84 127
2.540522 -21.054136 0.365 0 84 127
2.90223 -20.419136 0.089 0 84 127
2.613463 -20.930809 0.444 0 84 127
2.893167 -20.434721 0.087 0 84 127
2.672413 -20.823921 0.322 0 84 127
2.644351 -20.867983 0.171 0 84 127
2.453021 -21.210449 0.52 0 84 127
2.561355 -21.019857 0.432 0 84 127
2.687378 -20.796755 0.245 0 84 127
2.656104 -20.851524 0.276 0 84 127
2.82337 -20.556284 0.11 0 84 127
2.842876 -20.520206 0.052 0 84 127
2.623484 -20.906734 0.25 0 84 127
2.540976 -21.053246 0.37 0 84 127
2.835595 -20.536699 0.158 0 84 127
2.457544 -21.203775 0.532 0 84 127
2.480193 -21.165932 0.583 0 84 127
2.556395 -21.025187 0.303 0 84 127
2.720468 -20.738419 0.221 0 84 127
2.62661 -20.907206 0.446 0 84 127
2.568653 -21.001129 0.239 0 84 127
2.596312 -20.95125 0.149 0 84 127
2.748127 -20.68854 0.146 0 84 127
2.725479 -20.726381 0.153 0 84 127
2.928981 -20.371038 0.058 0 84 127
2.578573 -20.990471 0.399 0 84 127
2.60487 -20.943266 0.399 0 84 127
2.630277 -20.895605 0.25 0 84 127
2.517823 -21.098686 0.536 0 84 127
2.603088 -20.942358 0.226 0 84 127
2.494704 -21.139656 0.511 0 84 127
2.511013 -21.112051 0.579 0 84 127
2.825624 -20.554066 0.185 0 84 127
