ply
format ascii 1.0
element vertex 1267
property double x
property double y
property double z
property uchar red
property uchar green
property uchar blue
element face 0
property list uchar int vertex_indices
end_header
5.462967 -14.538766 0.859 170 255 127
5.502481 -14.459012 0.849 170 255 127
5.457833 -14.390247 0.787 170 255 127
5.464587 -14.44307 0.816 170 255 127
5.476964 -14.403362 0.806 170 255 127
5.456038 -14.567783 0.868 170 255 127
5.466755 -14.452033 0.822 170 255 127
5.513733 -14.390672 0.826 170 255 127
5.521604 -14.355401 0.814 170 255 127
5.512756 -14.401398 0.83 170 255 127
5.450713 -14.503342 0.834 170 255 127
5.496587 -14.351633 0.795 170 255 127
5.513665 -14.399615 0.83 170 255 127
5.473357 -14.52498 0.86 170 255 127
5.48772 -14.459348 0.84 170 255 127
5.461749 -14.404588 0.797 170 255 127
5.484164 -14.338569 0.781 170 255 127
5.505213 -14.334703 0.794 170 255 127
5.473115 -14.380077 0.793 170 255 127
5.482692 -14.473619 0.842 170 255 127
5.456105 -14.558838 0.864 170 255 127
5.467626 -14.514203 0.851 170 255 127
5.520661 -14.361654 0.817 170 255 127
5.465979 -14.495407 0.842 170 255 127
5.540433 -14.349282 0.825 170 255 127
5.526177 -14.342019 0.811 170 255 127
5.457905 -14.55751 0.864 170 255 127
5.52683 -14.373776 0.827 170 255 127
5.448053 -14.323536 0.749 170 255 127
5.462113 -14.474358 0.829 170 255 127
5.453454 -14.495759 0.833 170 255 127
5.470998 -14.364408 0.784 170 255 127
5.476073 -14.402908 0.805 170 255 127
5.445465 -14.310994 0.742 170 255 127
5.462436 -14.431874 0.809 170 255 127
5.458057 -14.537387 0.855 170 255 127
5.520373 -14.399667 0.834 170 255 127
5.457099 -14.310188 0.749 170 255 127
5.47999 -14.417249 0.814 170 255 127
5.511276 -14.419723 0.837 170 255 127
5.472798 -14.36308 0.785 170 255 127
5.472458 -14.4078 0.805 170 255 127
5.485352 -14.417737 0.819 170 255 127
5.500571 -14.35703 0.8 170 255 127
5.479225 -14.517869 0.861 170 255 127
5.494318 -14.356088 0.796 170 255 127
5.490223 -14.483068 0.852 170 255 127
5.522155 -14.400575 0.836 170 255 127
5.447328 -14.360203 0.766 170 255 127
5.454358 -14.553458 0.86 170 255 127
5.465686 -14.357212 0.777 170 255 127
5.47539 -14.316141 0.765 170 255 127
5.47794 -14.392636 0.802 170 255 127
5.47368 -14.482495 0.841 170 255 127
5.453076 -14.368744 0.773 170 255 127
5.481008 -14.518777 0.862 170 255 127
5.526711 -14.389428 0.834 170 255 127
5.45776 -14.458673 0.818 170 255 127
5.460663 -14.547692 0.861 170 255 127
5.533017 -14.383662 0.835 170 255 127
5.525753 -14.397918 0.837 170 255 127
5.472971 -14.516927 0.856 170 255 127
5.472555 -14.453865 0.827 170 255 127
5.473913 -14.510674 0.853 170 255 127
5.482674 -14.475857 0.844 170 255 127
5.486272 -14.4732 0.845 170 255 127
5.540013 -14.345701 0.822 170 255 127
5.489561 -14.334584 0.783 170 255 127
5.511904 -14.336991 0.799 170 255 127
5.463315 -14.375083 0.783 170 255 127
5.504064 -14.427271 0.835 170 255 127
5.480596 -14.396234 0.805 170 255 127
5.536767 -14.360882 0.827 170 255 127
5.457476 -14.437202 0.809 170 255 127
5.481601 -14.440517 0.826 170 255 127
5.45757 -14.542749 0.857 170 255 127
5.45852 -14.417534 0.8 170 255 127
5.445193 -14.34677 0.758 170 255 127
5.463615 -14.394317 0.793 170 255 127
5.475522 -14.357735 0.784 170 255 127
5.491453 -14.438803 0.833 170 255 127
5.464558 -14.388062 0.79 170 255 127
5.485662 -14.318007 0.773 170 255 127
5.475313 -14.444047 0.824 170 255 127
5.50526 -14.387477 0.818 170 255 127
5.466853 -14.498097 0.843 170 255 127
5.451706 -14.490379 0.829 170 255 127
5.474231 -14.52767 0.861 170 255 127
5.490839 -14.343092 0.788 170 255 127
5.466348 -14.505696 0.846 170 255 127
5.480689 -14.50178 0.854 170 255 127
5.453535 -14.544061 0.855 170 255 127
5.514879 -14.357585 0.811 170 255 127
5.449449 -14.316391 0.747 170 255 127
5.470807 -14.448485 0.823 170 255 127
5.500733 -14.453631 0.846 170 255 127
5.544435 -14.352444 0.829 170 255 127
5.458553 -14.413061 0.798 170 255 127
5.491208 -14.35338 0.793 170 255 127
5.449059 -14.36782 0.771 170 255 127
5.486488 -14.503613 0.859 170 255 127
5.457217 -14.530224 0.852 170 255 127
5.466488 -14.428327 0.81 170 255 127
5.529691 -14.350542 0.818 170 255 127
5.505077 -14.352591 0.802 170 255 127
5.476259 -14.378312 0.794 170 255 127
5.488754 -14.322951 0.777 170 255 127
5.477388 -14.347462 0.781 170 255 127
5.46519 -14.481537 0.835 170 255 127
5.484041 -14.413702 0.816 170 255 127
5.475428 -14.487877 0.844 170 255 127
5.468796 -14.35992 0.781 170 255 127
5.49155 -14.484868 0.854 170 255 127
5.47096 -14.428361 0.814 170 255 127
5.515145 -14.38129 0.822 170 255 127
5.473099 -14.382313 0.794 170 255 127
5.46236 -14.324092 0.759 170 255 127
5.509078 -14.355752 0.806 170 255 127
5.455071 -14.459546 0.818 170 255 127
5.479229 -14.458388 0.833 170 255 127
5.505692 -14.448302 0.846 170 255 127
5.463484 -14.352723 0.773 170 255 127
5.447628 -14.379436 0.775 170 255 127
5.492081 -14.356071 0.795 170 255 127
5.455668 -14.557494 0.863 170 255 127
5.471355 -14.317451 0.762 170 255 127
5.473081 -14.384548 0.795 170 255 127
5.445847 -14.378529 0.774 170 255 127
5.465491 -14.500771 0.843 170 255 127
5.505459 -14.420126 0.833 170 255 127
5.034061 -14.246154 0.467 170 255 127
5.378567 -14.34537 0.466 170 255 127
5.100335 -14.235029 0.471 170 255 127
5.220957 -14.311078 0.465 170 255 127
5.390655 -14.343673 0.466 170 255 127
5.141253 -14.264857 0.468 170 255 127
5.332689 -14.320871 0.467 170 255 127
5.207596 -14.244788 0.473 170 255 127
5.370616 -14.33234 0.467 170 255 127
5.072078 -14.186961 0.475 170 255 127
5.365571 -14.348849 0.465 170 255 127
5.069451 -14.238373 0.469 170 255 127
5.152247 -14.289537 0.466 170 255 127
5.049782 -14.237329 0.469 170 255 127
5.276589 -14.287798 0.47 170 255 127
5.082613 -14.272015 0.466 170 255 127
5.111329 -14.25971 0.468 170 255 127
5.037812 -14.223373 0.47 170 255 127
5.202096 -14.262188 0.471 170 255 127
5.312094 -14.323846 0.467 170 255 127
5.316634 -14.314936 0.468 170 255 127
5.300192 -14.300947 0.469 170 255 127
5.041342 -14.229662 0.47 170 255 127
5.263525 -14.300221 0.468 170 255 127
5.16128 -14.218945 0.474 170 255 127
5.023068 -14.221473 0.47 170 255 127
5.37502 -14.341318 0.466 170 255 127
5.109734 -14.234206 0.471 170 255 127
5.091459 -14.226017 0.472 170 255 127
5.25764 -14.309568 0.467 170 255 127
5.129641 -14.203945 0.475 170 255 127
5.223901 -14.276665 0.469 170 255 127
5.245908 -14.264309 0.472 170 255 127
5.083996 -14.207623 0.473 170 255 127
5.092269 -14.17817 0.477 170 255 127
5.127456 -14.19722 0.476 170 255 127
5.048776 -14.193046 0.474 170 255 127
5.070024 -14.221829 0.471 170 255 127
5.235683 -14.315216 0.465 170 255 127
5.198248 -14.238902 0.473 170 255 127
5.194718 -14.232615 0.474 170 255 127
5.1329 -14.24601 0.47 170 255 127
5.301469 -14.309454 0.468 170 255 127
5.146367 -14.239404 0.472 170 255 127
5.346121 -14.318738 0.468 170 255 127
5.169618 -14.240027 0.472 170 255 127
5.323137 -14.341819 0.465 170 255 127
5.202483 -14.270241 0.47 170 255 127
5.094955 -14.236777 0.47 170 255 127
5.222675 -14.26145 0.471 170 255 127
5.259859 -14.311822 0.466 170 255 127
5.182626 -14.293794 0.466 170 255 127
5.093581 -14.182205 0.477 170 255 127
5.119064 -14.242328 0.47 170 255 127
5.284625 -14.289648 0.47 170 255 127
5.19759 -14.266626 0.47 170 255 127
5.133103 -14.219177 0.474 170 255 127
5.153142 -14.230511 0.473 170 255 127
5.208499 -14.302486 0.466 170 255 127
5.031155 -14.216616 0.471 170 255 127
5.339431 -14.31645 0.468 170 255 127
5.249405 -14.27507 0.47 170 255 127
5.105109 -14.254296 0.469 170 255 127
5.134516 -14.209797 0.475 170 255 127
5.276772 -14.322683 0.466 170 255 127
5.366042 -14.345722 0.466 170 255 127
5.085994 -14.238946 0.47 170 255 127
5.1424 -14.231771 0.472 170 255 127
5.367353 -14.349757 0.465 170 255 127
5.23293 -14.265553 0.471 170 255 127
5.13833 -14.237554 0.472 170 255 127
5.186933 -14.256705 0.471 170 255 127
5.128576 -14.285333 0.466 170 255 127
5.340151 -14.339265 0.465 170 255 127
5.148853 -14.265362 0.469 170 255 127
5.246613 -14.28936 0.469 170 255 127
5.066125 -14.205253 0.473 170 255 127
5.296056 -14.315674 0.467 170 255 127
5.152404 -14.209932 0.475 170 255 127
5.050672 -14.237782 0.469 170 255 127
5.120255 -14.262014 0.468 170 255 127
5.121788 -14.23698 0.471 170 255 127
5.108741 -14.247169 0.469 170 255 127
5.220519 -14.309733 0.465 170 255 127
5.046824 -14.214498 0.472 170 255 127
5.139811 -14.219229 0.474 170 255 127
5.016292 -14.230367 0.469 170 255 127
5.355316 -14.344747 0.465 170 255 127
5.342944 -14.324975 0.467 170 255 127
5.138971 -14.212067 0.475 170 255 127
5.064411 -14.1954 0.474 170 255 127
5.027188 -14.208982 0.472 170 255 127
5.247605 -14.276398 0.47 170 255 127
5.181485 -14.267398 0.469 170 255 127
5.015686 -14.251381 0.466 170 255 127
5.06806 -14.186036 0.476 170 255 127
5.085964 -14.183936 0.476 170 255 127
5.187505 -14.240163 0.473 170 255 127
5.373692 -14.33952 0.467 170 255 127
5.328619 -14.326654 0.467 170 255 127
5.098944 -14.182693 0.477 170 255 127
5.291232 -14.303115 0.468 170 255 127
5.21326 -14.264509 0.471 170 255 127
5.155022 -14.277483 0.467 170 255 127
5.163079 -14.217617 0.475 170 255 127
5.18641 -14.266541 0.47 170 255 127
5.07781 -14.197739 0.474 170 255 127
5.089575 -14.238525 0.47 170 255 127
5.279109 -14.309284 0.467 170 255 127
5.163868 -14.231487 0.473 170 255 127
5.091743 -14.247486 0.469 170 255 127
5.305017 -14.313506 0.468 170 255 127
5.082714 -14.258598 0.467 170 255 127
5.207948 -14.257313 0.471 170 255 127
5.18577 -14.292028 0.467 170 255 127
5.057062 -14.220837 0.471 170 255 127
5.237147 -14.299127 0.467 170 255 127
5.235399 -14.293747 0.468 170 255 127
5.086296 -14.258179 0.468 170 255 127
5.149964 -14.236748 0.472 170 255 127
5.061801 -14.244576 0.468 170 255 127
5.064962 -14.240574 0.469 170 255 127
5.078752 -14.191484 0.475 170 255 127
5.073151 -14.222301 0.471 170 255 127
5.145391 -14.25013 0.47 170 255 127
5.212988 -14.300285 0.466 170 255 127
5.163079 -14.217617 0.475 170 255 127
5.227262 -14.305313 0.466 170 255 127
5.239922 -14.287072 0.469 170 255 127
5.209356 -14.307413 0.465 170 255 127
5.401279 -14.358065 0.465 170 255 127
5.241585 -14.303632 0.467 170 255 127
5.316599 -14.319407 0.467 170 255 127
5.281816 -14.306174 0.468 170 255 127
5.122746 -14.228491 0.472 170 255 127
5.049883 -14.223912 0.471 170 255 127
5.104048 -14.276202 0.466 170 255 127
5.091175 -14.204548 0.474 170 255 127
5.135844 -14.211596 0.474 170 255 127
5.241183 -14.297815 0.468 170 255 127
5.36157 -14.345688 0.465 170 255 127
5.057096 -14.216365 0.472 170 255 127
5.164658 -14.245357 0.471 170 255 127
5.173114 -14.250788 0.471 170 255 127
5.109767 -14.229733 0.472 170 255 127
5.23377 -14.272714 0.47 170 255 127
5.247283 -14.318882 0.465 170 255 127
5.211529 -14.256893 0.471 170 255 127
5.056405 -14.248559 0.468 170 255 127
5.305437 -14.317086 0.467 170 255 127
5.058827 -14.223981 0.471 170 255 127
5.292055 -14.312513 0.467 170 255 127
5.15405 -14.228728 0.473 170 255 127
5.161259 -14.280661 0.467 170 255 127
5.236307 -14.291965 0.468 170 255 127
5.228992 -14.312928 0.465 170 255 127
5.119874 -14.19448 0.476 170 255 127
5.109008 -14.270873 0.467 170 255 127
5.326367 -14.328874 0.466 170 255 127
5.179516 -14.291086 0.466 170 255 127
5.146867 -14.291286 0.465 170 255 127
5.108138 -14.208701 0.474 170 255 127
5.166521 -14.294565 0.466 170 255 127
5.196365 -14.25141 0.472 170 255 127
5.192312 -14.254958 0.471 170 255 127
5.159413 -14.229217 0.473 170 255 127
5.309454 -14.318012 0.467 170 255 127
5.392874 -14.345925 0.466 170 255 127
5.173733 -14.287017 0.467 170 255 127
5.271998 -14.303416 0.468 170 255 127
5.034902 -14.253315 0.467 170 255 127
5.133608 -14.211578 0.474 170 255 127
5.208771 -14.266711 0.47 170 255 127
5.099126 -14.217578 0.473 170 255 127
5.087344 -14.179028 0.477 170 255 127
5.029776 -14.221523 0.47 170 255 127
5.279008 -14.322701 0.466 170 255 127
5.32761 -14.341852 0.465 170 255 127
5.081505 -14.241147 0.469 170 255 127
5.188375 -14.302334 0.465 170 255 127
5.138933 -14.27602 0.467 170 255 127
5.179499 -14.293323 0.466 170 255 127
5.080767 -14.22057 0.472 170 255 127
5.275311 -14.279291 0.471 170 255 127
5.201257 -14.255026 0.471 170 255 127
5.179465 -14.297793 0.466 170 255 127
5.042165 -14.239059 0.468 170 255 127
5.188074 -14.283102 0.468 170 255 127
5.347331 -14.336188 0.466 170 255 127
5.033085 -14.25688 0.466 170 255 127
5.135084 -14.252734 0.47 170 255 127
5.131708 -14.226322 0.473 170 255 127
5.124999 -14.226272 0.472 170 255 127
5.344187 -14.337954 0.466 170 255 127
5.176325 -14.240078 0.472 170 255 127
5.071102 -14.197687 0.474 170 255 127
5.175435 -14.239625 0.472 170 255 127
5.193301 -14.301477 0.466 170 255 127
5.187569 -14.2907 0.467 170 255 127
5.169516 -14.253443 0.471 170 255 127
5.314886 -14.309556 0.468 170 255 127
5.075989 -14.260783 0.467 170 255 127
5.261493 -14.273373 0.471 170 255 127
5.276754 -14.324919 0.465 170 255 127
5.138025 -14.277802 0.467 170 255 127
5.351298 -14.343822 0.465 170 255 127
4.996083 -14.241393 0.467 170 255 127
5.180793 -14.299593 0.465 170 255 127
5.056659 -14.215019 0.472 170 255 127
5.083321 -14.237583 0.47 170 255 127
5.155578 -14.263177 0.469 170 255 127
5.198715 -14.295257 0.467 170 255 127
5.042568 -14.244877 0.468 170 255 127
5.150753 -14.250618 0.47 170 255 127
5.30105 -14.305873 0.468 170 255 127
5.027103 -14.220161 0.47 170 255 127
5.104269 -14.247134 0.469 170 255 127
5.16316 -14.265917 0.469 170 255 127
5.262401 -14.27159 0.471 170 255 127
5.054626 -14.18817 0.475 170 255 127
5.283865 -14.330787 0.465 170 255 127
5.190208 -14.296534 0.466 170 255 127
5.369135 -14.350665 0.465 170 255 127
5.232845 -14.276732 0.47 170 255 127
5.105126 -14.25206 0.469 170 255 127
5.17535 -14.250804 0.471 170 255 127
5.181048 -14.266053 0.469 170 255 127
5.148904 -14.258653 0.469 170 255 127
5.100721 -14.243082 0.47 170 255 127
5.151004 -14.276559 0.467 170 255 127
5.195558 -14.239778 0.473 170 255 127
5.078782 -14.246493 0.469 170 255 127
5.199055 -14.250537 0.472 170 255 127
5.1158 -14.259744 0.468 170 255 127
5.36868 -14.351557 0.465 170 255 127
5.266822 -14.278333 0.471 170 255 127
5.3264 -14.324402 0.467 170 255 127
5.103161 -14.216268 0.473 170 255 127
4.989778 -14.247159 0.466 170 255 127
5.071335 -14.225864 0.471 170 255 127
5.062243 -14.18644 0.475 170 255 127
5.148734 -14.281013 0.467 170 255 127
5.171382 -14.243172 0.472 170 255 127
5.192699 -14.263011 0.47 170 255 127
5.062459 -14.216853 0.472 170 255 127
5.304477 -14.325577 0.466 170 255 127
5.31786 -14.330151 0.466 170 255 127
5.139336 -14.281837 0.466 170 255 127
5.047341 -14.264144 0.466 170 255 127
5.220541 -14.248016 0.473 170 255 127
5.250818 -14.265688 0.472 170 255 127
5.214957 -14.276597 0.469 170 255 127
5.094149 -14.225143 0.472 170 255 127
5.170101 -14.294146 0.466 170 255 127
5.284392 -14.497159 0.46 170 255 127
5.318581 -14.352964 0.464 170 255 127
5.3229 -14.373123 0.464 170 255 127
5.304978 -14.37746 0.464 170 255 127
5.129276 -14.369864 0.463 170 255 127
5.193008 -14.398971 0.463 170 255 127
5.304443 -14.565737 0.459 170 255 127
5.074941 -14.339934 0.464 170 255 127
5.132255 -14.330978 0.464 170 255 127
5.21455 -14.330261 0.465 170 255 127
5.214516 -14.334733 0.464 170 255 127
5.135649 -14.355154 0.464 170 255 127
5.402908 -14.379097 0.464 170 255 127
5.384528 -14.443805 0.462 170 255 127
5.300964 -14.552742 0.459 170 255 127
5.303587 -14.560811 0.459 170 255 127
5.388199 -14.372724 0.464 170 255 127
5.283025 -14.559314 0.459 170 255 127
5.33209 -14.458612 0.462 170 255 127
5.391957 -14.46667 0.462 170 255 127
5.353526 -14.462801 0.462 170 255 127
5.236162 -14.428815 0.462 170 255 127
5.367582 -14.437415 0.462 170 255 127
5.323889 -14.419641 0.463 170 255 127
5.344149 -14.401907 0.463 170 255 127
5.363433 -14.394897 0.463 170 255 127
5.187912 -14.422187 0.462 170 255 127
5.346673 -14.363912 0.464 170 255 127
5.299157 -14.437344 0.462 170 255 127
5.100883 -14.339684 0.464 170 255 127
5.402417 -14.443941 0.462 170 255 127
5.249053 -14.498233 0.46 170 255 127
5.298885 -14.473119 0.461 170 255 127
5.035572 -14.282837 0.465 170 255 127
5.300863 -14.566157 0.459 170 255 127
5.200879 -14.363699 0.464 170 255 127
5.189415 -14.342146 0.464 170 255 127
5.205478 -14.464807 0.461 170 255 127
5.342515 -14.440355 0.462 170 255 127
5.387995 -14.399556 0.463 170 255 127
5.261586 -14.378919 0.463 170 255 127
5.26893 -14.412963 0.463 170 255 127
5.048381 -14.303955 0.465 170 255 127
5.405441 -14.457829 0.462 170 255 127
5.433237 -14.390059 0.464 170 255 127
5.3037 -14.368952 0.464 170 255 127
5.286789 -14.358089 0.464 170 255 127
5.149888 -14.364654 0.463 170 255 127
5.309824 -14.56399 0.459 170 255 127
5.245756 -14.520122 0.46 170 255 127
5.127629 -14.351068 0.464 170 255 127
5.285741 -14.437241 0.462 170 255 127
5.294053 -14.343834 0.464 170 255 127
5.283471 -14.441696 0.462 170 255 127
5.333741 -14.417928 0.463 170 255 127
5.311813 -14.478584 0.461 170 255 127
5.162493 -14.412602 0.462 170 255 127
5.119306 -14.38723 0.463 170 255 127
5.083402 -14.285884 0.465 170 255 127
5.176177 -14.436409 0.462 170 255 127
5.340949 -14.469861 0.461 170 255 127
5.035254 -14.265841 0.466 170 255 127
5.337734 -14.540051 0.459 170 255 127
5.370913 -14.411055 0.463 170 255 127
5.361323 -14.495955 0.461 170 255 127
5.420389 -14.432897 0.463 170 255 127
5.429889 -14.418657 0.463 170 255 127
5.268761 -14.435324 0.462 170 255 127
5.134588 -14.37706 0.463 170 255 127
5.180076 -14.452987 0.461 170 255 127
5.259032 -14.361905 0.464 170 255 127
5.278672 -14.543628 0.459 170 255 127
5.307897 -14.464243 0.461 170 255 127
5.267823 -14.382096 0.463 170 255 127
5.204251 -14.449592 0.461 170 255 127
5.422171 -14.433805 0.463 170 255 127
5.37684 -14.513962 0.46 170 255 127
5.15416 -14.332039 0.464 170 255 127
5.224295 -14.401443 0.463 170 255 127
5.082927 -14.348493 0.464 170 255 127
5.214431 -14.345913 0.464 170 255 127
5.26215 -14.481338 0.461 170 255 127
5.232064 -14.379589 0.463 170 255 127
5.436244 -14.406183 0.463 170 255 127
5.302721 -14.439159 0.462 170 255 127
5.294464 -14.466377 0.461 170 255 127
5.305148 -14.590787 0.458 170 255 127
5.145531 -14.408449 0.462 170 255 127
5.287603 -14.48645 0.461 170 255 127
5.295021 -14.45207 0.462 170 255 127
5.255727 -14.502756 0.46 170 255 127
5.323808 -14.607029 0.458 170 255 127
5.298436 -14.414529 0.463 170 255 127
5.197778 -14.477718 0.461 170 255 127
5.291868 -14.572798 0.458 170 255 127
5.110501 -14.309793 0.465 170 255 127
5.231797 -14.355884 0.464 170 255 127
5.310591 -14.403888 0.463 170 255 127
5.367548 -14.441887 0.462 170 255 127
5.340283 -14.380857 0.464 170 255 127
5.422137 -14.438276 0.462 170 255 127
5.097183 -14.355757 0.463 170 255 127
5.377786 -14.448226 0.462 170 255 127
5.337279 -14.540942 0.459 170 255 127
5.344429 -14.482857 0.461 170 255 127
5.154979 -14.400918 0.462 170 255 127
5.053947 -14.277611 0.465 170 255 127
5.231564 -14.327706 0.465 170 255 127
5.256363 -14.53675 0.459 170 255 127
5.401694 -14.421127 0.463 170 255 127
5.142293 -14.304668 0.465 170 255 127
5.27423 -14.362914 0.464 170 255 127
5.284184 -14.347784 0.464 170 255 127
5.247423 -14.477201 0.461 170 255 127
5.143991 -14.316755 0.465 170 255 127
5.210171 -14.435773 0.462 170 255 127
5.195728 -14.453105 0.461 170 255 127
5.204876 -14.426341 0.462 170 255 127
5.089706 -14.280118 0.465 170 255 127
5.19185 -14.374811 0.463 170 255 127
5.16806 -14.386258 0.463 170 255 127
5.271986 -14.48186 0.461 170 255 127
5.225318 -14.443491 0.462 170 255 127
5.42666 -14.431603 0.463 170 255 127
5.367476 -14.510312 0.46 170 255 127
5.207719 -14.405343 0.463 170 255 127
5.093203 -14.290878 0.465 170 255 127
5.243774 -14.486565 0.461 170 255 127
5.356529 -14.538405 0.46 170 255 127
5.082358 -14.305554 0.465 170 255 127
5.256037 -14.403027 0.463 170 255 127
5.277926 -14.406322 0.463 170 255 127
5.175477 -14.351878 0.464 170 255 127
5.276513 -14.415705 0.463 170 255 127
5.192788 -14.428039 0.462 170 255 127
5.359962 -14.498627 0.461 170 255 127
5.326095 -14.600337 0.458 170 255 127
5.140672 -14.400362 0.462 170 255 127
5.389505 -14.43624 0.462 170 255 127
5.271566 -14.478279 0.461 170 255 127
5.138992 -14.386038 0.463 170 255 127
5.26414 -14.395932 0.463 170 255 127
5.256282 -14.488448 0.461 170 255 127
5.416808 -14.433316 0.463 170 255 127
5.201044 -14.400821 0.463 170 255 127
5.346554 -14.379563 0.464 170 255 127
5.400316 -14.426036 0.463 170 255 127
5.069583 -14.279965 0.465 170 255 127
5.360615 -14.530385 0.46 170 255 127
5.388512 -14.449203 0.462 170 255 127
5.148776 -14.393268 0.463 170 255 127
5.046565 -14.307518 0.465 170 255 127
5.126216 -14.360449 0.463 170 255 127
5.199344 -14.448213 0.461 170 255 127
5.325654 -14.422786 0.463 170 255 127
5.171637 -14.445319 0.461 170 255 127
5.141216 -14.32881 0.464 170 255 127
5.305852 -14.380149 0.464 170 255 127
5.045089 -14.266362 0.466 170 255 127
5.386752 -14.386578 0.464 170 255 127
5.295758 -14.472649 0.461 170 255 127
5.300162 -14.481626 0.461 170 255 127
5.136458 -14.307307 0.465 170 255 127
5.381923 -14.433498 0.462 170 255 127
5.330762 -14.456814 0.462 170 255 127
5.273369 -14.417469 0.462 170 255 127
5.257772 -14.351161 0.464 170 255 127
5.209169 -14.332008 0.464 170 255 127
5.424509 -14.420405 0.463 170 255 127
5.220948 -14.430041 0.462 170 255 127
5.31172 -14.373038 0.464 170 255 127
5.251526 -14.466946 0.461 170 255 127
5.227796 -14.352723 0.464 170 255 127
5.246286 -14.391325 0.463 170 255 127
5.232976 -14.318326 0.465 170 255 127
5.267684 -14.459465 0.461 170 255 127
5.418272 -14.417228 0.463 170 255 127
5.265876 -14.344068 0.464 170 255 127
5.03774 -14.291799 0.465 170 255 127
5.22354 -14.383102 0.463 170 255 127
5.208007 -14.367332 0.464 170 255 127
5.043069 -14.29676 0.465 170 255 127
5.327491 -14.593192 0.458 170 255 127
5.288287 -14.573217 0.458 170 255 127
5.319866 -14.478197 0.461 170 255 127
5.382407 -14.487617 0.461 170 255 127
5.290217 -14.377794 0.464 170 255 127
5.303294 -14.422616 0.462 170 255 127
5.317809 -14.572547 0.459 170 255 127
5.332327 -14.427309 0.462 170 255 127
5.337763 -14.359371 0.464 170 255 127
5.174488 -14.30536 0.465 170 255 127
5.321309 -14.523826 0.46 170 255 127
5.155977 -14.328474 0.464 170 255 127
5.059663 -14.290624 0.465 170 255 127
5.182559 -14.302737 0.465 170 255 127
5.354256 -14.366652 0.464 170 255 127
5.252918 -14.519282 0.46 170 255 127
5.285601 -14.51461 0.46 170 255 127
5.034647 -14.286857 0.465 170 255 127
5.297146 -14.348777 0.464 170 255 127
5.302666 -14.505348 0.46 170 255 127
5.324262 -14.606138 0.458 170 255 127
5.134206 -14.309525 0.465 170 255 127
5.363946 -14.504025 0.461 170 255 127
5.219217 -14.422425 0.462 170 255 127
5.089618 -14.35078 0.464 170 255 127
5.387973 -14.461273 0.462 170 255 127
5.298428 -14.533491 0.46 170 255 127
5.298674 -14.383225 0.463 170 255 127
5.286959 -14.335731 0.465 170 255 127
5.232964 -14.49677 0.46 170 255 127
5.107102 -14.345098 0.464 170 255 127
5.115944 -14.358582 0.463 170 255 127
5.352885 -14.488288 0.461 170 255 127
5.138051 -14.392292 0.463 170 255 127
5.274153 -14.490821 0.461 170 255 127
5.235671 -14.493659 0.46 170 255 127
5.388885 -14.40001 0.463 170 255 127
5.37569 -14.37084 0.464 170 255 127
5.422023 -14.394448 0.464 170 255 127
5.289691 -14.44711 0.462 170 255 127
5.299764 -14.416328 0.463 170 255 127
5.389114 -14.487668 0.461 170 255 127
5.332412 -14.416128 0.463 170 255 127
5.14147 -14.29527 0.465 170 255 127
5.17722 -14.416739 0.462 170 255 127
5.13587 -14.326085 0.464 170 255 127
5.237932 -14.372478 0.464 170 255 127
5.309688 -14.581877 0.458 170 255 127
5.233782 -14.32996 0.465 170 255 127
5.260606 -14.449125 0.462 170 255 127
5.358154 -14.383229 0.464 170 255 127
5.312216 -14.484402 0.461 170 255 127
5.100365 -14.290038 0.465 170 255 127
5.169541 -14.367933 0.463 170 255 127
5.218431 -14.349074 0.464 170 255 127
5.198961 -14.380679 0.463 170 255 127
5.384329 -14.411156 0.463 170 255 127
5.400197 -14.441689 0.462 170 255 127
5.074254 -14.312649 0.465 170 255 127
5.166397 -14.369699 0.463 170 255 127
5.307078 -14.395364 0.463 170 255 127
5.200765 -14.31987 0.465 170 255 127
5.209908 -14.352588 0.464 170 255 127
5.340673 -14.565119 0.459 170 255 127
5.32074 -14.480888 0.461 170 255 127
5.192028 -14.469177 0.461 170 255 127
5.164848 -14.396967 0.463 170 255 127
5.289415 -14.542367 0.459 170 255 127
5.347437 -14.49898 0.461 170 255 127
5.40057 -14.392495 0.464 170 255 127
5.419702 -14.405611 0.463 170 255 127
5.294192 -14.502152 0.46 170 255 127
5.236866 -14.453865 0.461 170 255 127
5.38093 -14.446461 0.462 170 255 127
5.19143 -14.37123 0.463 170 255 127
5.197854 -14.349812 0.464 170 255 127
5.28003 -14.364747 0.464 170 255 127
5.149501 -14.356601 0.464 170 255 127
5.081922 -14.30421 0.465 170 255 127
5.02925 -14.29084 0.465 170 255 127
5.157652 -14.40228 0.462 170 255 127
5.063783 -14.278133 0.465 170 255 127
5.340899 -14.476569 0.461 170 255 127
5.282639 -14.551261 0.459 170 255 127
5.153282 -14.388829 0.463 170 255 127
5.191442 -14.428474 0.462 170 255 127
5.328178 -14.38479 0.464 170 255 127
5.372945 -14.437903 0.462 170 255 127
5.276486 -14.536902 0.459 170 255 127
5.314427 -14.605617 0.458 170 255 127
5.338378 -14.455083 0.462 170 255 127
5.312373 -14.404796 0.463 170 255 127
5.317167 -14.598035 0.458 170 255 127
5.336287 -14.553905 0.459 170 255 127
5.261926 -14.334199 0.465 170 255 127
5.299098 -14.563013 0.459 170 255 127
5.318335 -14.503231 0.46 170 255 127
5.340796 -14.489985 0.461 170 255 127
5.392767 -14.418823 0.463 170 255 127
5.059192 -14.293751 0.465 170 255 127
5.404449 -14.47079 0.462 170 255 127
5.199984 -14.422726 0.462 170 255 127
5.232417 -14.392114 0.463 170 255 127
5.160028 -14.324927 0.465 170 255 127
5.155119 -14.323548 0.465 170 255 127
5.329196 -14.486319 0.461 170 255 127
5.200259 -14.327469 0.465 170 255 127
5.27796 -14.401852 0.463 170 255 127
5.250406 -14.378834 0.463 170 255 127
5.304626 -14.364934 0.464 170 255 127
5.366924 -14.465138 0.462 170 255 127
5.382127 -14.406667 0.463 170 255 127
5.313994 -14.54479 0.459 170 255 127
5.329918 -14.509133 0.46 170 255 127
5.21942 -14.395593 0.463 170 255 127
5.352129 -14.469946 0.461 170 255 127
5.298593 -14.570612 0.459 170 255 127
5.148844 -14.384324 0.463 170 255 127
5.233456 -14.431925 0.462 170 255 127
5.368843 -14.448158 0.462 170 255 127
5.13082 -14.402076 0.462 170 255 127
5.330635 -14.35574 0.464 170 255 127
5.335412 -14.551214 0.459 170 255 127
5.087534 -14.330638 0.464 170 255 127
5.300867 -14.506677 0.46 170 255 127
5.43305 -14.414657 0.463 170 255 127
5.362618 -14.502226 0.461 170 255 127
5.16798 -14.337957 0.464 170 255 127
5.3577 -14.38412 0.464 170 255 127
5.310736 -14.502726 0.46 170 255 127
5.206301 -14.474205 0.461 170 255 127
5.361612 -14.457942 0.462 170 255 127
5.323358 -14.548438 0.459 170 255 127
5.246312 -14.505816 0.46 170 255 127
5.224911 -14.497155 0.46 170 255 127
5.280302 -14.56466 0.459 170 255 127
5.280925 -14.541409 0.459 170 255 127
5.395929 -14.414823 0.463 170 255 127
5.088693 -14.354796 0.463 170 255 127
5.225187 -14.401898 0.463 170 255 127
5.228963 -14.493608 0.46 170 255 127
5.33358 -14.557014 0.459 170 255 127
5.137112 -14.339065 0.464 170 255 127
5.344908 -14.360767 0.464 170 255 127
5.358816 -14.531713 0.46 170 255 127
5.375011 -14.46028 0.462 170 255 127
5.074912 -14.284925 0.465 170 255 127
5.228806 -14.337524 0.464 170 255 127
5.362406 -14.412331 0.463 170 255 127
5.280323 -14.502942 0.46 170 255 127
5.37384 -14.378876 0.464 170 255 127
5.105996 -14.314231 0.465 170 255 127
5.197735 -14.365463 0.464 170 255 127
5.319315 -14.433023 0.462 170 255 127
5.236558 -14.317906 0.465 170 255 127
5.140091 -14.300179 0.465 170 255 127
5.355995 -14.490994 0.461 170 255 127
5.370747 -14.373934 0.464 170 255 127
5.294528 -14.516914 0.46 170 255 127
5.338946 -14.498021 0.461 170 255 127
5.133905 -14.290294 0.465 170 255 127
5.212877 -14.432663 0.462 170 255 127
5.105355 -14.339718 0.464 170 255 127
5.064066 -14.299602 0.465 170 255 127
5.134961 -14.327868 0.464 170 255 127
5.212144 -14.352604 0.464 170 255 127
5.301452 -14.547379 0.459 170 255 127
5.287056 -14.381795 0.463 170 255 127
5.251632 -14.394049 0.463 170 255 127
5.253945 -14.501848 0.46 170 255 127
5.224121 -14.483285 0.461 170 255 127
5.244865 -14.519668 0.46 170 255 127
5.377434 -14.435701 0.462 170 255 127
5.35042 -14.400613 0.463 170 255 127
5.343126 -14.359859 0.464 170 255 127
5.316294 -14.359655 0.464 170 255 127
5.140609 -14.349825 0.464 170 255 127
5.127096 -14.303658 0.465 170 255 127
5.298507 -14.581792 0.458 170 255 127
5.210612 -14.377637 0.463 170 255 127
5.235628 -14.381405 0.463 170 255 127
5.273543 -14.335628 0.465 170 255 127
5.205732 -14.431267 0.462 170 255 127
5.370285 -14.493786 0.461 170 255 127
5.252684 -14.491105 0.46 170 255 127
5.365061 -14.41593 0.463 170 255 127
5.20395 -14.430359 0.462 170 255 127
5.418946 -14.387269 0.464 170 255 127
5.397524 -14.440326 0.462 170 255 127
5.310341 -14.377947 0.464 170 255 127
5.285151 -14.45602 0.461 170 255 127
5.355133 -14.54555 0.459 170 255 127
5.123883 -14.314367 0.465 170 255 127
5.327262 -14.505534 0.46 170 255 127
5.256401 -14.472796 0.461 170 255 127
5.311542 -14.514359 0.46 170 255 127
5.198032 -14.444179 0.461 170 255 127
5.177305 -14.40556 0.462 170 255 127
5.235353 -14.476663 0.461 170 255 127
5.072523 -14.305033 0.465 170 255 127
5.356724 -14.394846 0.463 170 255 127
5.145972 -14.350313 0.464 170 255 127
5.238722 -14.386348 0.463 170 255 127
5.221029 -14.478342 0.461 170 255 127
5.043761 -14.264564 0.466 170 255 127
5.08123 -14.336405 0.464 170 255 127
5.360424 -14.378775 0.464 170 255 127
5.14175 -14.37622 0.463 170 255 127
5.138275 -14.303742 0.465 170 255 127
5.311193 -14.442353 0.462 170 255 127
5.337271 -14.424215 0.463 170 255 127
5.144881 -14.317209 0.465 170 255 127
5.012389 -14.273271 0.465 170 255 127
5.176868 -14.404215 0.462 170 255 127
5.171259 -14.318304 0.465 170 255 127
5.161199 -14.406332 0.462 170 255 127
5.424191 -14.403409 0.463 170 255 127
5.331573 -14.408967 0.463 170 255 127
5.329812 -14.58203 0.458 170 255 127
5.19583 -14.43969 0.462 170 255 127
5.145285 -14.323027 0.465 170 255 127
5.214812 -14.413447 0.462 170 255 127
5.083584 -14.320769 0.464 170 255 127
5.213349 -14.429536 0.462 170 255 127
5.08355 -14.325242 0.464 170 255 127
5.250551 -14.477672 0.461 170 255 127
5.004035 -14.254423 0.466 170 255 127
5.268566 -14.343193 0.464 170 255 127
5.314863 -14.606961 0.458 170 255 127
5.286717 -14.426516 0.462 170 255 127
5.208393 -14.375384 0.463 170 255 127
5.232904 -14.386751 0.463 170 255 127
5.123997 -14.358196 0.464 170 255 127
5.356873 -14.434203 0.462 170 255 127
5.245039 -14.437826 0.462 170 255 127
5.312747 -14.355604 0.464 170 255 127
5.337431 -14.520818 0.46 170 255 127
5.294367 -14.420312 0.462 170 255 127
5.107896 -14.299487 0.465 170 255 127
5.340071 -14.526651 0.46 170 255 127
5.197616 -14.381117 0.463 170 255 127
5.311461 -14.466059 0.461 170 255 127
5.187348 -14.319769 0.465 170 255 127
5.092664 -14.30295 0.465 170 255 127
5.372746 -14.405254 0.463 170 255 127
5.357539 -14.523207 0.46 170 255 127
5.139429 -14.387383 0.463 170 255 127
5.152964 -14.371833 0.463 170 255 127
5.185528 -14.382813 0.463 170 255 127
5.416842 -14.428845 0.463 170 255 127
5.435893 -14.393659 0.464 170 255 127
5.321194 -14.479997 0.461 170 255 127
5.069514 -14.28891 0.465 170 255 127
5.18471 -14.313934 0.465 170 255 127
5.292097 -14.424767 0.462 170 255 127
5.074928 -14.282689 0.465 170 255 127
5.24896 -14.392687 0.463 170 255 127
5.391741 -14.436257 0.462 170 255 127
5.322052 -14.484922 0.461 170 255 127
5.174887 -14.370658 0.463 170 255 127
5.272499 -14.355299 0.464 170 255 127
5.3769 -14.38829 0.464 170 255 127
5.241772 -14.514726 0.46 170 255 127
5.311503 -14.578313 0.458 170 255 127
5.125899 -14.343452 0.464 170 255 127
5.26686 -14.450068 0.462 170 255 127
5.204362 -14.317214 0.465 170 255 127
5.239502 -14.519179 0.46 170 255 127
5.179758 -14.435989 0.462 170 255 127
5.258837 -14.505463 0.46 170 255 127
5.32335 -14.431713 0.462 170 255 127
5.113357 -14.346041 0.464 170 255 127
5.309595 -14.476331 0.461 170 255 127
5.176304 -14.301795 0.465 170 255 127
5.030192 -14.284586 0.465 170 255 127
5.244471 -14.394889 0.463 170 255 127
5.256792 -14.421369 0.462 170 255 127
5.322213 -14.345837 0.465 170 255 127
5.159956 -14.393353 0.463 170 255 127
5.072154 -14.294744 0.465 170 255 127
5.36081 -14.386827 0.464 170 255 127
5.352346 -14.500359 0.461 170 255 127
5.21242 -14.493035 0.46 170 255 127
5.367357 -14.525964 0.46 170 255 127
5.163911 -14.34374 0.464 170 255 127
5.157029 -14.42553 0.462 170 255 127
5.253406 -14.513919 0.46 170 255 127
5.268862 -14.421907 0.462 170 255 127
5.225224 -14.337945 0.464 170 255 127
5.067546 -14.312597 0.465 170 255 127
5.222577 -14.451073 0.461 170 255 127
5.122517 -14.376521 0.463 170 255 127
5.279025 -14.556152 0.459 170 255 127
5.409294 -14.421632 0.463 170 255 127
5.319866 -14.478197 0.461 170 255 127
5.146426 -14.349422 0.464 170 255 127
5.400855 -14.413964 0.463 170 255 127
5.166749 -14.382223 0.463 170 255 127
5.261162 -14.434818 0.462 170 255 127
5.345846 -14.413995 0.463 170 255 127
5.24386 -14.475385 0.461 170 255 127
5.325182 -14.425913 0.462 170 255 127
5.251552 -14.345748 0.464 170 255 127
5.194553 -14.431183 0.462 170 255 127
5.328989 -14.572632 0.459 170 255 127
5.080691 -14.348475 0.464 170 255 127
5.349304 -14.488708 0.461 170 255 127
5.176885 -14.401978 0.463 170 255 127
5.182901 -14.434224 0.462 170 255 127
5.368121 -14.425344 0.463 170 255 127
5.267098 -14.418764 0.462 170 255 127
5.239158 -14.387692 0.463 170 255 127
5.255395 -14.428514 0.462 170 255 127
5.391168 -14.4528 0.462 170 255 127
5.236765 -14.46728 0.461 170 255 127
5.141436 -14.299742 0.465 170 255 127
5.285431 -14.536971 0.459 170 255 127
5.284574 -14.532044 0.459 170 255 127
5.387676 -14.38256 0.464 170 255 127
5.152442 -14.381668 0.463 170 255 127
5.155802 -14.410316 0.462 170 255 127
5.261544 -14.502353 0.46 170 255 127
5.36925 -14.394494 0.463 170 255 127
5.336999 -14.459992 0.462 170 255 127
5.099524 -14.282876 0.465 170 255 127
5.221941 -14.417079 0.462 170 255 127
5.366402 -14.474974 0.461 170 255 127
5.061059 -14.283479 0.465 170 255 127
5.11544 -14.36618 0.463 170 255 127
5.338395 -14.452847 0.462 170 255 127
5.339626 -14.40858 0.463 170 255 127
5.279597 -14.539609 0.459 170 255 127
5.161488 -14.36832 0.463 170 255 127
5.227911 -14.396552 0.463 170 255 127
5.379301 -14.425429 0.463 170 255 127
5.353016 -14.529881 0.46 170 255 127
5.383641 -14.38387 0.464 170 255 127
5.294185 -14.385427 0.463 170 255 127
5.276763 -14.441646 0.462 170 255 127
5.248369 -14.411466 0.463 170 255 127
5.295627 -14.431056 0.462 170 255 127
5.303018 -14.517873 0.46 170 255 127
5.288796 -14.506138 0.46 170 255 127
5.339481 -14.545431 0.459 170 255 127
5.294617 -14.446254 0.462 170 255 127
5.092834 -14.280589 0.465 170 255 127
5.098965 -14.356665 0.463 170 255 127
5.3454 -14.531611 0.46 170 255 127
5.087285 -14.304697 0.465 170 255 127
5.350437 -14.398376 0.463 170 255 127
5.257738 -14.355634 0.464 170 255 127
5.10549 -14.32183 0.464 170 255 127
5.431387 -14.398097 0.464 170 255 127
5.313629 -14.475019 0.461 170 255 127
5.164687 -14.300365 0.465 170 255 127
5.277849 -14.534229 0.459 170 255 127
5.313015 -14.379309 0.464 170 255 127
5.020407 -14.277356 0.465 170 255 127
5.218759 -14.482797 0.461 170 255 127
5.260852 -14.534548 0.459 170 255 127
5.301517 -14.362227 0.464 170 255 127
5.339312 -14.567791 0.459 170 255 127
5.16974 -14.400582 0.463 170 255 127
5.369755 -14.386895 0.464 170 255 127
5.355664 -14.416752 0.463 170 255 127
5.342108 -14.49402 0.461 170 255 127
5.226786 -14.367921 0.464 170 255 127
5.118753 -14.342055 0.464 170 255 127
5.266109 -14.372244 0.464 170 255 127
5.274909 -14.509162 0.46 170 255 127
5.365778 -14.498224 0.461 170 255 127
5.281736 -14.493562 0.46 170 255 127
5.089317 -14.331546 0.464 170 255 127
5.124418 -14.361777 0.463 170 255 127
5.259601 -14.404842 0.463 170 255 127
5.415853 -14.382325 0.464 170 255 127
5.356084 -14.420333 0.463 170 255 127
5.333096 -14.502896 0.46 170 255 127
5.114553 -14.306246 0.465 170 255 127
5.176012 -14.399288 0.463 170 255 127
5.074674 -14.316229 0.464 170 255 127
5.262876 -14.444671 0.462 170 255 127
5.443089 -14.388347 0.464 170 255 127
5.240656 -14.367132 0.464 170 255 127
5.309076 -14.426685 0.462 170 255 127
5.384978 -14.502396 0.461 170 255 127
5.117596 -14.317897 0.465 170 255 127
5.314528 -14.592199 0.458 170 255 127
5.342914 -14.505653 0.46 170 255 127
5.190687 -14.410133 0.462 170 255 127
5.325675 -14.361069 0.464 170 255 127
5.259067 -14.357432 0.464 170 255 127
5.167521 -14.39833 0.463 170 255 127
5.345977 -14.455587 0.462 170 255 127
5.305284 -14.337211 0.465 170 255 127
5.343011 -14.551719 0.459 170 255 127
5.08918 -14.349435 0.464 170 255 127
5.318148 -14.527826 0.46 170 255 127
5.279007 -14.558388 0.459 170 255 127
5.334436 -14.56194 0.459 170 255 127
5.361952 -14.413222 0.463 170 255 127
5.245209 -14.415467 0.462 170 255 127
5.054924 -14.266885 0.466 170 255 127
5.20017 -14.39813 0.463 170 255 127
5.165268 -14.400549 0.463 170 255 127
5.364718 -14.52013 0.46 170 255 127
5.29054 -14.570999 0.458 170 255 127
5.313939 -14.375291 0.464 170 255 127
5.216612 -14.412119 0.462 170 255 127
5.163032 -14.400532 0.463 170 255 127
5.298126 -14.514258 0.46 170 255 127
5.137511 -14.404363 0.462 170 255 127
5.391588 -14.456381 0.462 170 255 127
5.341323 -14.420669 0.463 170 255 127
5.261484 -14.392335 0.463 170 255 127
5.318942 -14.482216 0.461 170 255 127
5.222428 -14.411716 0.462 170 255 127
5.271574 -14.359316 0.464 170 255 127
5.337593 -14.381731 0.464 170 255 127
5.240142 -14.493692 0.46 170 255 127
5.16019 -14.42153 0.462 170 255 127
5.261416 -14.401278 0.463 170 255 127
5.094039 -14.357521 0.463 170 255 127
5.385088 -14.370017 0.464 170 255 127
5.325692 -14.594522 0.458 170 255 127
5.326515 -14.603919 0.458 170 255 127
5.283586 -14.485526 0.461 170 255 127
5.243155 -14.450335 0.461 170 255 127
5.184047 -14.401138 0.463 170 255 127
5.278435 -14.339244 0.465 170 255 127
5.19255 -14.459342 0.461 170 255 127
5.300171 -14.362664 0.464 170 255 127
5.121931 -14.335818 0.464 170 255 127
5.364476 -14.375227 0.464 170 255 127
5.307812 -14.475423 0.461 170 255 127
5.201528 -14.454938 0.461 170 255 127
5.18008 -14.393505 0.463 170 255 127
5.21253 -14.360657 0.464 170 255 127
5.0253 -14.280972 0.465 170 255 127
5.281023 -14.351786 0.464 170 255 127
5.266219 -14.475554 0.461 170 255 127
5.30547 -14.548303 0.459 170 255 127
5.302169 -14.393985 0.463 170 255 127
5.239578 -14.391273 0.463 170 255 127
5.36378 -14.466904 0.461 170 255 127
5.298754 -14.431526 0.462 170 255 127
5.23405 -14.353665 0.464 170 255 127
5.356877 -14.374722 0.464 170 255 127
5.0775 -14.297467 0.465 170 255 127
5.162324 -14.434962 0.462 170 255 127
5.163189 -14.320927 0.465 170 255 127
5.420037 -14.420371 0.463 170 255 127
5.238225 -14.510673 0.46 170 255 127
5.05489 -14.271357 0.466 170 255 127
5.337801 -14.531107 0.46 170 255 127
5.287162 -14.544586 0.459 170 255 127
5.124786 -14.372066 0.463 170 255 127
5.206602 -14.493439 0.461 170 255 127
5.080805 -14.392304 0.467 170 255 127
5.082795 -14.542587 0.479 170 255 127
5.141572 -14.517542 0.47 170 255 127
5.178022 -14.487854 0.464 170 255 127
4.9618 -14.51573 0.491 170 255 127
4.98921 -14.43991 0.482 170 255 127
5.045835 -14.403667 0.472 170 255 127
5.098163 -14.521237 0.476 170 255 127
5.22035 -14.567782 0.465 170 255 127
5.221525 -14.589705 0.467 170 255 127
5.044652 -14.500707 0.48 170 255 127
5.002931 -14.399763 0.477 170 255 127
5.203403 -14.561393 0.467 170 255 127
5.007123 -14.318847 0.47 170 255 127
5.264735 -14.553361 0.459 170 255 127
5.2417 -14.583151 0.464 170 255 127
5.186126 -14.480761 0.462 170 255 127
4.970787 -14.392365 0.48 170 255 127
5.038652 -14.466225 0.478 170 255 127
5.151581 -14.436223 0.462 170 255 127
4.983609 -14.470725 0.485 170 255 127
5.188006 -14.527734 0.466 170 255 127
5.109215 -14.420248 0.466 170 255 127
4.986953 -14.50161 0.487 170 255 127
5.116692 -14.495887 0.471 170 255 127
5.176219 -14.548663 0.469 170 255 127
5.204244 -14.568555 0.467 170 255 127
5.133956 -14.519273 0.471 170 255 127
5.311738 -14.60649 0.458 170 255 127
4.989311 -14.426494 0.48 170 255 127
5.264297 -14.552016 0.459 170 255 127
4.998344 -14.355901 0.474 170 255 127
5.107281 -14.439465 0.468 170 255 127
5.146739 -14.4259 0.462 170 255 127
4.992515 -14.299058 0.47 170 255 127
5.055624 -14.351416 0.467 170 255 127
5.018104 -14.286283 0.466 170 255 127
4.975361 -14.378983 0.478 170 255 127
5.193233 -14.546109 0.467 170 255 127
5.143477 -14.443317 0.464 170 255 127
5.079655 -14.484872 0.475 170 255 127
5.058424 -14.453852 0.475 170 255 127
5.223798 -14.525769 0.461 170 255 127
5.000045 -14.544195 0.489 170 255 127
5.190912 -14.557273 0.468 170 255 127
4.995795 -14.279406 0.468 170 255 127
5.164487 -14.503405 0.466 170 255 127
5.038512 -14.543592 0.484 170 255 127
5.043727 -14.504725 0.481 170 255 127
5.10451 -14.392036 0.464 170 255 127
5.243418 -14.533522 0.46 170 255 127
5.148904 -14.494342 0.468 170 255 127
5.200853 -14.484898 0.461 170 255 127
5.153961 -14.535078 0.47 170 255 127
5.101676 -14.529761 0.476 170 255 127
5.031235 -14.500604 0.482 170 255 127
5.095036 -14.520766 0.476 170 255 127
4.994453 -14.456049 0.482 170 255 127
5.036751 -14.480968 0.479 170 255 127
5.045534 -14.384434 0.471 170 255 127
4.982026 -14.502466 0.487 170 255 127
5.071853 -14.511199 0.478 170 255 127
5.183436 -14.481634 0.462 170 255 127
5.167602 -14.44663 0.461 170 255 127
5.026823 -14.3749 0.472 170 255 127
5.1858 -14.582726 0.471 170 255 127
5.014972 -14.345293 0.471 170 255 127
4.99764 -14.330851 0.472 170 255 127
4.996364 -14.322344 0.471 170 255 127
5.056901 -14.359922 0.467 170 255 127
5.147338 -14.523848 0.47 170 255 127
4.986027 -14.505628 0.487 170 255 127
4.97548 -14.36333 0.477 170 255 127
5.004004 -14.435102 0.48 170 255 127
5.04275 -14.51545 0.481 170 255 127
5.03239 -14.348557 0.469 170 255 127
5.049268 -14.36389 0.468 170 255 127
5.187615 -14.579162 0.47 170 255 127
5.024528 -14.500553 0.482 170 255 127
4.993389 -14.301748 0.47 170 255 127
5.105859 -14.567807 0.479 170 255 127
5.059429 -14.498136 0.478 170 255 127
5.121057 -14.568817 0.477 170 255 127
5.140982 -14.536322 0.472 170 255 127
5.26322 -14.576158 0.461 170 255 127
5.201401 -14.589552 0.469 170 255 127
5.079023 -14.391397 0.467 170 255 127
5.084993 -14.37087 0.465 170 255 127
5.064898 -14.425726 0.472 170 255 127
5.287611 -14.603176 0.46 170 255 127
5.274667 -14.599948 0.462 170 255 127
5.01893 -14.471889 0.481 170 255 127
5.002061 -14.337592 0.472 170 255 127
4.985014 -14.344619 0.474 170 255 127
5.156031 -14.497973 0.467 170 255 127
5.011863 -14.342587 0.471 170 255 127
5.160771 -14.521712 0.468 170 255 127
5.170656 -14.515527 0.467 170 255 127
5.128541 -14.525494 0.473 170 255 127
5.202181 -14.486696 0.461 170 255 127
5.173516 -14.492292 0.465 170 255 127
5.008172 -14.475385 0.482 170 255 127
5.151814 -14.464399 0.465 170 255 127
4.956908 -14.512115 0.491 170 255 127
5.009935 -14.478529 0.482 170 255 127
5.154135 -14.453237 0.464 170 255 127
5.015061 -14.510321 0.484 170 255 127
5.018303 -14.318932 0.468 170 255 127
4.989574 -14.50968 0.487 170 255 127
4.96545 -14.506366 0.49 170 255 127
5.100441 -14.39782 0.465 170 255 127
5.072701 -14.399399 0.469 170 255 127
5.029344 -14.396386 0.473 170 255 127
4.98094 -14.409883 0.48 170 255 127
5.025431 -14.322563 0.468 170 255 127
4.972934 -14.463041 0.485 170 255 127
4.977291 -14.419247 0.481 170 255 127
5.185486 -14.506248 0.464 170 255 127
5.192342 -14.545655 0.467 170 255 127
5.146803 -14.476438 0.466 170 255 127
5.105711 -14.528451 0.475 170 255 127
5.092036 -14.385681 0.465 170 255 127
4.999431 -14.448484 0.481 170 255 127
5.138267 -14.422705 0.463 170 255 127
4.989999 -14.45378 0.483 170 255 127
5.088112 -14.490303 0.474 170 255 127
5.094484 -14.475593 0.472 170 255 127
4.995391 -14.273588 0.467 170 255 127
5.00109 -14.288837 0.468 170 255 127
4.987262 -14.40188 0.479 170 255 127
5.105863 -14.508327 0.474 170 255 127
5.025885 -14.321673 0.468 170 255 127
4.99319 -14.504787 0.486 170 255 127
5.001828 -14.545104 0.489 170 255 127
5.039051 -14.531522 0.483 170 255 127
5.227999 -14.561579 0.464 170 255 127
5.207234 -14.586914 0.468 170 255 127
5.0249 -14.451362 0.478 170 255 127
4.98638 -14.282464 0.469 170 255 127
5.061381 -14.476683 0.476 170 255 127
5.023746 -14.367721 0.472 170 255 127
5.130642 -14.543398 0.474 170 255 127
5.06937 -14.425759 0.471 170 255 127
4.970328 -14.452736 0.485 170 255 127
5.032253 -14.366444 0.471 170 255 127
5.174522 -14.536575 0.468 170 255 127
5.197472 -14.517966 0.464 170 255 127
4.98996 -14.517733 0.488 170 255 127
5.05511 -14.477977 0.477 170 255 127
5.135301 -14.518836 0.471 170 255 127
5.055938 -14.427895 0.473 170 255 127
5.098264 -14.507822 0.474 170 255 127
5.132627 -14.517473 0.471 170 255 127
5.06427 -14.508458 0.479 170 255 127
4.956721 -14.536711 0.493 170 255 127
4.984054 -14.353108 0.475 170 255 127
5.231779 -14.593808 0.466 170 255 127
4.995065 -14.375554 0.476 170 255 127
5.210009 -14.57486 0.467 170 255 127
5.035915 -14.414326 0.474 170 255 127
5.109093 -14.495381 0.472 170 255 127
5.049013 -14.39743 0.471 170 255 127
5.19858 -14.548833 0.466 170 255 127
5.012796 -14.455295 0.48 170 255 127
5.235398 -14.529435 0.46 170 255 127
4.993911 -14.291913 0.469 170 255 127
4.989592 -14.271755 0.468 170 255 127
5.036216 -14.433558 0.476 170 255 127
4.992154 -14.405496 0.478 170 255 127
5.086771 -14.431258 0.47 170 255 127
5.24234 -14.557662 0.462 170 255 127
5.044652 -14.500707 0.48 170 255 127
5.252261 -14.547005 0.46 170 255 127
5.050863 -14.389394 0.47 170 255 127
5.186644 -14.530407 0.466 170 255 127
5.195775 -14.505878 0.463 170 255 127
5.103411 -14.477897 0.471 170 255 127
5.014523 -14.286703 0.466 170 255 127
5.076499 -14.429392 0.471 170 255 127
5.026191 -14.517114 0.484 170 255 127
4.958758 -14.504079 0.49 170 255 127
5.104989 -14.505636 0.474 170 255 127
5.019355 -14.415988 0.476 170 255 127
4.993609 -14.27268 0.468 170 255 127
5.190492 -14.553692 0.468 170 255 127
5.072577 -14.474531 0.475 170 255 127
5.141793 -14.488474 0.468 170 255 127
5.127944 -14.427547 0.465 170 255 127
5.055801 -14.445782 0.474 170 255 127
5.160385 -14.513659 0.468 170 255 127
5.00361 -14.546012 0.489 170 255 127
5.157529 -14.477412 0.465 170 255 127
5.102575 -14.411253 0.466 170 255 127
4.978853 -14.449224 0.484 170 255 127
5.150537 -14.455893 0.464 170 255 127
5.004904 -14.316594 0.47 170 255 127
5.197625 -14.497842 0.462 170 255 127
5.179134 -14.45924 0.461 170 255 127
5.101769 -14.399619 0.465 170 255 127
5.031609 -14.451412 0.478 170 255 127
5.257555 -14.556437 0.46 170 255 127
5.081743 -14.445532 0.471 170 255 127
5.193568 -14.56087 0.468 170 255 127
5.103984 -14.461353 0.47 170 255 127
5.066528 -14.446757 0.473 170 255 127
5.071318 -14.463789 0.474 170 255 127
5.26238 -14.568995 0.46 170 255 127
5.056672 -14.507953 0.479 170 255 127
5.063456 -14.380097 0.468 170 255 127
5.038122 -14.359333 0.469 170 255 127
5.120981 -14.461036 0.468 170 255 127
5.083389 -14.464328 0.473 170 255 127
5.199873 -14.555104 0.467 170 255 127
5.019644 -14.377975 0.473 170 255 127
5.090428 -14.53862 0.478 170 255 127
5.185452 -14.510719 0.465 170 255 127
5.11504 -14.536572 0.475 170 255 127
5.069816 -14.543831 0.481 170 255 127
4.970011 -14.435739 0.484 170 255 127
4.997695 -14.264661 0.466 170 255 127
5.039547 -14.407197 0.473 170 255 127
5.082888 -14.412446 0.469 170 255 127
4.980197 -14.448786 0.483 170 255 127
5.069048 -14.468244 0.475 170 255 127
5.010674 -14.499106 0.484 170 255 127
5.07969 -14.480399 0.474 170 255 127
5.135046 -14.552377 0.474 170 255 127
5.053731 -14.482885 0.478 170 255 127
5.130121 -14.553233 0.475 170 255 127
5.044345 -14.540955 0.483 170 255 127
5.15489 -14.471579 0.465 170 255 127
5.151084 -14.560548 0.473 170 255 127
5.15164 -14.546241 0.471 170 255 127
5.130256 -14.535345 0.473 170 255 127
5.091777 -14.478703 0.473 170 255 127
5.166974 -14.529363 0.468 170 255 127
5.165786 -14.450194 0.462 170 255 127
4.980559 -14.342348 0.475 170 255 127
5.09913 -14.393785 0.465 170 255 127
4.953849 -14.502701 0.491 170 255 127
5.070033 -14.338555 0.464 170 255 127
4.950956 -14.530407 0.493 170 255 127
5.174437 -14.547755 0.469 170 255 127
