ply
format ascii 1.0
element vertex 649
property double x
property double y
property double z
property uchar red
property uchar green
property uchar blue
element face 0
property list uchar int vertex_indices
end_header
-3.87812 -15.699514 1.787 84 84 127
-3.76271 -15.754952 1.787 84 84 127
-3.829552 -15.72314 1.789 84 84 127
-3.859846 -15.707704 1.789 84 84 127
-3.920888 -15.677723 1.785 84 84 127
-3.895049 -15.690888 1.788 84 84 127
-3.834007 -15.720869 1.788 84 84 127
-3.973021 -15.652283 1.751 84 84 127
-3.830426 -15.720449 1.667 84 84 127
-3.811715 -15.729983 1.709 84 84 127
-3.815279 -15.728168 1.613 84 84 127
-3.909305 -15.683625 1.753 84 84 127
-3.966313 -15.652333 1.494 84 84 127
-3.950292 -15.662742 1.704 84 84 127
-3.801023 -15.735432 1.641 84 84 127
-3.866083 -15.704526 1.765 84 84 127
-3.809042 -15.731345 1.648 84 84 127
-3.815279 -15.728168 1.675 84 84 127
-3.830426 -15.720449 1.587 84 84 127
-3.876321 -15.698187 1.66 84 84 127
-3.786313 -15.741804 1.635 84 84 127
-3.891923 -15.69136 1.67 84 84 127
-3.813934 -15.72773 1.595 84 84 127
-3.765383 -15.753591 1.77 84 84 127
-3.841118 -15.715002 1.627 84 84 127
-3.869648 -15.70271 1.716 84 84 127
-3.814825 -15.727276 1.608 84 84 127
-3.878557 -15.69817 1.722 84 84 127
-3.844682 -15.713185 1.613 84 84 127
-3.768056 -15.752229 1.727 84 84 127
-3.78944 -15.741333 1.664 84 84 127
-3.880776 -15.695916 1.643 84 84 127
-3.880776 -15.695916 1.632 84 84 127
-3.843354 -15.714984 1.662 84 84 127
-3.869631 -15.700474 1.581 84 84 127
-3.825971 -15.722719 1.639 84 84 127
-3.944492 -15.664575 1.645 84 84 127
-3.801914 -15.734978 1.665 84 84 127
-3.753345 -15.758601 1.692 84 84 127
-3.854046 -15.709537 1.717 84 84 127
-3.874994 -15.699986 1.717 84 84 127
-3.911525 -15.681373 1.709 84 84 127
-3.811715 -15.729983 1.628 84 84 127
-3.956075 -15.658673 1.537 84 84 127
-3.908414 -15.684079 1.732 84 84 127
-3.868302 -15.702272 1.636 84 84 127
-3.74889 -15.760871 1.704 84 84 127
-3.86252 -15.706342 1.717 84 84 127
-3.785422 -15.742258 1.653 84 84 127
-3.894141 -15.689107 1.609 84 84 127
-3.864284 -15.703198 1.557 84 84 127
-3.836663 -15.717272 1.626 84 84 127
-3.970768 -15.650064 1.498 84 84 127
-3.818843 -15.726352 1.689 84 84 127
-3.890124 -15.690032 1.552 84 84 127
-3.8429 -15.714094 1.622 84 84 127
-3.940491 -15.667735 1.702 84 84 127
-3.852701 -15.7091 1.556 84 84 127
-3.865175 -15.702744 1.584 84 84 127
-3.873648 -15.699549 1.673 84 84 127
-3.967675 -15.655006 1.716 84 84 127
-3.771166 -15.749521 1.649 84 84 127
-3.766711 -15.751792 1.654 84 84 127
-3.852701 -15.7091 1.595 84 84 127
-3.935145 -15.670459 1.706 84 84 127
-3.781858 -15.744074 1.657 84 84 127
-3.825971 -15.722719 1.646 84 84 127
-3.827316 -15.723156 1.696 84 84 127
-3.775621 -15.747252 1.662 84 84 127
-3.85761 -15.707721 1.673 84 84 127
-3.891015 -15.689578 1.509 84 84 127
-3.843354 -15.714984 1.746 84 84 127
-3.950275 -15.660505 1.484 84 84 127
-3.926234 -15.674999 1.721 84 84 127
-3.85181 -15.709554 1.599 84 84 127
-3.843354 -15.714984 1.663 84 84 127
-3.881214 -15.694572 1.575 84 84 127
-3.781858 -15.744074 1.634 84 84 127
-3.899487 -15.686383 1.543 84 84 127
-3.822861 -15.725426 1.766 84 84 127
-3.858047 -15.706376 1.57 84 84 127
-3.829989 -15.721794 1.752 84 84 127
-3.965002 -15.656369 1.752 84 84 127
-3.866974 -15.704072 1.715 84 84 127
-3.850482 -15.711352 1.641 84 84 127
-3.799678 -15.734994 1.631 84 84 127
-3.889233 -15.690486 1.543 84 84 127
-3.852264 -15.710444 1.678 84 84 127
-3.826862 -15.722265 1.596 84 84 127
-3.757364 -15.757677 1.756 84 84 127
-3.793895 -15.739063 1.67 84 84 127
-3.829535 -15.720903 1.623 84 84 127
-3.791659 -15.739079 1.654 84 84 127
-3.901707 -15.684131 1.496 84 84 127
-3.882996 -15.693665 1.554 84 84 127
-3.864738 -15.704088 1.651 84 84 127
-3.809479 -15.73 1.6 84 84 127
-3.822861 -15.725426 1.781 84 84 127
-3.902598 -15.683677 1.504 84 84 127
-3.877212 -15.697733 1.635 84 84 127
-3.885669 -15.692302 1.557 84 84 127
-3.955184 -15.659127 1.541 84 84 127
-3.808605 -15.73269 1.75 84 84 127
-3.849137 -15.710916 1.582 84 84 127
-3.808151 -15.731799 1.636 84 84 127
-3.858955 -15.708158 1.783 84 84 127
-3.749782 -15.760417 1.672 84 84 127
-3.823298 -15.724082 1.629 84 84 127
-3.887921 -15.694521 1.776 84 84 127
-3.764929 -15.7527 1.677 84 84 127
-3.96944 -15.651863 1.538 84 84 127
-3.821079 -15.726334 1.771 84 84 127
-3.885669 -15.692302 1.564 84 84 127
-3.856719 -15.708175 1.632 84 84 127
-3.965422 -15.652787 1.493 84 84 127
-3.846027 -15.713622 1.663 84 84 127
-3.926672 -15.673655 1.613 84 84 127
-3.939146 -15.667298 1.636 84 84 127
-3.834881 -15.71818 1.661 84 84 127
-3.891923 -15.69136 1.674 84 84 127
-3.85181 -15.709554 1.552 84 84 127
-3.778294 -15.74589 1.649 84 84 127
-3.929345 -15.672293 1.617 84 84 127
-3.949401 -15.663196 1.691 84 84 127
-3.875885 -15.699532 1.714 84 84 127
-3.900395 -15.688165 1.76 84 84 127
-3.990404 -15.644548 1.758 84 84 127
-3.758692 -15.755877 1.672 84 84 127
-3.83979 -15.716801 1.665 84 84 127
-3.847355 -15.711823 1.619 84 84 127
-3.923545 -15.674125 1.545 84 84 127
-3.823298 -15.724082 1.608 84 84 127
-3.83399 -15.718634 1.665 84 84 127
-3.968095 -15.651425 1.494 84 84 127
-3.83399 -15.718634 1.63 84 84 127
-3.9396 -15.668189 1.724 84 84 127
-3.750673 -15.759963 1.673 84 84 127
-3.941836 -15.668173 1.771 84 84 127
-3.869648 -15.70271 1.74 84 84 127
-3.941365 -15.665045 1.491 84 84 127
-3.813043 -15.728184 1.605 84 84 127
-3.797459 -15.737247 1.734 84 84 127
-3.782749 -15.74362 1.665 84 84 127
-3.812606 -15.729529 1.641 84 84 127
-3.814388 -15.728621 1.654 84 84 127
-3.933363 -15.671367 1.675 84 84 127
-3.969457 -15.654099 1.73 84 84 127
-3.89325 -15.689561 1.64 84 84 127
-3.854937 -15.709083 1.699 84 84 127
-3.887451 -15.691394 1.54 84 84 127
-3.952948 -15.659143 1.468 84 84 127
-3.960967 -15.655058 1.493 84 84 127
-3.768947 -15.751775 1.759 84 84 127
-3.749345 -15.761763 1.76 84 84 127
-3.885685 -15.694538 1.694 84 84 127
-3.894141 -15.689107 1.602 84 84 127
-3.944929 -15.663229 1.473 84 84 127
-3.895487 -15.689544 1.698 84 84 127
-3.864284 -15.703198 1.588 84 84 127
-3.86072 -15.705014 1.613 84 84 127
-3.861174 -15.705904 1.69 84 84 127
-3.836663 -15.717272 1.576 84 84 127
-3.918653 -15.67774 1.683 84 84 127
-3.800569 -15.73454 1.624 84 84 127
-3.811715 -15.729983 1.621 84 84 127
-3.891032 -15.691814 1.727 84 84 127
-3.89325 -15.689561 1.619 84 84 127
-3.920888 -15.677723 1.773 84 84 127
-3.805915 -15.731816 1.612 84 84 127
-3.780967 -15.744528 1.674 84 84 127
-3.759583 -15.755424 1.66 84 84 127
-3.785876 -15.743149 1.68 84 84 127
-3.902615 -15.685912 1.683 84 84 127
-3.808151 -15.731799 1.65 84 84 127
-3.832208 -15.719542 1.581 84 84 127
-3.86252 -15.706342 1.782 84 84 127
-3.871413 -15.699566 1.552 84 84 127
-3.85181 -15.709554 1.61 84 84 127
-3.846464 -15.712277 1.597 84 84 127
-3.894141 -15.689107 1.648 84 84 127
-3.886577 -15.694084 1.725 84 84 127
-3.799678 -15.734994 1.613 84 84 127
-3.741762 -15.764503 1.689 84 84 127
-3.856719 -15.708175 1.655 84 84 127
-3.883013 -15.6959 1.679 84 84 127
-3.86072 -15.705014 1.606 84 84 127
-3.887451 -15.691394 1.539 84 84 127
-3.86874 -15.700928 1.558 84 84 127
-3.78364 -15.743166 1.632 84 84 127
-3.953839 -15.658689 1.514 84 84 127
-3.816624 -15.728604 1.733 84 84 127
-3.80726 -15.732253 1.656 84 84 127
-3.846918 -15.713168 1.672 84 84 127
-3.768493 -15.750883 1.655 84 84 127
-3.840681 -15.716346 1.663 84 84 127
-3.79835 -15.736794 1.733 84 84 127
-3.976114 -15.64734 1.476 84 84 127
-3.890577 -15.690923 1.639 84 84 127
-3.809042 -15.731345 1.628 84 84 127
-3.92489 -15.674562 1.683 84 84 127
-3.862503 -15.704106 1.612 84 84 127
-3.882575 -15.697245 1.781 84 84 127
-3.854483 -15.708192 1.596 84 84 127
-3.796568 -15.737701 1.677 84 84 127
-3.880323 -15.695026 1.564 84 84 127
-3.822407 -15.724536 1.656 84 84 127
-3.866083 -15.704526 1.716 84 84 127
-3.923108 -15.67547 1.629 84 84 127
-3.882996 -15.693665 1.566 84 84 127
-3.86252 -15.706342 1.742 84 84 127
-3.82197 -15.72588 1.732 84 84 127
-3.847355 -15.711823 1.606 84 84 127
-3.828207 -15.722702 1.727 84 84 127
-3.933363 -15.671367 1.683 84 84 127
-3.684738 -15.793559 1.687 84 84 127
-3.803713 -15.736305 1.424 84 84 127
-3.685209 -15.796686 1.502 84 84 127
-3.890124 -15.690032 1.485 84 84 127
-3.758692 -15.755877 1.643 84 84 127
-3.714629 -15.78394 1.376 84 84 127
-3.695447 -15.790347 1.585 84 84 127
-3.651351 -15.813937 1.509 84 84 127
-3.737324 -15.76901 1.526 84 84 127
-3.794786 -15.738609 1.575 84 84 127
-3.637986 -15.820747 1.51 84 84 127
-3.771183 -15.751758 1.488 84 84 127
-3.69232 -15.790818 1.62 84 84 127
-3.734215 -15.771716 1.459 84 84 127
-3.735542 -15.769917 1.547 84 84 127
-3.69812 -15.788984 1.551 84 84 127
-3.709249 -15.782192 1.607 84 84 127
-3.867411 -15.702726 1.451 84 84 127
-3.735122 -15.773499 1.335 84 84 127
-3.746672 -15.763124 1.619 84 84 127
-3.865629 -15.703634 1.487 84 84 127
-3.811295 -15.733563 1.342 84 84 127
-3.787221 -15.743586 1.522 84 84 127
-3.724396 -15.774474 1.591 84 84 127
-3.646022 -15.818897 1.408 84 84 127
-3.674954 -15.800789 1.543 84 84 127
-3.705265 -15.787589 1.407 84 84 127
-3.677173 -15.798536 1.649 84 84 127
-3.716848 -15.781687 1.408 84 84 127
-3.800132 -15.735886 1.569 84 84 127
-3.729759 -15.773987 1.505 84 84 127
-3.813951 -15.729966 1.501 84 84 127
-3.81037 -15.729546 1.591 84 84 127
-3.78322 -15.746747 1.452 84 84 127
-3.758255 -15.757223 1.572 84 84 127
-3.71325 -15.779031 1.648 84 84 127
-3.768056 -15.752229 1.581 84 84 127
-3.65315 -15.815266 1.401 84 84 127
-3.637112 -15.823438 1.396 84 84 127
-3.731978 -15.771733 1.548 84 84 127
-3.756473 -15.758131 1.588 84 84 127
-3.690101 -15.793071 1.549 84 84 127
-3.704794 -15.784462 1.621 84 84 127
-3.869648 -15.70271 1.385 84 84 127
-3.698103 -15.786749 1.671 84 84 127
-3.772057 -15.749067 1.639 84 84 127
-3.775621 -15.747252 1.612 84 84 127
-3.688773 -15.79487 1.527 84 84 127
-3.894579 -15.687762 1.494 84 84 127
-3.696775 -15.788548 1.6 84 84 127
-3.764055 -15.755389 1.541 84 84 127
-3.662043 -15.80849 1.54 84 84 127
-3.712813 -15.780376 1.6 84 84 127
-3.700356 -15.788968 1.48 84 84 127
-3.730633 -15.771297 1.62 84 84 127
-3.739544 -15.766757 1.624 84 84 127
-3.800569 -15.73454 1.599 84 84 127
-3.698137 -15.791221 1.429 84 84 127
-3.784531 -15.742712 1.604 84 84 127
-3.735996 -15.770808 1.472 84 84 127
-3.689227 -15.79576 1.43 84 84 127
-3.737307 -15.766773 1.655 84 84 127
-3.772074 -15.751304 1.495 84 84 127
-3.815296 -15.730403 1.447 84 84 127
-3.839353 -15.718145 1.423 84 84 127
-3.688336 -15.796214 1.46 84 84 127
-3.685663 -15.797577 1.423 84 84 127
-3.805041 -15.734506 1.499 84 84 127
-3.757818 -15.758568 1.507 84 84 127
-3.855391 -15.709973 1.408 84 84 127
-3.88925 -15.692722 1.391 84 84 127
-3.726195 -15.775803 1.471 84 84 127
-3.70972 -15.785318 1.433 84 84 127
-3.732415 -15.770389 1.603 84 84 127
-3.744452 -15.765377 1.544 84 84 127
-3.770292 -15.752212 1.507 84 84 127
-3.70434 -15.783571 1.676 84 84 127
-3.699011 -15.78853 1.586 84 84 127
-3.784531 -15.742712 1.624 84 84 127
-3.784564 -15.747184 1.375 84 84 127
-3.747563 -15.762671 1.621 84 84 127
-3.667389 -15.805766 1.548 84 84 127
-3.776109 -15.752615 1.344 84 84 127
-3.719504 -15.778089 1.521 84 84 127
-3.693665 -15.791255 1.592 84 84 127
-3.747563 -15.762671 1.589 84 84 127
-3.76271 -15.754952 1.559 84 84 127
-3.729288 -15.770859 1.669 84 84 127
-3.743561 -15.765831 1.526 84 84 127
-3.731541 -15.773078 1.469 84 84 127
-3.680737 -15.79672 1.657 84 84 127
-3.880776 -15.695916 1.419 84 84 127
-3.682065 -15.794921 1.664 84 84 127
-3.680317 -15.800301 1.434 84 84 127
-3.737778 -15.7699 1.462 84 84 127
-3.753379 -15.763073 1.404 84 84 127
-3.824626 -15.722282 1.577 84 84 127
-3.855828 -15.708629 1.47 84 84 127
-3.698137 -15.791221 1.462 84 84 127
-3.754708 -15.761274 1.468 84 84 127
-3.712393 -15.783957 1.417 84 84 127
-3.679846 -15.797174 1.605 84 84 127
-3.80726 -15.732253 1.544 84 84 127
-3.867411 -15.702726 1.435 84 84 127
-3.724867 -15.777601 1.411 84 84 127
-3.699902 -15.788076 1.538 84 84 127
-3.757801 -15.756331 1.625 84 84 127
-3.808168 -15.734035 1.416 84 84 127
-3.860283 -15.706359 1.475 84 84 127
-3.789474 -15.745805 1.337 84 84 127
-3.691429 -15.791272 1.646 84 84 127
-3.729322 -15.775331 1.422 84 84 127
-3.838445 -15.716364 1.505 84 84 127
-3.681225 -15.802083 1.352 84 84 127
-3.720849 -15.778526 1.499 84 84 127
-3.832225 -15.721778 1.423 84 84 127
-3.733777 -15.773061 1.385 84 84 127
-3.868757 -15.703164 1.374 84 84 127
-3.726195 -15.775803 1.511 84 84 127
-3.706156 -15.787135 1.45 84 84 127
-3.717739 -15.781233 1.423 84 84 127
-3.681191 -15.79761 1.585 84 84 127
-3.721286 -15.777181 1.522 84 84 127
-3.803713 -15.736305 1.452 84 84 127
-3.743108 -15.76494 1.57 84 84 127
-3.697229 -15.789439 1.542 84 84 127
-3.736887 -15.770354 1.454 84 84 127
-3.731541 -15.773078 1.477 84 84 127
-3.86652 -15.70318 1.46 84 84 127
-3.782346 -15.749436 1.341 84 84 127
-3.660278 -15.811633 1.371 84 84 127
-3.658042 -15.81165 1.456 84 84 127
-3.68879 -15.797106 1.4 84 84 127
-3.736887 -15.770354 1.497 84 84 127
-3.740435 -15.766303 1.626 84 84 127
-3.693682 -15.79349 1.45 84 84 127
-3.679863 -15.79941 1.519 84 84 127
-3.785439 -15.744493 1.478 84 84 127
-3.894141 -15.689107 1.42 84 84 127
-3.695918 -15.793474 1.373 84 84 127
-3.731995 -15.773969 1.415 84 84 127
-3.725758 -15.777147 1.42 84 84 127
-3.826408 -15.721375 1.575 84 84 127
-3.757364 -15.757677 1.558 84 84 127
-3.704374 -15.788043 1.457 84 84 127
-3.873194 -15.698658 1.49 84 84 127
-3.685663 -15.797577 1.428 84 84 127
-3.688319 -15.793979 1.569 84 84 127
-3.667826 -15.80442 1.58 84 84 127
-3.731087 -15.772187 1.536 84 84 127
-3.773402 -15.749505 1.563 84 84 127
-3.673172 -15.801697 1.545 84 84 127
-3.695464 -15.792583 1.425 84 84 127
-3.714612 -15.781704 1.513 84 84 127
-3.691009 -15.794852 1.465 84 84 127
-3.815716 -15.726822 1.584 84 84 127
-3.832662 -15.720432 1.463 84 84 127
-3.717705 -15.776761 1.662 84 84 127
-3.798804 -15.737684 1.504 84 84 127
-3.765383 -15.753591 1.581 84 84 127
-3.73376 -15.770825 1.564 84 84 127
-3.804587 -15.733615 1.584 84 84 127
-3.713284 -15.783503 1.456 84 84 127
-3.731104 -15.774423 1.445 84 84 127
-3.701701 -15.789405 1.464 84 84 127
-3.726178 -15.773566 1.585 84 84 127
-3.674517 -15.802134 1.53 84 84 127
-3.726649 -15.776693 1.426 84 84 127
-3.724867 -15.777601 1.437 84 84 127
-3.810387 -15.731782 1.48 84 84 127
-3.74489 -15.764032 1.574 84 84 127
-3.748454 -15.762217 1.567 84 84 127
-3.729288 -15.770859 1.634 84 84 127
-3.765836 -15.754481 1.515 84 84 127
-3.776512 -15.746798 1.625 84 84 127
-3.666515 -15.808455 1.419 84 84 127
-3.841118 -15.715002 1.55 84 84 127
-3.803259 -15.735414 1.487 84 84 127
-3.710611 -15.784864 1.446 84 84 127
-3.743999 -15.764486 1.585 84 84 127
-3.692774 -15.791709 1.56 84 84 127
-3.868302 -15.702272 1.468 84 84 127
-3.682099 -15.799393 1.419 84 84 127
-3.719958 -15.77898 1.46 84 84 127
-3.842463 -15.715438 1.478 84 84 127
-3.746672 -15.763124 1.614 84 84 127
-3.760054 -15.758551 1.474 84 84 127
-3.760928 -15.755861 1.592 84 84 127
-3.743578 -15.768067 1.413 84 84 127
-3.737761 -15.767665 1.621 84 84 127
-3.754253 -15.760384 1.504 84 84 127
-3.723959 -15.775819 1.528 84 84 127
-3.879432 -15.69548 1.495 84 84 127
-3.743124 -15.767177 1.48 84 84 127
-3.69543 -15.788111 1.688 84 84 127
-3.782312 -15.744966 1.549 84 84 127
-3.727978 -15.774895 1.473 84 84 127
-3.738653 -15.767211 1.588 84 84 127
-3.683881 -15.798485 1.457 84 84 127
-3.688302 -15.791742 1.676 84 84 127
-3.688336 -15.796214 1.467 84 84 127
-3.784531 -15.742712 1.61 84 84 127
-3.683427 -15.797594 1.533 84 84 127
-3.701684 -15.787169 1.587 84 84 127
-3.664699 -15.804892 1.616 84 84 127
-3.812623 -15.731765 1.442 84 84 127
-3.759146 -15.756769 1.562 84 84 127
-3.704374 -15.788043 1.462 84 84 127
-3.768947 -15.751775 1.581 84 84 127
-3.789894 -15.742224 1.523 84 84 127
-3.813497 -15.729075 1.56 84 84 127
-3.789457 -15.743569 1.453 84 84 127
-3.662043 -15.80849 1.507 84 84 127
-3.69812 -15.788984 1.562 84 84 127
-3.713721 -15.782158 1.495 84 84 127
-3.681208 -15.799847 1.438 84 84 127
-3.812606 -15.729529 1.573 84 84 127
-3.792567 -15.740862 1.532 84 84 127
-3.805024 -15.73227 1.588 84 84 127
-3.8429 -15.714094 1.556 84 84 127
-3.863394 -15.703652 1.52 84 84 127
-3.681208 -15.799847 1.477 84 84 127
-3.708795 -15.781301 1.648 84 84 127
-3.806369 -15.732707 1.561 84 84 127
-3.675425 -15.803916 1.415 84 84 127
-3.788986 -15.740441 1.618 84 84 127
-3.678047 -15.795846 1.728 84 84 127
-3.727978 -15.774895 1.468 84 84 127
-3.6861 -15.796232 1.482 84 84 127
-3.815279 -15.728168 1.533 84 84 127
-3.706576 -15.783554 1.61 84 84 127
-3.691883 -15.792163 1.551 84 84 127
-3.793458 -15.740408 1.482 84 84 127
-3.682082 -15.797156 1.563 84 84 127
-3.733307 -15.769935 1.631 84 84 127
-3.72707 -15.773112 1.598 84 84 127
-3.735525 -15.767681 1.665 84 84 127
-3.704811 -15.786698 1.509 84 84 127
-3.694573 -15.793036 1.447 84 84 127
-3.688773 -15.79487 1.53 84 84 127
-3.678064 -15.798082 1.617 84 84 127
-3.704828 -15.788934 1.39 84 84 127
-3.711939 -15.783066 1.46 84 84 127
-3.773402 -15.749505 1.562 84 84 127
-3.682082 -15.797156 1.588 84 84 127
-3.768947 -15.751775 1.579 84 84 127
-3.822861 -15.725426 1.467 84 84 127
-3.701247 -15.788514 1.527 84 84 127
-3.857157 -15.70683 1.494 84 84 127
-3.650023 -15.815736 1.439 84 84 127
-3.743108 -15.76494 1.591 84 84 127
-3.712376 -15.781721 1.572 84 84 127
-3.711485 -15.782175 1.564 84 84 127
-3.743108 -15.76494 1.582 84 84 127
-3.809496 -15.732236 1.517 84 84 127
-3.678081 -15.800318 1.497 84 84 127
-3.683881 -15.798485 1.446 84 84 127
-3.683881 -15.798485 1.459 84 84 127
-3.744452 -15.765377 1.547 84 84 127
-3.820625 -15.725444 1.551 84 84 127
-3.729743 -15.77175 1.619 84 84 127
-3.743124 -15.767177 1.454 84 84 127
-3.671407 -15.80484 1.457 84 84 127
-3.885685 -15.694538 1.367 84 84 127
-3.805041 -15.734506 1.476 84 84 127
-3.743544 -15.763596 1.63 84 84 127
-3.793458 -15.740408 1.501 84 84 127
-3.705685 -15.784008 1.602 84 84 127
-3.805495 -15.735397 1.434 84 84 127
-3.669625 -15.805748 1.476 84 84 127
-3.731978 -15.771733 1.519 84 84 127
-3.723959 -15.775819 1.559 84 84 127
-3.688336 -15.796214 1.424 84 84 127
-3.638003 -15.822984 1.422 84 84 127
-3.876759 -15.696842 1.485 84 84 127
-3.878994 -15.696825 1.474 84 84 127
-3.732432 -15.772624 1.464 84 84 127
-3.760037 -15.756315 1.582 84 84 127
-3.711485 -15.782175 1.535 84 84 127
-3.741326 -15.765848 1.574 84 84 127
-3.680334 -15.802537 1.337 84 84 127
-3.761819 -15.755407 1.612 84 84 127
-3.667406 -15.808002 1.371 84 84 127
-3.735542 -15.769917 1.551 84 84 127
-3.738232 -15.770791 1.411 84 84 127
-3.642895 -15.819368 1.456 84 84 127
-3.666061 -15.807565 1.472 84 84 127
-3.694573 -15.793036 1.423 84 84 127
-3.862503 -15.704106 1.509 84 84 127
-3.754253 -15.760384 1.546 84 84 127
-3.763164 -15.755843 1.504 84 84 127
-3.793895 -15.739063 1.541 84 84 127
-3.699902 -15.788076 1.57 84 84 127
-3.792567 -15.740862 1.478 84 84 127
-3.727994 -15.77713 1.372 84 84 127
-3.811261 -15.729092 1.588 84 84 127
-3.705685 -15.784008 1.594 84 84 127
-3.747125 -15.764015 1.51 84 84 127
-3.728397 -15.771313 1.674 84 84 127
-3.695901 -15.791238 1.473 84 84 127
-3.694119 -15.792146 1.473 84 84 127
-3.733743 -15.768589 1.637 84 84 127
-3.759146 -15.756769 1.556 84 84 127
-3.703903 -15.784916 1.588 84 84 127
-3.686537 -15.794887 1.566 84 84 127
-3.728868 -15.774441 1.498 84 84 127
-3.734651 -15.770371 1.559 84 84 127
-3.726649 -15.776693 1.435 84 84 127
-3.658479 -15.810306 1.529 84 84 127
-3.752018 -15.760401 1.592 84 84 127
-3.729322 -15.775331 1.394 84 84 127
-3.769855 -15.753557 1.453 84 84 127
-3.690992 -15.792617 1.536 84 84 127
-3.760508 -15.759441 1.411 84 84 127
-3.67988 -15.801645 1.393 84 84 127
-3.744906 -15.766269 1.46 84 84 127
-3.744436 -15.763142 1.631 84 84 127
-3.831317 -15.719995 1.545 84 84 127
-3.724396 -15.774474 1.587 84 84 127
-3.681645 -15.798502 1.538 84 84 127
-3.858047 -15.706376 1.504 84 84 127
-3.698103 -15.786749 1.685 84 84 127
-3.74489 -15.764032 1.624 84 84 127
-3.722631 -15.777618 1.456 84 84 127
-3.764038 -15.753154 1.635 84 84 127
-3.678552 -15.803445 1.338 84 84 127
-3.727978 -15.774895 1.458 84 84 127
-3.789894 -15.742224 1.504 84 84 127
-3.80726 -15.732253 1.544 84 84 127
-3.658916 -15.80896 1.556 84 84 127
-3.690135 -15.797544 1.333 84 84 127
-3.850482 -15.711352 1.496 84 84 127
-3.779639 -15.746327 1.596 84 84 127
-3.7538 -15.759493 1.599 84 84 127
-3.762272 -15.756297 1.548 84 84 127
-3.719958 -15.77898 1.514 84 84 127
-3.759163 -15.759005 1.468 84 84 127
-3.838008 -15.717709 1.49 84 84 127
-3.738215 -15.768556 1.561 84 84 127
-3.705248 -15.785353 1.574 84 84 127
-3.794349 -15.739954 1.485 84 84 127
-3.732886 -15.773515 1.394 84 84 127
-3.743578 -15.768067 1.412 84 84 127
-3.721303 -15.779417 1.413 84 84 127
-3.7654 -15.755827 1.459 84 84 127
-3.740435 -15.766303 1.586 84 84 127
-3.704811 -15.786698 1.473 84 84 127
-3.752455 -15.759055 1.622 84 84 127
-3.685663 -15.797577 1.431 84 84 127
-3.691009 -15.794852 1.435 84 84 127
-3.793475 -15.742643 1.387 84 84 127
-3.744436 -15.763142 1.647 84 84 127
-3.715503 -15.78125 1.507 84 84 127
-3.673626 -15.802588 1.522 84 84 127
-3.756927 -15.759022 1.505 84 84 127
-3.706139 -15.784899 1.54 84 84 127
-3.728397 -15.771313 1.665 84 84 127
-3.681662 -15.800737 1.389 84 84 127
-3.806823 -15.733598 1.481 84 84 127
-3.65937 -15.809852 1.529 84 84 127
-3.854046 -15.709537 1.487 84 84 127
-3.789877 -15.739987 1.613 84 84 127
-3.662934 -15.808036 1.539 84 84 127
-3.688773 -15.79487 1.506 84 84 127
-3.784985 -15.743603 1.564 84 84 127
-3.774327 -15.753523 1.347 84 84 127
-3.788129 -15.745368 1.391 84 84 127
-3.743544 -15.763596 1.633 84 84 127
-3.793895 -15.739063 1.545 84 84 127
-3.859829 -15.705468 1.496 84 84 127
-3.880776 -15.695916 1.454 84 84 127
-3.772948 -15.748613 1.611 84 84 127
-3.801023 -15.735432 1.528 84 84 127
-3.696792 -15.790784 1.473 84 84 127
-3.74489 -15.764032 1.619 84 84 127
-3.804587 -15.733615 1.535 84 84 127
-3.689647 -15.79218 1.597 84 84 127
-3.762743 -15.759424 1.332 84 84 127
-3.685209 -15.796686 1.485 84 84 127
-3.65937 -15.809852 1.521 84 84 127
-3.764038 -15.753154 1.647 84 84 127
-3.838008 -15.717709 1.474 84 84 127
-3.793004 -15.739517 1.55 84 84 127
-3.788549 -15.741787 1.584 84 84 127
-3.676299 -15.801226 1.526 84 84 127
-3.759583 -15.755424 1.62 84 84 127
-3.690992 -15.792617 1.576 84 84 127
-3.824189 -15.723627 1.574 84 84 127
-3.817515 -15.72815 1.501 84 84 127
-3.662934 -15.808036 1.527 84 84 127
-3.723085 -15.778509 1.395 84 84 127
-3.747563 -15.762671 1.591 84 84 127
-3.706139 -15.784899 1.56 84 84 127
-3.699902 -15.788076 1.538 84 84 127
-3.662043 -15.80849 1.496 84 84 127
-3.79835 -15.736794 1.544 84 84 127
-3.676736 -15.799881 1.549 84 84 127
-3.770292 -15.752212 1.537 84 84 127
-3.80415 -15.73496 1.494 84 84 127
-3.777857 -15.747235 1.556 84 84 127
-3.694119 -15.792146 1.477 84 84 127
-3.702138 -15.78806 1.501 84 84 127
-3.685226 -15.798922 1.41 84 84 127
-3.73376 -15.770825 1.507 84 84 127
-3.800586 -15.736775 1.528 84 84 127
-3.694556 -15.790801 1.541 84 84 127
-3.695918 -15.793474 1.387 84 84 127
-3.809496 -15.732236 1.481 84 84 127
-3.717739 -15.781233 1.452 84 84 127
-3.720395 -15.777635 1.556 84 84 127
-3.69812 -15.788984 1.574 84 84 127
-3.673626 -15.802588 1.504 84 84 127
-3.685663 -15.797577 1.437 84 84 127
-3.720378 -15.775399 1.658 84 84 127
-3.752035 -15.762636 1.473 84 84 127
-3.73645 -15.771699 1.401 84 84 127
-3.775184 -15.748597 1.571 84 84 127
-3.803259 -15.735414 1.476 84 84 127
-3.756035 -15.759476 1.54 84 84 127
-3.745781 -15.763578 1.596 84 84 127
-3.673172 -15.801697 1.566 84 84 127
-3.731087 -15.772187 1.547 84 84 127
-3.695464 -15.792583 1.463 84 84 127
-3.695901 -15.791238 1.494 84 84 127
-3.80415 -15.73496 1.516 84 84 127
-3.693211 -15.790364 1.6 84 84 127
-3.691009 -15.794852 1.449 84 84 127
-3.809042 -15.731345 1.572 84 84 127
-3.771166 -15.749521 1.63 84 84 127
-3.710157 -15.783974 1.504 84 84 127
-3.685192 -15.79445 1.633 84 84 127
-3.727994 -15.77713 1.355 84 84 127
-3.741762 -15.764503 1.675 84 84 127
-3.813077 -15.732656 1.36 84 84 127
-3.717722 -15.778997 1.557 84 84 127
