ply
format ascii 1.0
element vertex 1339
property double x
property double y
property double z
property uchar red
property uchar green
property uchar blue
element face 0
property list uchar int vertex_indices
end_header
-2.085571 -15.749795 0.457 255 84 0
-2.155133 -15.663848 0.456 255 84 0
-2.158506 -15.577953 0.473 255 84 0
-2.082949 -15.757866 0.456 255 84 0
-2.085622 -15.756503 0.455 255 84 0
-2.017604 -15.81024 0.463 255 84 0
-2.141632 -15.652769 0.462 255 84 0
-2.110197 -15.6946 0.462 255 84 0
-2.105878 -15.714758 0.458 255 84 0
-2.117877 -15.645794 0.47 255 84 0
-2.065884 -15.748604 0.462 255 84 0
-2.113057 -15.717834 0.456 255 84 0
-2.160042 -15.662468 0.454 255 84 0
-2.103234 -15.661111 0.47 255 84 0
-2.088698 -15.749325 0.456 255 84 0
-2.127682 -15.700281 0.456 255 84 0
-2.07706 -15.689037 0.472 255 84 0
-2.073887 -15.742282 0.461 255 84 0
-2.155286 -15.683971 0.451 255 84 0
-2.07871 -15.729722 0.463 255 84 0
-2.070305 -15.741861 0.462 255 84 0
-2.119277 -15.71242 0.455 255 84 0
-2.038416 -15.782801 0.462 255 84 0
-2.063847 -15.715971 0.47 255 84 0
-2.019335 -15.802624 0.463 255 84 0
-2.089097 -15.684027 0.469 255 84 0
-2.061832 -15.745056 0.464 255 84 0
-2.122756 -15.699424 0.457 255 84 0
-2.078591 -15.71407 0.466 255 84 0
-2.102462 -15.677217 0.467 255 84 0
-2.069193 -15.713247 0.469 255 84 0
-2.151467 -15.652247 0.459 255 84 0
-2.091842 -15.75109 0.455 255 84 0
-2.103221 -15.718356 0.458 255 84 0
-2.029421 -15.77616 0.466 255 84 0
-2.164714 -15.629786 0.46 255 84 0
-2.037003 -15.77342 0.465 255 84 0
-2.128709 -15.717714 0.452 255 84 0
-2.074188 -15.723048 0.465 255 84 0
-2.089283 -15.708622 0.464 255 84 0
-2.081167 -15.758774 0.456 255 84 0
-2.12055 -15.644432 0.469 255 84 0
-2.005113 -15.81436 0.465 255 84 0
-2.128416 -15.620222 0.472 255 84 0
-2.07577 -15.754789 0.458 255 84 0
-2.089907 -15.731874 0.459 255 84 0
-2.017672 -15.819183 0.461 255 84 0
-2.159571 -15.659341 0.455 255 84 0
-2.054284 -15.75227 0.465 255 84 0
-2.111508 -15.690565 0.462 255 84 0
-2.167454 -15.637367 0.458 255 84 0
-2.121089 -15.656503 0.466 255 84 0
-2.130567 -15.609025 0.474 255 84 0
-2.127877 -15.60815 0.475 255 84 0
-2.064306 -15.776343 0.457 255 84 0
-2.117575 -15.665027 0.466 255 84 0
-2.0656 -15.770072 0.458 255 84 0
-2.113561 -15.725432 0.454 255 84 0
-2.157637 -15.640125 0.46 255 84 0
-2.138976 -15.656366 0.461 255 84 0
-2.166042 -15.627986 0.46 255 84 0
-2.14599 -15.696565 0.451 255 84 0
-2.063041 -15.727605 0.467 255 84 0
-1.970199 -15.869186 0.463 255 84 0
-2.06896 -15.741425 0.463 255 84 0
-2.140992 -15.627282 0.467 255 84 0
-2.068727 -15.769601 0.457 255 84 0
-2.094935 -15.746146 0.455 255 84 0
-2.028462 -15.767671 0.468 255 84 0
-2.142875 -15.63979 0.464 255 84 0
-2.045174 -15.789458 0.459 255 84 0
-2.005635 -15.824195 0.463 255 84 0
-2.013166 -15.814746 0.463 255 84 0
-2.101486 -15.666491 0.47 255 84 0
-2.083352 -15.752048 0.457 255 84 0
-2.138569 -15.602703 0.473 255 84 0
-2.018966 -15.812912 0.462 255 84 0
-2.170853 -15.672672 0.45 255 84 0
-2.152422 -15.601256 0.469 255 84 0
-1.979478 -15.854357 0.464 255 84 0
-2.039103 -15.755515 0.468 255 84 0
-2.170667 -15.648077 0.455 255 84 0
-2.098393 -15.671433 0.469 255 84 0
-2.058519 -15.720931 0.47 255 84 0
-2.156185 -15.566791 0.475 255 84 0
-2.048149 -15.768863 0.463 255 84 0
-2.105491 -15.722811 0.457 255 84 0
-2.136728 -15.713629 0.45 255 84 0
-2.051463 -15.792989 0.457 255 84 0
-2.126735 -15.634545 0.469 255 84 0
-2.132205 -15.706955 0.453 255 84 0
-2.111843 -15.675803 0.465 255 84 0
-2.142031 -15.587471 0.475 255 84 0
-2.094931 -15.686666 0.467 255 84 0
-2.104834 -15.695087 0.463 255 84 0
-2.154158 -15.653121 0.458 255 84 0
-2.065579 -15.708355 0.471 255 84 0
-1.994506 -15.830987 0.464 255 84 0
-2.031003 -15.807902 0.459 255 84 0
-2.12635 -15.642598 0.468 255 84 0
-2.065345 -15.736532 0.465 255 84 0
-2.152647 -15.689805 0.451 255 84 0
-2.037576 -15.789964 0.461 255 84 0
-2.074489 -15.703815 0.469 255 84 0
-2.127512 -15.677921 0.46 255 84 0
-1.966164 -15.867875 0.464 255 84 0
-2.156287 -15.580207 0.473 255 84 0
-2.134567 -15.605864 0.473 255 84 0
-2.110702 -15.702199 0.46 255 84 0
-2.149855 -15.675515 0.454 255 84 0
-2.141348 -15.674238 0.457 255 84 0
-2.169423 -15.661056 0.452 255 84 0
-2.159554 -15.657104 0.456 255 84 0
-2.087688 -15.734126 0.459 255 84 0
-1.994052 -15.830096 0.465 255 84 0
-2.077081 -15.750754 0.459 255 84 0
-2.07535 -15.75837 0.458 255 84 0
-2.118856 -15.716001 0.454 255 84 0
-2.147954 -15.660771 0.458 255 84 0
-2.118182 -15.686042 0.461 255 84 0
-2.0756 -15.73243 0.463 255 84 0
-2.139392 -15.593305 0.475 255 84 0
-2.100816 -15.696012 0.464 255 84 0
-2.107133 -15.644533 0.473 255 84 0
-2.155354 -15.692916 0.449 255 84 0
-2.080743 -15.702873 0.468 255 84 0
-2.035959 -15.75375 0.469 255 84 0
-2.142235 -15.614303 0.469 255 84 0
-2.165524 -15.677632 0.45 255 84 0
-2.073632 -15.708741 0.468 255 84 0
-2.142519 -15.592834 0.474 255 84 0
-2.166632 -15.646766 0.456 255 84 0
-2.144471 -15.614285 0.469 255 84 0
-2.044585 -15.770679 0.463 255 84 0
-2.12635 -15.642598 0.468 255 84 0
-2.118067 -15.729871 0.452 255 84 0
-2.107337 -15.671366 0.467 255 84 0
-2.055141 -15.747343 0.465 255 84 0
-2.125373 -15.631872 0.47 255 84 0
-2.122535 -15.670356 0.463 255 84 0
-2.160831 -15.648598 0.457 255 84 0
-2.132158 -15.524039 0.472 255 84 0
-2.115394 -15.495544 0.466 255 84 0
-2.104567 -15.483105 0.465 255 84 0
-2.113578 -15.49198 0.466 255 84 0
-2.056783 -15.433378 0.458 255 84 0
-2.036052 -15.412515 0.456 255 84 0
-2.056329 -15.432487 0.458 255 84 0
-2.08249 -15.461805 0.462 255 84 0
-2.113175 -15.497797 0.468 255 84 0
-2.099589 -15.475539 0.463 255 84 0
-2.113192 -15.500033 0.468 255 84 0
-2.134831 -15.522677 0.471 255 84 0
-2.123515 -15.504874 0.468 255 84 0
-2.083887 -15.46895 0.464 255 84 0
-2.06941 -15.447146 0.46 255 84 0
-2.012156 -15.563859 0.459 255 84 0
-2.021919 -15.494912 0.458 255 84 0
-1.998473 -15.587666 0.459 255 84 0
-2.035042 -15.633005 0.465 255 84 0
-2.083462 -15.648738 0.471 255 84 0
-1.97767 -15.734067 0.461 255 84 0
-2.02886 -15.702373 0.467 255 84 0
-2.041623 -15.734029 0.469 255 84 0
-2.008245 -15.637682 0.462 255 84 0
-2.034189 -15.461724 0.458 255 84 0
-2.066189 -15.553163 0.466 255 84 0
-2.020307 -15.518181 0.459 255 84 0
-2.091078 -15.65047 0.472 255 84 0
-2.067916 -15.486067 0.463 255 84 0
-2.006933 -15.641716 0.462 255 84 0
-2.11298 -15.589928 0.473 255 84 0
-2.061382 -15.567958 0.466 255 84 0
-1.964831 -15.810193 0.463 255 84 0
-2.035904 -15.687561 0.467 255 84 0
-1.994765 -15.68832 0.462 255 84 0
-2.115216 -15.589911 0.473 255 84 0
-2.000938 -15.73568 0.464 255 84 0
-2.047049 -15.447315 0.46 255 84 0
-2.108538 -15.534952 0.47 255 84 0
-2.019191 -15.665773 0.464 255 84 0
-1.989296 -15.615911 0.459 255 84 0
-2.092941 -15.60126 0.471 255 84 0
-2.067628 -15.683743 0.471 255 84 0
-2.062524 -15.541563 0.465 255 84 0
-2.042408 -15.660677 0.467 255 84 0
-2.052061 -15.695042 0.469 255 84 0
-2.012526 -15.789259 0.468 255 84 0
-2.064602 -15.461941 0.462 255 84 0
-2.03399 -15.494373 0.46 255 84 0
-1.993377 -15.800138 0.466 255 84 0
-2.055552 -15.6248 0.467 255 84 0
-2.02037 -15.467644 0.457 255 84 0
-2.0981 -15.573941 0.47 255 84 0
-2.034559 -15.687124 0.467 255 84 0
-2.029395 -15.419274 0.456 255 84 0
-2.060636 -15.705262 0.471 255 84 0
-2.071073 -15.666274 0.47 255 84 0
-2.056244 -15.656995 0.468 255 84 0
-1.981676 -15.790387 0.464 255 84 0
-2.070314 -15.625135 0.469 255 84 0
-2.040919 -15.523391 0.462 255 84 0
-2.015576 -15.660882 0.464 255 84 0
-2.045781 -15.574784 0.464 255 84 0
-2.090976 -15.637053 0.472 255 84 0
-2.022772 -15.666193 0.465 255 84 0
-2.043613 -15.583746 0.464 255 84 0
-1.999627 -15.739715 0.465 255 84 0
-1.979571 -15.748811 0.462 255 84 0
-2.087612 -15.60622 0.47 255 84 0
-2.001965 -15.753113 0.465 255 84 0
-2.058985 -15.664577 0.469 255 84 0
-2.072626 -15.517336 0.465 255 84 0
-2.024338 -15.695699 0.466 255 84 0
-2.005012 -15.800944 0.467 255 84 0
-2.108805 -15.511248 0.469 255 84 0
-2.055332 -15.595733 0.466 255 84 0
-2.031733 -15.432673 0.457 255 84 0
-2.087374 -15.574916 0.469 255 84 0
-2.031767 -15.437145 0.457 255 84 0
-2.029213 -15.689848 0.466 255 84 0
-2.110324 -15.593526 0.473 255 84 0
-2.092046 -15.542233 0.469 255 84 0
-2.001451 -15.626552 0.461 255 84 0
-2.151192 -15.55699 0.476 255 84 0
-2.100659 -15.616407 0.472 255 84 0
-2.030239 -15.471593 0.458 255 84 0
-1.989474 -15.757234 0.464 255 84 0
-2.038789 -15.596304 0.464 255 84 0
-2.107332 -15.611884 0.473 255 84 0
-2.011045 -15.770934 0.467 255 84 0
-2.028427 -15.52751 0.46 255 84 0
-2.040715 -15.496559 0.46 255 84 0
-2.010667 -15.66226 0.463 255 84 0
-2.008032 -15.491887 0.456 255 84 0
-1.9988 -15.689631 0.462 255 84 0
-2.090187 -15.650924 0.472 255 84 0
-2.037707 -15.74837 0.469 255 84 0
-2.027227 -15.428235 0.456 255 84 0
-2.118462 -15.605092 0.474 255 84 0
-2.08807 -15.666592 0.473 255 84 0
-2.025093 -15.441669 0.457 255 84 0
-2.025856 -15.542288 0.46 255 84 0
-2.100744 -15.627587 0.473 255 84 0
-1.969689 -15.802106 0.463 255 84 0
-1.981289 -15.79844 0.464 255 84 0
-2.091358 -15.569519 0.469 255 84 0
-1.996623 -15.57963 0.458 255 84 0
-2.02284 -15.439449 0.456 255 84 0
-2.103446 -15.571217 0.471 255 84 0
-2.011855 -15.583093 0.46 255 84 0
-2.142264 -15.559295 0.475 255 84 0
-2.114219 -15.517467 0.47 255 84 0
-1.997556 -15.70261 0.463 255 84 0
-2.015661 -15.436373 0.455 255 84 0
-1.96991 -15.831174 0.464 255 84 0
-2.093857 -15.486316 0.467 255 84 0
-2.07546 -15.65506 0.471 255 84 0
-2.003925 -15.65784 0.462 255 84 0
-1.981022 -15.822145 0.465 255 84 0
-1.985677 -15.787227 0.465 255 84 0
-2.079865 -15.646083 0.471 255 84 0
-2.030082 -15.627676 0.464 255 84 0
-2.082194 -15.540519 0.467 255 84 0
-2.033773 -15.524786 0.461 255 84 0
-2.040236 -15.610158 0.465 255 84 0
-2.093573 -15.507785 0.467 255 84 0
-2.091201 -15.489915 0.466 255 84 0
-2.00244 -15.580033 0.459 255 84 0
-2.070309 -15.565654 0.467 255 84 0
-2.059813 -15.714661 0.471 255 84 0
-2.082936 -15.579422 0.469 255 84 0
-2.008647 -15.631865 0.462 255 84 0
-2.123405 -15.608185 0.475 255 84 0
-2.035568 -15.466634 0.459 255 84 0
-2.004965 -15.618029 0.461 255 84 0
-2.008588 -15.506194 0.457 255 84 0
-2.014961 -15.756593 0.467 255 84 0
-2.094065 -15.57263 0.47 255 84 0
-2.03068 -15.52973 0.461 255 84 0
-2.064883 -15.616679 0.468 255 84 0
-2.101507 -15.492519 0.468 255 84 0
-2.075269 -15.570983 0.468 255 84 0
-2.033905 -15.483193 0.459 255 84 0
-2.083153 -15.549009 0.468 255 84 0
-2.030468 -15.619623 0.464 255 84 0
-2.06557 -15.589393 0.467 255 84 0
-2.096551 -15.546671 0.469 255 84 0
-2.019552 -15.536523 0.459 255 84 0
-2.036557 -15.655803 0.466 255 84 0
-2.038598 -15.512227 0.461 255 84 0
-2.066711 -15.562998 0.466 255 84 0
-2.008753 -15.469072 0.456 255 84 0
-2.055289 -15.707986 0.47 255 84 0
-2.040473 -15.641461 0.466 255 84 0
-1.968162 -15.836554 0.464 255 84 0
-2.103731 -15.549747 0.47 255 84 0
-1.986903 -15.772011 0.464 255 84 0
-2.061399 -15.570194 0.466 255 84 0
-2.091108 -15.595461 0.47 255 84 0
-2.059358 -15.478081 0.462 255 84 0
-1.980042 -15.751938 0.462 255 84 0
-2.068472 -15.500373 0.464 255 84 0
-2.015045 -15.532084 0.459 255 84 0
-1.995075 -15.788049 0.466 255 84 0
-2.0478 -15.605181 0.465 255 84 0
-2.033515 -15.667454 0.466 255 84 0
-2.114206 -15.574713 0.472 255 84 0
-2.093985 -15.620931 0.472 255 84 0
-1.9944 -15.75809 0.464 255 84 0
-2.019917 -15.70244 0.466 255 84 0
-2.05551 -15.501366 0.462 255 84 0
-1.965659 -15.860276 0.465 255 84 0
-2.039425 -15.56231 0.463 255 84 0
-1.992376 -15.668213 0.461 255 84 0
-2.058323 -15.577373 0.466 255 84 0
-2.078889 -15.635356 0.47 255 84 0
-2.02668 -15.53289 0.46 255 84 0
-1.964916 -15.821374 0.463 255 84 0
-2.136095 -15.571416 0.475 255 84 0
-2.089271 -15.530179 0.468 255 84 0
-2.109213 -15.564912 0.472 255 84 0
-2.085915 -15.618308 0.471 255 84 0
-1.963422 -15.860293 0.464 255 84 0
-2.066419 -15.701194 0.471 255 84 0
-2.02985 -15.655854 0.465 255 84 0
-2.122276 -15.577335 0.474 255 84 0
-2.039315 -15.665621 0.467 255 84 0
-1.981535 -15.713017 0.461 255 84 0
-1.960682 -15.852712 0.464 255 84 0
-2.000751 -15.711083 0.464 255 84 0
-2.0415 -15.658895 0.467 255 84 0
-2.019959 -15.590186 0.461 255 84 0
-2.029904 -15.486355 0.459 255 84 0
-2.051055 -15.503635 0.462 255 84 0
-2.038195 -15.518044 0.461 255 84 0
-1.996793 -15.60199 0.459 255 84 0
-2.014693 -15.54461 0.459 255 84 0
-2.057037 -15.466918 0.461 255 84 0
-2.019043 -15.705131 0.465 255 84 0
-2.010391 -15.567003 0.459 255 84 0
-2.152974 -15.556082 0.477 255 84 0
-2.019449 -15.523107 0.459 255 84 0
-1.985117 -15.713439 0.462 255 84 0
-2.039434 -15.681273 0.467 255 84 0
-2.036863 -15.696051 0.467 255 84 0
-2.042938 -15.553787 0.463 255 84 0
-2.087153 -15.545848 0.468 255 84 0
-1.992278 -15.714278 0.463 255 84 0
-2.007205 -15.677492 0.463 255 84 0
-2.06218 -15.67305 0.47 255 84 0
-2.045115 -15.663788 0.467 255 84 0
-2.050584 -15.500508 0.462 255 84 0
-2.042306 -15.647263 0.466 255 84 0
-2.063898 -15.486991 0.463 255 84 0
-2.057555 -15.65296 0.468 255 84 0
-2.070157 -15.54553 0.466 255 84 0
-2.102619 -15.521133 0.469 255 84 0
-1.982125 -15.731797 0.462 255 84 0
-2.063975 -15.614898 0.468 255 84 0
-1.990437 -15.825204 0.466 255 84 0
-2.015232 -15.556681 0.46 255 84 0
-2.135726 -15.581704 0.475 255 84 0
-2.118945 -15.550973 0.472 255 84 0
-2.040838 -15.571692 0.463 255 84 0
-2.058098 -15.488824 0.462 255 84 0
-2.029768 -15.468467 0.458 255 84 0
-1.999479 -15.779072 0.466 255 84 0
-2.061323 -15.677976 0.47 255 84 0
-2.021262 -15.702878 0.466 255 84 0
-2.039816 -15.613739 0.465 255 84 0
-2.022509 -15.74938 0.468 255 84 0
-1.991043 -15.610531 0.459 255 84 0
-2.049234 -15.44059 0.459 255 84 0
-2.080144 -15.565132 0.468 255 84 0
-2.074098 -15.652387 0.47 255 84 0
-1.988579 -15.698207 0.462 255 84 0
-2.040388 -15.630281 0.465 255 84 0
-2.002173 -15.603739 0.46 255 84 0
-2.000861 -15.607773 0.46 255 84 0
-2.100553 -15.54351 0.47 255 84 0
-1.979651 -15.70051 0.461 255 84 0
-2.026633 -15.585664 0.462 255 84 0
-2.003268 -15.630116 0.461 255 84 0
-2.145913 -15.568658 0.476 255 84 0
-2.000072 -15.621643 0.46 255 84 0
-2.102046 -15.50459 0.468 255 84 0
-1.988082 -15.809569 0.466 255 84 0
-2.022093 -15.576754 0.461 255 84 0
-2.058743 -15.573792 0.466 255 84 0
-2.058926 -15.538906 0.464 255 84 0
-2.005831 -15.732065 0.465 255 84 0
-2.124716 -15.60415 0.475 255 84 0
-2.045268 -15.448223 0.459 255 84 0
-2.022742 -15.485514 0.458 255 84 0
-2.056583 -15.466026 0.461 255 84 0
-1.981382 -15.692894 0.461 255 84 0
-2.050614 -15.681188 0.469 255 84 0
-2.122111 -15.614456 0.475 255 84 0
-2.045662 -15.559133 0.463 255 84 0
-2.004265 -15.702559 0.464 255 84 0
-2.106102 -15.567618 0.471 255 84 0
-2.063661 -15.455687 0.462 255 84 0
-2.087481 -15.647814 0.472 255 84 0
-2.018962 -15.753432 0.467 255 84 0
-2.023442 -15.636671 0.464 255 84 0
-2.059588 -15.626111 0.468 255 84 0
-2.080666 -15.574966 0.468 255 84 0
-2.002763 -15.622518 0.46 255 84 0
-1.99224 -15.650325 0.46 255 84 0
-2.035798 -15.614664 0.464 255 84 0
-2.03343 -15.656274 0.465 255 84 0
-2.120018 -15.515635 0.471 255 84 0
-1.973321 -15.809235 0.464 255 84 0
-1.965137 -15.850442 0.464 255 84 0
-2.001672 -15.655621 0.462 255 84 0
-2.052409 -15.623035 0.467 255 84 0
-2.002203 -15.784417 0.466 255 84 0
-2.023909 -15.580317 0.462 255 84 0
-2.084947 -15.490856 0.466 255 84 0
-2.056651 -15.474971 0.462 255 84 0
-2.024863 -15.765015 0.469 255 84 0
-2.012093 -15.614397 0.461 255 84 0
-2.069584 -15.528987 0.465 255 84 0
-1.976249 -15.841413 0.465 255 84 0
-1.990242 -15.681646 0.461 255 84 0
-2.01267 -15.69042 0.464 255 84 0
-2.02242 -15.44303 0.456 255 84 0
-2.034881 -15.493919 0.46 255 84 0
-2.033973 -15.727826 0.468 255 84 0
-1.974815 -15.770314 0.463 255 84 0
-2.039964 -15.574382 0.463 255 84 0
-2.125301 -15.563447 0.473 255 84 0
-2.076368 -15.656842 0.471 255 84 0
-2.01387 -15.554008 0.459 255 84 0
-2.097718 -15.641475 0.473 255 84 0
-2.031703 -15.723371 0.468 255 84 0
-2.128747 -15.545979 0.473 255 84 0
-2.124576 -15.52678 0.472 255 84 0
-2.001719 -15.602847 0.46 255 84 0
-2.023158 -15.65814 0.464 255 84 0
-2.151662 -15.560117 0.476 255 84 0
-1.988927 -15.626201 0.459 255 84 0
-1.987365 -15.656177 0.46 255 84 0
-2.052663 -15.656575 0.468 255 84 0
-2.029302 -15.760509 0.469 255 84 0
-2.014167 -15.475293 0.457 255 84 0
-1.998813 -15.632386 0.46 255 84 0
-2.005444 -15.740118 0.465 255 84 0
-2.090327 -15.492604 0.467 255 84 0
-1.96243 -15.847331 0.464 255 84 0
-2.043371 -15.492961 0.461 255 84 0
-2.076037 -15.495396 0.465 255 84 0
-2.061891 -15.635037 0.468 255 84 0
-2.100875 -15.585994 0.471 255 84 0
-1.985562 -15.831056 0.466 255 84 0
-2.124224 -15.539306 0.472 255 84 0
-2.065252 -15.60639 0.468 255 84 0
-2.029111 -15.676432 0.466 255 84 0
-2.079898 -15.650554 0.471 255 84 0
-1.996903 -15.734368 0.464 255 84 0
-2.112742 -15.558623 0.472 255 84 0
-2.073593 -15.644788 0.47 255 84 0
-2.057844 -15.690972 0.47 255 84 0
-2.042336 -15.592253 0.464 255 84 0
-1.97436 -15.769423 0.462 255 84 0
-1.962362 -15.838387 0.463 255 84 0
-1.975353 -15.782385 0.463 255 84 0
-2.034572 -15.629879 0.465 255 84 0
-2.033689 -15.749295 0.469 255 84 0
-2.023243 -15.669321 0.465 255 84 0
-2.085528 -15.626361 0.471 255 84 0
-1.987335 -15.711185 0.462 255 84 0
-2.026336 -15.428689 0.456 255 84 0
-2.103548 -15.584632 0.472 255 84 0
-2.02553 -15.676012 0.465 255 84 0
-2.093798 -15.596334 0.471 255 84 0
-2.051794 -15.718746 0.47 255 84 0
-2.118674 -15.515198 0.471 255 84 0
-2.036421 -15.637915 0.465 255 84 0
-2.029251 -15.753801 0.469 255 84 0
-2.034253 -15.646875 0.465 255 84 0
-2.047601 -15.63783 0.467 255 84 0
-2.068103 -15.510662 0.464 255 84 0
-2.082924 -15.636667 0.471 255 84 0
-2.029166 -15.74262 0.468 255 84 0
-2.08073 -15.52443 0.466 255 84 0
-2.058395 -15.645798 0.468 255 84 0
-2.113277 -15.511213 0.47 255 84 0
-2.050732 -15.461151 0.46 255 84 0
-2.011664 -15.734703 0.466 255 84 0
-2.06543 -15.512024 0.464 255 84 0
-2.050045 -15.488438 0.461 255 84 0
-2.024626 -15.498022 0.459 255 84 0
-2.082762 -15.497581 0.466 255 84 0
-2.098635 -15.52653 0.469 255 84 0
-2.025343 -15.651416 0.464 255 84 0
-2.093187 -15.515838 0.468 255 84 0
-1.985057 -15.823457 0.466 255 84 0
-1.962816 -15.839278 0.464 255 84 0
-2.025309 -15.411255 0.455 255 84 0
-2.100858 -15.583758 0.471 255 84 0
-2.075931 -15.658187 0.471 255 84 0
-2.030074 -15.744403 0.468 255 84 0
-2.035615 -15.649549 0.466 255 84 0
-2.037974 -15.724665 0.469 255 84 0
-1.981794 -15.806039 0.465 255 84 0
-2.00045 -15.730316 0.464 255 84 0
-2.018754 -15.431431 0.455 255 84 0
-2.024176 -15.556612 0.461 255 84 0
-1.968298 -15.854443 0.465 255 84 0
-2.071366 -15.528079 0.465 255 84 0
-2.095576 -15.535945 0.469 255 84 0
-1.988892 -15.621728 0.459 255 84 0
-2.030986 -15.569978 0.462 255 84 0
-1.998719 -15.737932 0.464 255 84 0
-1.964144 -15.83748 0.464 255 84 0
-1.985931 -15.820766 0.466 255 84 0
-2.061238 -15.666797 0.469 255 84 0
-2.001252 -15.659202 0.462 255 84 0
-1.995079 -15.611842 0.459 255 84 0
-2.121657 -15.613564 0.475 255 84 0
-2.067306 -15.641258 0.469 255 84 0
-2.068362 -15.603683 0.468 255 84 0
-2.006993 -15.767386 0.466 255 84 0
-2.062727 -15.568395 0.466 255 84 0
-2.000467 -15.732553 0.464 255 84 0
-2.078333 -15.62105 0.47 255 84 0
-2.01452 -15.698457 0.465 255 84 0
-2.086551 -15.584314 0.47 255 84 0
-2.029535 -15.732332 0.468 255 84 0
-2.02012 -15.493585 0.458 255 84 0
-2.034766 -15.537748 0.461 255 84 0
-2.051777 -15.716511 0.47 255 84 0
-2.038713 -15.468399 0.459 255 84 0
-2.033027 -15.662091 0.466 255 84 0
-2.012372 -15.769135 0.467 255 84 0
-2.03668 -15.495248 0.46 255 84 0
-2.004379 -15.658731 0.462 255 84 0
-1.980131 -15.822599 0.465 255 84 0
-2.000497 -15.677544 0.462 255 84 0
-2.048263 -15.725034 0.47 255 84 0
-2.029433 -15.483228 0.459 255 84 0
-2.085223 -15.586113 0.469 255 84 0
-2.054 -15.53805 0.464 255 84 0
-2.050125 -15.440136 0.46 255 84 0
-2.059821 -15.597934 0.467 255 84 0
-1.991676 -15.752744 0.464 255 84 0
-2.012793 -15.765554 0.467 255 84 0
-2.097714 -15.581994 0.471 255 84 0
-2.096063 -15.541308 0.469 255 84 0
-2.045531 -15.600726 0.465 255 84 0
-2.038233 -15.581998 0.463 255 84 0
-2.011181 -15.788821 0.468 255 84 0
-2.019637 -15.547703 0.46 255 84 0
-2.107176 -15.767967 0.456 255 84 0
-2.083238 -15.795877 0.459 255 84 0
-2.138815 -15.752969 0.455 255 84 0
-2.094384 -15.791321 0.459 255 84 0
-2.169699 -15.756312 0.458 255 84 0
-1.984858 -15.856106 0.462 255 84 0
-2.01379 -15.837996 0.461 255 84 0
-2.099661 -15.779653 0.457 255 84 0
-2.078579 -15.771316 0.454 255 84 0
-2.086416 -15.802114 0.46 255 84 0
-2.154132 -15.767612 0.459 255 84 0
-1.992525 -15.864545 0.464 255 84 0
-2.001384 -15.853297 0.462 255 84 0
-2.158434 -15.745217 0.455 255 84 0
-2.138497 -15.769966 0.458 255 84 0
-2.16462 -15.735332 0.454 255 84 0
-2.104469 -15.764857 0.455 255 84 0
-2.175245 -15.72094 0.453 255 84 0
-2.037495 -15.838264 0.462 255 84 0
-2.13411 -15.781179 0.46 255 84 0
-1.969342 -15.874112 0.464 255 84 0
-2.013001 -15.851867 0.463 255 84 0
-2.137538 -15.761476 0.457 255 84 0
-2.025458 -15.843275 0.462 255 84 0
-1.982673 -15.862831 0.463 255 84 0
-2.141709 -15.780675 0.46 255 84 0
-2.143945 -15.780659 0.46 255 84 0
-2.006327 -15.856389 0.463 255 84 0
-2.174133 -15.692326 0.448 255 84 0
-2.165227 -15.756347 0.457 255 84 0
-1.996929 -15.855567 0.462 255 84 0
-2.133469 -15.755692 0.455 255 84 0
-2.079237 -15.799039 0.459 255 84 0
-2.176458 -15.76297 0.459 255 84 0
-2.099543 -15.764 0.455 255 84 0
-2.063669 -15.810338 0.46 255 84 0
-1.992491 -15.860073 0.463 255 84 0
-2.162266 -15.719696 0.451 255 84 0
-2.068158 -15.812539 0.46 255 84 0
-2.096348 -15.755527 0.453 255 84 0
-2.076194 -15.810689 0.461 255 84 0
-2.068897 -15.791962 0.457 255 84 0
-2.151926 -15.71262 0.45 255 84 0
-2.08418 -15.802132 0.46 255 84 0
-2.050423 -15.832799 0.462 255 84 0
-2.084565 -15.794079 0.458 255 84 0
-2.061047 -15.818407 0.461 255 84 0
-2.052824 -15.795661 0.457 255 84 0
-2.128441 -15.74142 0.453 255 84 0
-2.111886 -15.799238 0.461 255 84 0
-2.105326 -15.759932 0.454 255 84 0
-2.165325 -15.710281 0.45 255 84 0
-2.0575 -15.822459 0.461 255 84 0
-2.044169 -15.833741 0.462 255 84 0
-2.051984 -15.802823 0.458 255 84 0
-2.158621 -15.769814 0.459 255 84 0
-2.145273 -15.778859 0.46 255 84 0
-2.115903 -15.798313 0.461 255 84 0
-2.102976 -15.803778 0.461 255 84 0
-2.170857 -15.732154 0.454 255 84 0
-2.105967 -15.785419 0.458 255 84 0
-2.111597 -15.761226 0.455 255 84 0
-2.071285 -15.812069 0.46 255 84 0
-2.141251 -15.720304 0.45 255 84 0
-2.054861 -15.828294 0.462 255 84 0
-2.102521 -15.802887 0.461 255 84 0
-2.084111 -15.793187 0.458 255 84 0
-2.149325 -15.782406 0.461 255 84 0
-2.034839 -15.841862 0.463 255 84 0
-2.007956 -15.835358 0.46 255 84 0
-2.05481 -15.821585 0.461 255 84 0
-2.160199 -15.742073 0.455 255 84 0
-2.04795 -15.801512 0.457 255 84 0
-2.092971 -15.78194 0.457 255 84 0
-2.056223 -15.830966 0.462 255 84 0
-2.154166 -15.772083 0.459 255 84 0
-2.091456 -15.759143 0.453 255 84 0
-2.153122 -15.752413 0.456 255 84 0
-2.168889 -15.708466 0.45 255 84 0
-2.137233 -15.721228 0.45 255 84 0
-2.150551 -15.767191 0.458 255 84 0
-2.0517 -15.824292 0.461 255 84 0
-2.100065 -15.773836 0.456 255 84 0
-2.08381 -15.812421 0.461 255 84 0
-2.022195 -15.825858 0.459 255 84 0
-2.080649 -15.808419 0.46 255 84 0
-2.105195 -15.801524 0.461 255 84 0
-2.177197 -15.742392 0.456 255 84 0
-2.173496 -15.726319 0.453 255 84 0
-2.085843 -15.785572 0.457 255 84 0
-2.056087 -15.813078 0.46 255 84 0
-2.131654 -15.75213 0.455 255 84 0
-1.991583 -15.858291 0.463 255 84 0
-2.087846 -15.813731 0.462 255 84 0
-2.09003 -15.807007 0.461 255 84 0
-2.144751 -15.769025 0.458 255 84 0
-1.988506 -15.865469 0.464 255 84 0
-2.111597 -15.761226 0.455 255 84 0
-2.034839 -15.841862 0.463 255 84 0
-2.020078 -15.841527 0.462 255 84 0
-2.081706 -15.770844 0.454 255 84 0
-1.937795 -15.783565 0.461 255 84 0
-1.992554 -15.573847 0.458 255 84 0
-1.919368 -15.535941 0.454 255 84 0
-1.953647 -15.750796 0.461 255 84 0
-1.969926 -15.597722 0.457 255 84 0
-1.946298 -15.489673 0.454 255 84 0
-1.892469 -15.527201 0.453 255 84 0
-1.947681 -15.789751 0.462 255 84 0
-1.897123 -15.492282 0.452 255 84 0
-1.945144 -15.573313 0.456 255 84 0
-1.936451 -15.783128 0.461 255 84 0
-1.931397 -15.411968 0.451 255 84 0
-1.941962 -15.507595 0.454 255 84 0
-1.942653 -15.539789 0.455 255 84 0
-1.939234 -15.678456 0.458 255 84 0
-1.869786 -15.484886 0.451 255 84 0
-1.948428 -15.416759 0.452 255 84 0
-1.895608 -15.469485 0.452 255 84 0
-1.93483 -15.687433 0.459 255 84 0
-1.991349 -15.415091 0.453 255 84 0
-1.953087 -15.677009 0.459 255 84 0
-1.919899 -15.42905 0.451 255 84 0
-1.891896 -15.510657 0.452 255 84 0
-1.900276 -15.613009 0.455 255 84 0
-1.861559 -15.402659 0.449 255 84 0
-1.952794 -15.579515 0.456 255 84 0
-1.974751 -15.585163 0.457 255 84 0
-1.87649 -15.425354 0.45 255 84 0
-1.908888 -15.451495 0.452 255 84 0
-1.911633 -15.518558 0.453 255 84 0
-1.875336 -15.508995 0.452 255 84 0
-1.921919 -15.695135 0.458 255 84 0
-1.965531 -15.725662 0.461 255 84 0
-1.89585 -15.56027 0.454 255 84 0
-1.932615 -15.749167 0.46 255 84 0
-1.934371 -15.627062 0.457 255 84 0
-1.944274 -15.399796 0.451 255 84 0
-1.925546 -15.407093 0.451 255 84 0
-1.968238 -15.493084 0.455 255 84 0
-1.910535 -15.668387 0.457 255 84 0
-1.925402 -15.505931 0.454 255 84 0
-1.874423 -15.447731 0.45 255 84 0
-1.936052 -15.612738 0.457 255 84 0
-1.912367 -15.438498 0.451 255 84 0
-1.953316 -15.589351 0.457 255 84 0
-2.004701 -15.465526 0.455 255 84 0
-1.888187 -15.611312 0.455 255 84 0
-1.880495 -15.481674 0.451 255 84 0
-1.925232 -15.483571 0.453 255 84 0
-1.994646 -15.43698 0.454 255 84 0
-1.961246 -15.750292 0.461 255 84 0
-1.933955 -15.690124 0.459 255 84 0
-1.995494 -15.54878 0.457 255 84 0
-1.920756 -15.424124 0.451 255 84 0
-1.918236 -15.44561 0.452 255 84 0
-1.850429 -15.409452 0.448 255 84 0
-1.878271 -15.424446 0.45 255 84 0
-1.926195 -15.551542 0.455 255 84 0
-1.864384 -15.421421 0.449 255 84 0
-1.944482 -15.721797 0.46 255 84 0
-1.97316 -15.670148 0.459 255 84 0
-1.848261 -15.418413 0.449 255 84 0
-1.925139 -15.589117 0.456 255 84 0
-1.956681 -15.855872 0.464 255 84 0
-1.976279 -15.550715 0.456 255 84 0
-1.974187 -15.687582 0.46 255 84 0
-1.857999 -15.463956 0.45 255 84 0
-1.886732 -15.478497 0.451 255 84 0
-1.901858 -15.409062 0.45 255 84 0
-1.934736 -15.557291 0.455 255 84 0
-2.006008 -15.40201 0.454 255 84 0
-1.982846 -15.473295 0.455 255 84 0
-1.896045 -15.46814 0.452 255 84 0
-1.977772 -15.511795 0.455 255 84 0
-1.935979 -15.780001 0.461 255 84 0
-1.902813 -15.59376 0.455 255 84 0
-1.93323 -15.653457 0.458 255 84 0
-1.877907 -15.494217 0.452 255 84 0
-1.906228 -15.395612 0.45 255 84 0
-1.978743 -15.463039 0.454 255 84 0
-1.944164 -15.503106 0.454 255 84 0
-1.936208 -15.456655 0.453 255 84 0
-1.882188 -15.410106 0.45 255 84 0
-1.916522 -15.691151 0.458 255 84 0
-1.992601 -15.521074 0.456 255 84 0
-1.955997 -15.471263 0.454 255 84 0
-1.916632 -15.58784 0.455 255 84 0
-1.981641 -15.550227 0.457 255 84 0
-1.993776 -15.499151 0.456 255 84 0
-1.891077 -15.579536 0.454 255 84 0
-1.922691 -15.679029 0.458 255 84 0
-1.934146 -15.538512 0.455 255 84 0
-1.86326 -15.450053 0.45 255 84 0
-1.934405 -15.395844 0.451 255 84 0
-1.913683 -15.493945 0.453 255 84 0
-1.900822 -15.508354 0.453 255 84 0
-1.911956 -15.561042 0.454 255 84 0
-1.950948 -15.866649 0.464 255 84 0
-1.93959 -15.725411 0.46 255 84 0
-1.93884 -15.803235 0.462 255 84 0
-1.885361 -15.592549 0.454 255 84 0
-1.98316 -15.396817 0.453 255 84 0
-1.994815 -15.45934 0.455 255 84 0
-1.914663 -15.564153 0.455 255 84 0
-1.960991 -15.716752 0.46 255 84 0
-1.929535 -15.696866 0.459 255 84 0
-1.899605 -15.406843 0.45 255 84 0
-1.95654 -15.542815 0.456 255 84 0
-1.930052 -15.64722 0.457 255 84 0
-1.975107 -15.39643 0.452 255 84 0
-1.941767 -15.599725 0.457 255 84 0
-1.969634 -15.735917 0.461 255 84 0
-1.980542 -15.464368 0.454 255 84 0
-1.986152 -15.614146 0.458 255 84 0
-1.977734 -15.68353 0.46 255 84 0
-1.931223 -15.565816 0.455 255 84 0
-1.96386 -15.62326 0.458 255 84 0
-1.911222 -15.641101 0.457 255 84 0
-1.928809 -15.660199 0.458 255 84 0
-1.907238 -15.41081 0.45 255 84 0
-1.972922 -15.638844 0.459 255 84 0
-1.947384 -15.397088 0.451 255 84 0
-1.881954 -15.438282 0.45 255 84 0
-1.848415 -15.438538 0.449 255 84 0
-1.961831 -15.473902 0.454 255 84 0
-1.974169 -15.449657 0.454 255 84 0
-1.92468 -15.528746 0.454 255 84 0
-1.888688 -15.55943 0.454 255 84 0
-2.001069 -15.458398 0.455 255 84 0
-2.00611 -15.415426 0.454 255 84 0
-1.993555 -15.470083 0.455 255 84 0
-1.872756 -15.404811 0.449 255 84 0
-1.962387 -15.723897 0.46 255 84 0
-1.954818 -15.669393 0.459 255 84 0
-1.855759 -15.404492 0.449 255 84 0
-1.909062 -15.533336 0.454 255 84 0
-1.8796 -15.422647 0.45 255 84 0
-1.917047 -15.524778 0.454 255 84 0
-1.977708 -15.562332 0.457 255 84 0
-1.959664 -15.718552 0.46 255 84 0
-1.96285 -15.608062 0.457 255 84 0
-1.944881 -15.656499 0.458 255 84 0
-2.00653 -15.411845 0.454 255 84 0
-1.942763 -15.436479 0.452 255 84 0
-1.939234 -15.442768 0.452 255 84 0
-1.987322 -15.532742 0.456 255 84 0
-1.916823 -15.671917 0.458 255 84 0
-2.007693 -15.447167 0.455 255 84 0
-1.930344 -15.509024 0.454 255 84 0
-1.992584 -15.518838 0.456 255 84 0
-1.863294 -15.454525 0.45 255 84 0
-1.877664 -15.403431 0.449 255 84 0
-1.927833 -15.649473 0.457 255 84 0
-1.958997 -15.807554 0.462 255 84 0
-1.972905 -15.40092 0.452 255 84 0
-1.896389 -15.572341 0.454 255 84 0
-1.988837 -15.555538 0.457 255 84 0
-1.865208 -15.412024 0.449 255 84 0
-1.940061 -15.49285 0.454 255 84 0
-1.931635 -15.443273 0.452 255 84 0
-1.95797 -15.554432 0.456 255 84 0
-1.911447 -15.493962 0.453 255 84 0
-1.972833 -15.568183 0.457 255 84 0
-1.964008 -15.583903 0.457 255 84 0
-1.936815 -15.713358 0.459 255 84 0
-1.926772 -15.627566 0.457 255 84 0
-1.910645 -15.565077 0.455 255 84 0
-1.96274 -15.711372 0.46 255 84 0
-1.954839 -15.731111 0.46 255 84 0
-1.886885 -15.498621 0.452 255 84 0
-1.891938 -15.398404 0.45 255 84 0
-1.992529 -15.452649 0.454 255 84 0
-1.922928 -15.474645 0.453 255 84 0
-1.912847 -15.560588 0.454 255 84 0
-1.920022 -15.739871 0.459 255 84 0
-1.935708 -15.744225 0.46 255 84 0
-1.91667 -15.416105 0.451 255 84 0
-1.890949 -15.444922 0.451 255 84 0
-1.955963 -15.702478 0.46 255 84 0
-2.008647 -15.396176 0.454 255 84 0
-1.850179 -15.435393 0.449 255 84 0
-1.924638 -15.405312 0.451 255 84 0
-1.979342 -15.60078 0.458 255 84 0
-1.933162 -15.408824 0.451 255 84 0
-1.975871 -15.497051 0.455 255 84 0
-1.968794 -15.743079 0.461 255 84 0
-1.860354 -15.479591 0.451 255 84 0
-1.945242 -15.762937 0.461 255 84 0
-1.907611 -15.460002 0.452 255 84 0
-1.965255 -15.394716 0.452 255 84 0
-2.006683 -15.43197 0.454 255 84 0
-1.917395 -15.452772 0.452 255 84 0
-1.906826 -15.533354 0.454 255 84 0
-1.958989 -15.688592 0.459 255 84 0
-1.896678 -15.610353 0.455 255 84 0
-1.914306 -15.517196 0.453 255 84 0
-1.979269 -15.532356 0.456 255 84 0
-1.894085 -15.563415 0.454 255 84 0
-1.92558 -15.647253 0.457 255 84 0
-1.944788 -15.762045 0.461 255 84 0
-2.008062 -15.436878 0.455 255 84 0
-1.910819 -15.646918 0.457 255 84 0
-1.929492 -15.573431 0.455 255 84 0
-1.961216 -15.805301 0.462 255 84 0
-1.97717 -15.550261 0.456 255 84 0
-1.908261 -15.604451 0.455 255 84 0
-1.972723 -15.671494 0.459 255 84 0
-1.892324 -15.626039 0.455 255 84 0
-1.975056 -15.625411 0.458 255 84 0
-1.971653 -15.530624 0.456 255 84 0
-1.956884 -15.411327 0.452 255 84 0
-1.917226 -15.430412 0.451 255 84 0
-1.862369 -15.450507 0.45 255 84 0
-1.849942 -15.404089 0.448 255 84 0
-1.866324 -15.500118 0.451 255 84 0
-1.949319 -15.416305 0.452 255 84 0
-1.885255 -15.519653 0.453 255 84 0
-1.897246 -15.567415 0.454 255 84 0
-1.910013 -15.422864 0.451 255 84 0
-1.972473 -15.697434 0.46 255 84 0
-1.943905 -15.645773 0.458 255 84 0
-1.948368 -15.526776 0.455 255 84 0
-1.924655 -15.643236 0.457 255 84 0
-1.867308 -15.394118 0.449 255 84 0
-1.941389 -15.491052 0.454 255 84 0
-1.941881 -15.791584 0.461 255 84 0
-1.962917 -15.617005 0.458 255 84 0
-1.948509 -15.839834 0.463 255 84 0
-1.903581 -15.518172 0.453 255 84 0
-1.912172 -15.530629 0.454 255 84 0
-1.91608 -15.633014 0.456 255 84 0
-2.000819 -15.484339 0.456 255 84 0
-1.995405 -15.478119 0.455 255 84 0
-1.899622 -15.409079 0.45 255 84 0
-1.896016 -15.523149 0.453 255 84 0
-1.876507 -15.42759 0.45 255 84 0
-1.926505 -15.651271 0.457 255 84 0
-1.88013 -15.551445 0.453 255 84 0
-1.980742 -15.667407 0.46 255 84 0
-1.874564 -15.525101 0.452 255 84 0
-1.853476 -15.457283 0.45 255 84 0
-1.965646 -15.681833 0.459 255 84 0
-1.888514 -15.477589 0.452 255 84 0
-1.940961 -15.611359 0.457 255 84 0
-1.955052 -15.876904 0.464 255 84 0
-1.880732 -15.512979 0.452 255 84 0
-2.004031 -15.495048 0.456 255 84 0
-1.960427 -15.583483 0.457 255 84 0
-1.985677 -15.551538 0.457 255 84 0
-1.870694 -15.486669 0.451 255 84 0
-1.915393 -15.6603 0.457 255 84 0
-1.904785 -15.44124 0.451 255 84 0
-1.917811 -15.625399 0.456 255 84 0
-1.968315 -15.62099 0.458 255 84 0
-1.982002 -15.656665 0.459 255 84 0
-1.954924 -15.74229 0.461 255 84 0
-1.976707 -15.666096 0.459 255 84 0
-1.888191 -15.435104 0.45 255 84 0
-1.911091 -15.682693 0.458 255 84 0
-1.994259 -15.445033 0.454 255 84 0
-1.861478 -15.450961 0.45 255 84 0
-1.87982 -15.451716 0.451 255 84 0
-1.960821 -15.458703 0.454 255 84 0
-2.002919 -15.466434 0.455 255 84 0
-1.952667 -15.444901 0.453 255 84 0
-1.944732 -15.460167 0.453 255 84 0
-1.959608 -15.416674 0.452 255 84 0
-1.949569 -15.86174 0.463 255 84 0
-1.952506 -15.777192 0.461 255 84 0
-1.950965 -15.868885 0.464 255 84 0
-1.999084 -15.432474 0.454 255 84 0
-1.892371 -15.573266 0.454 255 84 0
-1.947584 -15.600128 0.457 255 84 0
-1.957585 -15.798173 0.462 255 84 0
-2.009339 -15.428371 0.454 255 84 0
-1.914506 -15.484548 0.453 255 84 0
-1.889528 -15.552268 0.453 255 84 0
-1.886995 -15.395311 0.449 255 84 0
-1.915393 -15.424612 0.451 255 84 0
-1.951292 -15.499474 0.454 255 84 0
-1.93945 -15.412354 0.452 255 84 0
-1.920557 -15.692462 0.458 255 84 0
-1.955875 -15.867506 0.464 255 84 0
-1.930269 -15.616807 0.457 255 84 0
-1.883813 -15.565281 0.454 255 84 0
-1.95522 -15.427887 0.453 255 84 0
-1.869366 -15.488468 0.451 255 84 0
-1.869815 -15.429877 0.45 255 84 0
-1.951966 -15.529432 0.455 255 84 0
-1.975175 -15.641064 0.459 255 84 0
-1.931868 -15.650784 0.457 255 84 0
-1.912168 -15.471148 0.452 255 84 0
-1.920459 -15.738527 0.459 255 84 0
-1.876328 -15.521956 0.452 255 84 0
-1.918817 -15.581115 0.455 255 84 0
-1.965039 -15.660818 0.459 255 84 0
-1.969261 -15.686726 0.46 255 84 0
-1.860163 -15.395514 0.448 255 84 0
-1.987463 -15.610111 0.458 255 84 0
-1.98072 -15.60569 0.458 255 84 0
-1.977526 -15.597217 0.458 255 84 0
-1.847909 -15.430939 0.449 255 84 0
-1.952768 -15.458318 0.453 255 84 0
-1.874076 -15.519737 0.452 255 84 0
-1.868895 -15.48534 0.451 255 84 0
-1.953714 -15.524053 0.455 255 84 0
-1.943392 -15.7549 0.461 255 84 0
-1.991035 -15.491569 0.455 255 84 0
-1.967988 -15.519025 0.455 255 84 0
-1.920658 -15.470189 0.452 255 84 0
-1.885905 -15.428413 0.45 255 84 0
-1.940158 -15.446785 0.453 255 84 0
-1.950969 -15.692677 0.459 255 84 0
-1.944567 -15.497289 0.454 255 84 0
-1.932474 -15.671799 0.458 255 84 0
-1.961865 -15.478374 0.454 255 84 0
-1.862437 -15.459451 0.45 255 84 0
-1.934057 -15.70354 0.459 255 84 0
-1.964462 -15.584794 0.457 255 84 0
-1.959366 -15.797265 0.462 255 84 0
-1.974254 -15.460837 0.454 255 84 0
-1.947397 -15.575532 0.456 255 84 0
-1.981799 -15.629832 0.459 255 84 0
-1.943765 -15.568403 0.456 255 84 0
-1.967915 -15.4506 0.454 255 84 0
-1.867847 -15.406189 0.449 255 84 0
-1.891662 -15.538836 0.453 255 84 0
-1.969549 -15.489048 0.455 255 84 0
-1.913424 -15.636612 0.456 255 84 0
-1.954788 -15.724401 0.46 255 84 0
-1.892901 -15.466375 0.451 255 84 0
-1.888438 -15.585371 0.454 255 84 0
-1.98249 -15.426339 0.453 255 84 0
-1.919611 -15.626726 0.456 255 84 0
-1.927825 -15.766199 0.46 255 84 0
-1.946667 -15.479383 0.454 255 84 0
-1.881136 -15.507161 0.452 255 84 0
-1.870426 -15.510373 0.452 255 84 0
-1.958743 -15.774014 0.462 255 84 0
-1.946353 -15.555862 0.456 255 84 0
-1.961645 -15.684994 0.459 255 84 0
-1.851422 -15.422414 0.449 255 84 0
-1.951203 -15.664501 0.458 255 84 0
-1.933527 -15.574742 0.456 255 84 0
-1.892133 -15.541962 0.453 255 84 0
-1.906534 -15.671549 0.457 255 84 0
-1.941639 -15.465111 0.453 255 84 0
-1.924006 -15.734474 0.459 255 84 0
-1.92468 -15.528746 0.454 255 84 0
-1.95996 -15.639836 0.458 255 84 0
-1.992529 -15.452649 0.454 255 84 0
-1.917663 -15.429067 0.451 255 84 0
-1.915265 -15.525686 0.454 255 84 0
-1.960983 -15.833478 0.463 255 84 0
-1.974238 -15.69429 0.46 255 84 0
-1.943332 -15.62923 0.457 255 84 0
-1.921795 -15.620002 0.456 255 84 0
-1.93455 -15.532696 0.455 255 84 0
-1.939552 -15.425771 0.452 255 84 0
-1.953579 -15.506165 0.455 255 84 0
-1.966617 -15.633078 0.458 255 84 0
-1.971348 -15.726065 0.461 255 84 0
-1.932534 -15.56178 0.455 255 84 0
-1.947286 -15.443153 0.453 255 84 0
-1.93561 -15.554602 0.455 255 84 0
-1.967534 -15.518134 0.455 255 84 0
-1.967538 -15.577615 0.457 255 84 0
-1.967423 -15.621445 0.458 255 84 0
-1.922767 -15.571246 0.455 255 84 0
-1.981158 -15.604345 0.458 255 84 0
-2.000212 -15.463324 0.455 255 84 0
-1.890784 -15.482043 0.452 255 84 0
-1.894496 -15.440871 0.451 255 84 0
-1.915041 -15.672825 0.457 255 84 0
-1.974976 -15.438025 0.453 255 84 0
-1.999152 -15.441419 0.454 255 84 0
-1.898803 -15.477958 0.452 255 84 0
-1.966638 -15.459106 0.454 255 84 0
-1.980287 -15.430828 0.453 255 84 0
-1.962998 -15.804393 0.462 255 84 0
-1.969532 -15.722501 0.461 255 84 0
-1.960215 -15.673376 0.459 255 84 0
-1.946506 -15.575986 0.456 255 84 0
-1.938436 -15.809052 0.462 255 84 0
-1.922084 -15.422325 0.451 255 84 0
-1.908074 -15.579855 0.455 255 84 0
-1.933684 -15.654347 0.458 255 84 0
-1.844562 -15.402341 0.448 255 84 0
-1.879078 -15.412813 0.45 255 84 0
-1.903534 -15.570945 0.454 255 84 0
-2.003068 -15.427076 0.454 255 84 0
-1.967529 -15.694341 0.46 255 84 0
-1.885455 -15.487003 0.452 255 84 0
-1.919534 -15.734509 0.459 255 84 0
-1.979393 -15.60749 0.458 255 84 0
-1.92953 -15.401696 0.451 255 84 0
-1.893677 -15.509749 0.453 255 84 0
-1.865865 -15.439747 0.45 255 84 0
-1.959425 -15.451558 0.453 255 84 0
-1.874665 -15.538517 0.453 255 84 0
-1.958586 -15.694409 0.46 255 84 0
-1.984183 -15.590458 0.458 255 84 0
-1.928173 -15.694193 0.458 255 84 0
-1.958696 -15.591099 0.457 255 84 0
-1.922843 -15.699153 0.458 255 84 0
-1.858988 -15.417438 0.449 255 84 0
-1.987929 -15.553757 0.457 255 84 0
-1.839233 -15.407301 0.448 255 84 0
-1.929411 -15.621733 0.457 255 84 0
-1.988561 -15.460282 0.455 255 84 0
-1.986317 -15.577025 0.457 255 84 0
-1.914608 -15.497964 0.453 255 84 0
-1.975689 -15.531936 0.456 255 84 0
-1.90555 -15.541861 0.454 255 84 0
-1.911472 -15.61516 0.456 255 84 0
-1.986478 -15.480423 0.455 255 84 0
-1.922258 -15.739855 0.459 255 84 0
-1.884233 -15.5617 0.454 255 84 0
-1.975124 -15.634355 0.459 255 84 0
-1.906835 -15.416627 0.451 255 84 0
-1.916139 -15.522997 0.454 255 84 0
-1.954793 -15.783883 0.462 255 84 0
-1.9694 -15.528405 0.456 255 84 0
-1.944737 -15.519649 0.455 255 84 0
-1.845707 -15.435427 0.449 255 84 0
-1.935017 -15.712029 0.459 255 84 0
-1.94679 -15.554517 0.456 255 84 0
-2.006967 -15.410501 0.454 255 84 0
-1.922393 -15.522055 0.454 255 84 0
-1.980169 -15.650864 0.459 255 84 0
-1.940082 -15.790256 0.461 255 84 0
-1.967156 -15.409461 0.452 255 84 0
-1.852564 -15.396019 0.448 255 84 0
-1.962217 -15.465848 0.454 255 84 0
-1.920234 -15.414289 0.451 255 84 0
-1.969146 -15.730554 0.461 255 84 0
-1.925631 -15.418274 0.451 255 84 0
-1.931889 -15.712501 0.459 255 84 0
-1.963372 -15.617897 0.458 255 84 0
-1.933158 -15.585032 0.456 255 84 0
-1.950931 -15.628724 0.458 255 84 0
-1.994229 -15.500042 0.456 255 84 0
-1.998099 -15.538474 0.457 255 84 0
-1.895099 -15.402405 0.45 255 84 0
-1.9411 -15.453039 0.453 255 84 0
-1.937333 -15.428023 0.452 255 84 0
-1.981705 -15.49969 0.455 255 84 0
-1.857452 -15.568612 0.453 255 84 0
-1.806278 -15.602542 0.452 255 84 0
-1.888374 -15.635907 0.456 255 84 0
-1.818188 -15.462916 0.449 255 84 0
-1.865942 -15.567653 0.453 255 84 0
-1.828745 -15.675269 0.455 255 84 0
-1.802256 -15.543986 0.45 255 84 0
-1.844515 -15.690803 0.456 255 84 0
-1.81333 -15.471004 0.449 255 84 0
-1.701653 -15.546986 0.447 255 84 0
-1.823679 -15.597043 0.453 255 84 0
-1.803813 -15.690217 0.454 255 84 0
-1.836377 -15.443548 0.449 255 84 0
-1.869757 -15.775583 0.459 255 84 0
-1.74241 -15.61376 0.45 255 84 0
-1.759802 -15.4893 0.448 255 84 0
-1.791564 -15.549434 0.45 255 84 0
-1.694542 -15.552854 0.447 255 84 0
-1.79411 -15.649146 0.453 255 84 0
-1.807598 -15.481781 0.449 255 84 0
-1.831952 -15.626497 0.454 255 84 0
-1.78808 -15.502949 0.449 255 84 0
-1.838749 -15.461419 0.449 255 84 0
-1.766569 -15.614919 0.451 255 84 0
-1.914137 -15.730525 0.459 255 84 0
-1.793299 -15.601299 0.452 255 84 0
-1.812621 -15.436573 0.448 255 84 0
-1.812732 -15.568951 0.451 255 84 0
-1.775004 -15.547771 0.45 255 84 0
-1.884607 -15.610892 0.455 255 84 0
-1.754914 -15.552396 0.449 255 84 0
-1.912542 -15.756028 0.46 255 84 0
-1.765703 -15.500882 0.448 255 84 0
-1.797335 -15.602611 0.452 255 84 0
-1.813508 -15.612327 0.453 255 84 0
-1.906788 -15.705089 0.458 255 84 0
-1.818341 -15.483041 0.449 255 84 0
-1.794564 -15.650037 0.453 255 84 0
-1.768665 -15.537533 0.449 255 84 0
-1.780707 -15.592003 0.451 255 84 0
-1.847782 -15.532013 0.452 255 84 0
-1.824264 -15.556341 0.451 255 84 0
-1.83101 -15.620243 0.453 255 84 0
-1.788997 -15.623693 0.452 255 84 0
-1.833815 -15.577289 0.452 255 84 0
-1.832716 -15.727118 0.456 255 84 0
-1.811523 -15.586402 0.452 255 84 0
-1.773481 -15.6417 0.452 255 84 0
-1.797441 -15.675507 0.454 255 84 0
-1.80134 -15.658931 0.453 255 84 0
-1.852017 -15.736363 0.457 255 84 0
-1.815239 -15.60471 0.452 255 84 0
-1.891739 -15.666741 0.457 255 84 0
-1.872977 -15.669567 0.456 255 84 0
-1.813203 -15.572078 0.452 255 84 0
-1.793439 -15.44298 0.447 255 84 0
-1.765101 -15.539349 0.449 255 84 0
-1.772887 -15.563439 0.45 255 84 0
-1.88279 -15.607327 0.455 255 84 0
-1.868144 -15.563164 0.453 255 84 0
-1.911939 -15.794495 0.461 255 84 0
-1.83073 -15.701194 0.455 255 84 0
-1.835627 -15.521371 0.451 255 84 0
-1.843098 -15.62194 0.454 255 84 0
-1.867954 -15.714775 0.457 255 84 0
-1.91387 -15.75423 0.46 255 84 0
-1.687664 -15.530544 0.446 255 84 0
-1.884097 -15.7795 0.459 255 84 0
-1.821523 -15.548759 0.451 255 84 0
-1.86119 -15.648637 0.455 255 84 0
-1.702425 -15.53088 0.447 255 84 0
-1.892952 -15.708771 0.458 255 84 0
-1.867422 -15.585978 0.454 255 84 0
-1.853303 -15.61113 0.454 255 84 0
-1.824675 -15.433798 0.448 255 84 0
-1.824005 -15.46332 0.449 255 84 0
-1.722261 -15.492715 0.447 255 84 0
-1.849806 -15.621889 0.454 255 84 0
-1.870015 -15.632916 0.455 255 84 0
-1.863808 -15.581086 0.453 255 84 0
-1.873087 -15.566257 0.453 255 84 0
-1.834426 -15.657784 0.454 255 84 0
-1.802273 -15.546222 0.451 255 84 0
-1.763018 -15.559489 0.45 255 84 0
-1.745766 -15.525632 0.448 255 84 0
-1.831401 -15.671672 0.455 255 84 0
-1.855733 -15.518983 0.451 255 84 0
-1.783465 -15.601821 0.451 255 84 0
-1.742406 -15.554278 0.449 255 84 0
-1.774164 -15.554933 0.45 255 84 0
-1.899495 -15.745841 0.459 255 84 0
-1.908863 -15.801674 0.461 255 84 0
-1.836174 -15.652404 0.454 255 84 0
-1.850269 -15.741743 0.457 255 84 0
-1.839152 -15.691291 0.455 255 84 0
-1.780583 -15.51687 0.449 255 84 0
-1.868416 -15.59894 0.454 255 84 0
-1.785191 -15.534724 0.45 255 84 0
-1.922831 -15.756397 0.46 255 84 0
-1.87209 -15.729502 0.458 255 84 0
-1.89453 -15.681031 0.457 255 84 0
-1.694054 -15.54749 0.447 255 84 0
-1.85923 -15.743911 0.458 255 84 0
-1.707606 -15.565277 0.448 255 84 0
-1.847689 -15.637559 0.454 255 84 0
-1.718701 -15.554012 0.448 255 84 0
-1.777859 -15.511524 0.449 255 84 0
-1.813805 -15.533611 0.451 255 84 0
-1.867673 -15.560037 0.453 255 84 0
-1.914931 -15.776135 0.46 255 84 0
-1.813466 -15.488892 0.449 255 84 0
-1.821196 -15.446795 0.449 255 84 0
-1.839717 -15.588872 0.453 255 84 0
-1.856625 -15.518529 0.452 255 84 0
-1.866107 -15.530532 0.452 255 84 0
-1.717441 -15.564754 0.448 255 84 0
-1.858878 -15.756436 0.458 255 84 0
-1.741714 -15.522084 0.448 255 84 0
-1.820132 -15.601095 0.453 255 84 0
-1.760625 -15.479901 0.447 255 84 0
-1.783159 -15.561573 0.45 255 84 0
-1.837014 -15.409554 0.448 255 84 0
-1.823038 -15.571556 0.452 255 84 0
-1.768945 -15.456582 0.447 255 84 0
-1.819007 -15.629726 0.453 255 84 0
-1.737475 -15.493941 0.447 255 84 0
-1.714598 -15.543757 0.448 255 84 0
-1.876685 -15.568913 0.453 255 84 0
-1.74311 -15.529229 0.448 255 84 0
-1.771563 -15.62472 0.452 255 84 0
-1.792591 -15.566868 0.451 255 84 0
-1.834294 -15.463689 0.449 255 84 0
-1.843035 -15.672478 0.455 255 84 0
-1.895269 -15.660453 0.456 255 84 0
-1.8258 -15.640856 0.454 255 84 0
-1.723593 -15.550397 0.448 255 84 0
-1.833513 -15.596521 0.453 255 84 0
-1.807747 -15.678112 0.454 255 84 0
-1.860605 -15.68934 0.456 255 84 0
-1.730369 -15.55929 0.449 255 84 0
-1.868479 -15.548403 0.453 255 84 0
-1.872264 -15.575654 0.454 255 84 0
-1.764494 -15.518333 0.449 255 84 0
-1.770651 -15.563457 0.45 255 84 0
-1.858487 -15.705008 0.456 255 84 0
-1.837927 -15.706506 0.456 255 84 0
-1.829203 -15.499953 0.45 255 84 0
-1.923573 -15.7953 0.461 255 84 0
-1.891747 -15.785703 0.46 255 84 0
-1.741417 -15.600799 0.45 255 84 0
-1.896419 -15.75302 0.459 255 84 0
-1.874886 -15.567585 0.453 255 84 0
-1.885506 -15.729401 0.458 255 84 0
-1.736946 -15.600832 0.45 255 84 0
-1.783455 -15.482859 0.448 255 84 0
-1.868929 -15.725501 0.457 255 84 0
-1.86685 -15.569435 0.453 255 84 0
-1.859005 -15.655362 0.455 255 84 0
-1.868653 -15.630243 0.455 255 84 0
-1.865692 -15.593594 0.454 255 84 0
-1.911621 -15.811492 0.461 255 84 0
-1.708395 -15.551407 0.448 255 84 0
-1.800865 -15.596322 0.452 255 84 0
-1.705603 -15.537117 0.447 255 84 0
-1.739109 -15.53239 0.448 255 84 0
-1.718246 -15.553121 0.448 255 84 0
-1.729159 -15.576741 0.449 255 84 0
-1.76572 -15.503119 0.448 255 84 0
-1.6936 -15.546599 0.447 255 84 0
-1.78273 -15.446191 0.447 255 84 0
-1.77183 -15.601015 0.451 255 84 0
-1.873766 -15.655697 0.456 255 84 0
-1.824994 -15.652489 0.454 255 84 0
-1.84603 -15.713599 0.456 255 84 0
-1.891085 -15.698499 0.457 255 84 0
-1.934304 -15.853806 0.463 255 84 0
-1.77817 -15.611253 0.451 255 84 0
-1.77864 -15.61438 0.452 255 84 0
-1.801713 -15.472434 0.449 255 84 0
-1.844625 -15.587492 0.453 255 84 0
-1.867949 -15.655293 0.455 255 84 0
-1.925355 -15.794393 0.461 255 84 0
-1.863732 -15.688868 0.456 255 84 0
-1.772586 -15.582673 0.451 255 84 0
-1.82451 -15.706608 0.455 255 84 0
-1.856179 -15.6366 0.455 255 84 0
-1.838719 -15.516428 0.451 255 84 0
-1.815515 -15.699967 0.455 255 84 0
-1.81916 -15.649851 0.454 255 84 0
-1.795968 -15.540456 0.45 255 84 0
-1.745427 -15.480911 0.447 255 84 0
-1.757472 -15.594862 0.45 255 84 0
-1.845797 -15.506088 0.451 255 84 0
-1.76626 -15.51519 0.449 255 84 0
-1.725829 -15.55038 0.448 255 84 0
-1.815074 -15.641831 0.453 255 84 0
-1.798383 -15.446074 0.448 255 84 0
-1.805523 -15.620884 0.453 255 84 0
-1.798488 -15.51897 0.45 255 84 0
-1.794004 -15.576249 0.451 255 84 0
-1.809117 -15.564059 0.451 255 84 0
-1.815027 -15.458916 0.449 255 84 0
-1.93225 -15.818938 0.462 255 84 0
-1.753917 -15.479952 0.447 255 84 0
-1.68183 -15.527905 0.446 255 84 0
-1.873011 -15.674039 0.456 255 84 0
-1.926298 -15.800647 0.461 255 84 0
-1.782289 -15.623743 0.452 255 84 0
-1.87058 -15.766187 0.458 255 84 0
-1.888548 -15.71775 0.458 255 84 0
-1.856854 -15.666559 0.455 255 84 0
-1.732753 -15.519916 0.448 255 84 0
-1.844804 -15.728815 0.457 255 84 0
-1.91678 -15.784172 0.46 255 84 0
-1.841452 -15.640737 0.454 255 84 0
-1.774457 -15.652426 0.452 255 84 0
-1.911027 -15.733232 0.459 255 84 0
-1.896958 -15.765091 0.459 255 84 0
-1.679662 -15.536866 0.446 255 84 0
-1.79097 -15.471173 0.448 255 84 0
-1.811683 -15.489799 0.449 255 84 0
-1.84132 -15.446641 0.449 255 84 0
-1.822473 -15.438287 0.448 255 84 0
-1.817047 -15.489312 0.45 255 84 0
-1.749351 -15.585532 0.45 255 84 0
-1.751621 -15.589988 0.45 255 84 0
-1.709417 -15.50936 0.447 255 84 0
-1.874003 -15.687001 0.457 255 84 0
-1.854554 -15.717113 0.457 255 84 0
-1.783452 -15.659066 0.453 255 84 0
-1.892647 -15.668523 0.457 255 84 0
-1.788895 -15.610276 0.452 255 84 0
-1.787695 -15.511002 0.449 255 84 0
-1.772679 -15.477127 0.448 255 84 0
-1.799032 -15.590522 0.452 255 84 0
-1.857418 -15.56414 0.453 255 84 0
