ply
format ascii 1.0
element vertex 1267
property double x
property double y
property double z
property uchar red
property uchar green
property uchar blue
element face 0
property list uchar int vertex_indices
end_header
-3.041049 -15.24612 0.594 84 170 127
-3.018718 -15.191281 0.534 84 170 127
-3.062662 -15.147567 0.709 84 170 127
-3.056946 -15.16058 0.681 84 170 127
-3.033831 -15.179091 0.594 84 170 127
-3.034035 -15.205923 0.584 84 170 127
-3.091776 -15.330261 0.752 84 170 127
-3.073897 -15.213672 0.727 84 170 127
-3.073952 -15.27986 0.705 84 170 127
-3.037837 -15.235412 0.586 84 170 127
-3.078335 -15.209166 0.744 84 170 127
-3.026079 -15.159472 0.571 84 170 127
-3.08116 -15.227927 0.748 84 170 127
-3.055432 -15.137783 0.687 84 170 127
-3.102923 -15.325705 0.795 84 170 127
-3.085166 -15.284247 0.745 84 170 127
-3.037488 -15.071729 0.645 84 170 127
-3.064537 -15.276801 0.672 84 170 127
-3.073409 -15.208308 0.728 84 170 127
-3.069407 -15.211469 0.713 84 170 127
-3.055338 -15.243329 0.65 84 170 127
-3.047828 -15.078807 0.681 84 170 127
-3.075161 -15.262409 0.715 84 170 127
-3.088395 -15.297192 0.752 84 170 127
-3.049967 -15.124855 0.67 84 170 127
-3.07741 -15.205147 0.742 84 170 127
-3.078861 -15.278481 0.721 84 170 127
-3.050862 -15.183882 0.653 84 170 127
-3.116309 -15.380612 0.822 84 170 127
-3.088968 -15.313735 0.749 84 170 127
-3.057341 -15.271489 0.646 84 170 127
-3.033297 -15.226501 0.572 84 170 127
-3.065831 -15.27053 0.676 84 170 127
-3.049687 -15.205804 0.642 84 170 127
-3.06231 -15.160091 0.704 84 170 127
-3.060107 -15.16458 0.692 84 170 127
-3.076408 -15.308911 0.702 84 170 127
-3.037527 -15.135682 0.619 84 170 127
-3.04541 -15.113708 0.659 84 170 127
-3.03891 -15.200072 0.605 84 170 127
-3.086142 -15.294973 0.744 84 170 127
-3.088463 -15.306136 0.749 84 170 127
-3.036691 -15.202326 0.593 84 170 127
-3.076824 -15.245849 0.728 84 170 127
-3.046513 -15.259048 0.611 84 170 127
-3.037357 -15.113322 0.628 84 170 127
-3.062921 -15.240588 0.679 84 170 127
-3.047782 -15.131579 0.659 84 170 127
-3.119453 -15.382377 0.834 84 170 127
-3.084797 -15.294537 0.738 84 170 127
-3.051681 -15.115003 0.68 84 170 127
-3.055924 -15.202626 0.666 84 170 127
-3.041841 -15.056043 0.668 84 170 127
-3.07203 -15.203399 0.721 84 170 127
-3.099562 -15.354353 0.771 84 170 127
-3.096498 -15.304286 0.78 84 170 127
-3.034014 -15.144207 0.607 84 170 127
-3.042979 -15.205855 0.616 84 170 127
-3.069849 -15.269605 0.693 84 170 127
-3.064605 -15.285745 0.665 84 170 127
-3.043738 -15.246995 0.602 84 170 127
-3.047493 -15.093567 0.674 84 170 127
-3.042627 -15.218381 0.61 84 170 127
-3.014857 -15.271811 0.518 84 170 127
-3.006766 -15.44316 0.556 84 170 127
-3.010813 -15.387226 0.536 84 170 127
-3.015879 -15.229765 0.514 84 170 127
-3.013635 -15.346507 0.524 84 170 127
-3.014488 -15.2821 0.52 84 170 127
-3.016032 -15.249888 0.513 84 170 127
-3.011747 -15.274519 0.533 84 170 127
-3.006914 -15.403804 0.555 84 170 127
-3.010075 -15.407804 0.539 84 170 127
-3.012732 -15.404207 0.528 84 170 127
-3.004276 -15.409637 0.568 84 170 127
-3.014776 -15.320112 0.518 84 170 127
-3.013118 -15.396153 0.525 84 170 127
-3.008243 -15.402004 0.549 84 170 127
-3.004543 -15.385932 0.57 84 170 127
-3.006732 -15.438688 0.557 84 170 127
-3.004865 -15.428416 0.564 84 170 127
-3.012723 -15.285245 0.529 84 170 127
-3.008709 -15.34565 0.549 84 170 127
-3.006948 -15.408276 0.554 84 170 127
-3.01257 -15.265121 0.53 84 170 127
-3.014055 -15.342926 0.519 84 170 127
-3.014238 -15.308042 0.522 84 170 127
-3.012732 -15.404207 0.528 84 170 127
-3.010958 -15.288388 0.537 84 170 127
-3.014641 -15.302225 0.519 84 170 127
-3.010559 -15.353686 0.535 84 170 127
-2.998195 -15.49242 0.596 84 170 127
-2.999909 -15.482568 0.589 84 170 127
-3.008476 -15.373827 0.547 84 170 127
-3.006592 -15.36132 0.558 84 170 127
-3.001034 -15.453938 0.583 84 170 127
-3.000211 -15.463336 0.585 84 170 127
-3.002532 -15.474499 0.577 84 170 127
-3.01473 -15.372886 0.515 84 170 127
-3.003253 -15.451684 0.572 84 170 127
-3.011866 -15.290171 0.533 84 170 127
-3.013784 -15.30715 0.522 84 170 127
-3.007839 -15.407822 0.55 84 170 127
-2.997322 -15.495111 0.602 84 170 127
-3.00142 -15.445885 0.584 84 170 127
-3.010928 -15.343397 0.538 84 170 127
-3.006121 -15.358192 0.56 84 170 127
-3.006176 -15.424381 0.556 84 170 127
-3.013313 -15.304023 0.524 84 170 127
-3.016325 -15.347382 0.508 84 170 127
-3.008849 -15.423019 0.545 84 170 127
-3.013143 -15.281664 0.527 84 170 127
-3.014344 -15.380939 0.516 84 170 127
-3.008641 -15.336706 0.549 84 170 127
-3.010288 -15.31791 0.537 84 170 127
-3.008709 -15.34565 0.549 84 170 127
-3.01078 -15.382754 0.535 84 170 127
-3.010546 -15.410932 0.535 84 170 127
-3.011318 -15.394825 0.533 84 170 127
-3.003304 -15.458392 0.57 84 170 127
-3.015014 -15.351417 0.514 84 170 127
-2.998111 -15.48124 0.598 84 170 127
-2.998667 -15.495547 0.593 84 170 127
-3.011285 -15.390353 0.536 84 170 127
-2.998178 -15.490185 0.598 84 170 127
-3.015184 -15.373777 0.514 84 170 127
-3.007801 -15.343868 0.551 84 170 127
-3.008039 -15.375173 0.549 84 170 127
-3.009673 -15.413622 0.543 84 170 127
-3.007033 -15.419456 0.557 84 170 127
-3.007504 -15.422583 0.553 84 170 127
-3.007063 -15.364447 0.556 84 170 127
-3.005569 -15.403366 0.561 84 170 127
-3.009706 -15.418094 0.541 84 170 127
-3.015252 -15.38272 0.515 84 170 127
-3.002545 -15.417253 0.578 84 170 127
-2.998582 -15.484367 0.595 84 170 127
-3.009867 -15.321491 0.543 84 170 127
-3.016223 -15.333965 0.511 84 170 127
-3.004157 -15.393985 0.569 84 170 127
-3.01515 -15.369305 0.516 84 170 127
-3.012931 -15.371557 0.524 84 170 127
-3.002328 -15.447666 0.578 84 170 127
-3.008107 -15.384116 0.55 84 170 127
-3.008272 -15.346995 0.551 84 170 127
-2.999387 -15.472733 0.59 84 170 127
-3.011369 -15.401534 0.534 84 170 127
-3.014845 -15.329057 0.516 84 170 127
-3.004479 -15.436469 0.565 84 170 127
-2.998531 -15.47766 0.594 84 170 127
-3.009906 -15.385445 0.542 84 170 127
-3.008794 -15.356831 0.548 84 170 127
-3.007602 -15.376517 0.551 84 170 127
-3.003991 -15.431107 0.569 84 170 127
-2.998565 -15.482132 0.596 84 170 127
-3.007118 -15.430635 0.553 84 170 127
-3.005786 -15.372953 0.561 84 170 127
-3.014322 -15.319221 0.522 84 170 127
-2.999944 -15.487041 0.588 84 170 127
-3.015578 -15.248998 0.514 84 170 127
-3.001301 -15.430232 0.583 84 170 127
-3.002209 -15.432014 0.579 84 170 127
-3.000783 -15.479878 0.586 84 170 127
-3.057227 -15.315318 0.658 84 170 127
-3.007797 -15.520076 0.64 84 170 127
-3.041761 -15.340033 0.634 84 170 127
-3.006906 -15.52053 0.638 84 170 127
-3.000211 -15.463336 0.597 84 170 127
-3.089698 -15.409883 0.773 84 170 127
-3.113335 -15.401206 0.825 84 170 127
-3.021188 -15.398775 0.614 84 170 127
-3.026649 -15.352222 0.606 84 170 127
-3.063298 -15.349261 0.688 84 170 127
-3.012625 -15.331309 0.563 84 170 127
-3.031141 -15.413905 0.643 84 170 127
-3.077037 -15.391644 0.737 84 170 127
-3.014522 -15.286572 0.547 84 170 127
-3.007156 -15.494588 0.628 84 170 127
-3.014721 -15.253923 0.533 84 170 127
-3.066103 -15.306306 0.675 84 170 127
-3.046781 -15.471032 0.706 84 170 127
-2.998582 -15.484367 0.603 84 170 127
-3.028235 -15.443445 0.652 84 170 127
-3.068513 -15.38813 0.716 84 170 127
-3.074495 -15.351413 0.714 84 170 127
-3.060158 -15.406977 0.707 84 170 127
-3.060756 -15.30903 0.662 84 170 127
-3.087881 -15.40632 0.769 84 170 127
-3.028507 -15.47922 0.667 84 170 127
-3.11821 -15.395356 0.832 84 170 127
-3.082786 -15.383102 0.747 84 170 127
-3.032911 -15.470243 0.675 84 170 127
-3.079998 -15.428294 0.762 84 170 127
-3.028366 -15.401852 0.634 84 170 127
-3.034438 -15.435795 0.661 84 170 127
-3.012256 -15.341599 0.569 84 170 127
-3.00876 -15.352359 0.564 84 170 127
-3.11863 -15.391775 0.832 84 170 127
-3.032084 -15.42016 0.65 84 170 127
-3.053128 -15.364544 0.671 84 170 127
-3.017488 -15.382704 0.599 84 170 127
-3.024145 -15.375944 0.612 84 170 127
-3.031282 -15.491275 0.681 84 170 127
-3.025159 -15.450624 0.647 84 170 127
-3.093546 -15.386599 0.773 84 170 127
-3.00142 -15.445885 0.591 84 170 127
-3.086855 -15.388885 0.759 84 170 127
-3.099583 -15.416069 0.8 84 170 127
-3.055729 -15.294757 0.645 84 170 127
-3.023254 -15.376399 0.609 84 170 127
-3.019932 -15.469 0.645 84 170 127
-3.056815 -15.43786 0.713 84 170 127
-3.029257 -15.401398 0.635 84 170 127
-3.049462 -15.352943 0.658 84 170 127
-3.049904 -15.41108 0.685 84 170 127
-3.051779 -15.304626 0.641 84 170 127
-3.077359 -15.434128 0.759 84 170 127
-3.007895 -15.47401 0.62 84 170 127
-3.045342 -15.340452 0.641 84 170 127
-3.020954 -15.426952 0.628 84 170 127
-3.022991 -15.223897 0.539 84 170 127
-3.033679 -15.394655 0.642 84 170 127
-3.047684 -15.413333 0.681 84 170 127
-3.017479 -15.49943 0.653 84 170 127
-3.023767 -15.267271 0.56 84 170 127
-3.025842 -15.363856 0.609 84 170 127
-3.027153 -15.359822 0.61 84 170 127
-3.009872 -15.380973 0.582 84 170 127
-3.040998 -15.475101 0.694 84 170 127
-3.032936 -15.355753 0.62 84 170 127
-3.05525 -15.408356 0.696 84 170 127
-3.072174 -15.340249 0.705 84 170 127
-3.041328 -15.400859 0.661 84 170 127
-3.025223 -15.400087 0.625 84 170 127
-3.004063 -15.499532 0.623 84 170 127
-3.0474 -15.434802 0.69 84 170 127
-3.094925 -15.391508 0.779 84 170 127
-3.035091 -15.404037 0.647 84 170 127
-3.03698 -15.476027 0.686 84 170 127
-3.030386 -15.432248 0.651 84 170 127
-3.089409 -15.371871 0.757 84 170 127
-3.093312 -15.414776 0.784 84 170 127
-3.010636 -15.481593 0.629 84 170 127
-3.09526 -15.376746 0.773 84 170 127
-3.068886 -15.437322 0.74 84 170 127
-3.083422 -15.349109 0.732 84 170 127
-3.047095 -15.394554 0.671 84 170 127
-3.124095 -15.404703 0.849 84 170 127
-3.015548 -15.304007 0.557 84 170 127
-3.065199 -15.364005 0.698 84 170 127
-3.024574 -15.491325 0.665 84 170 127
-3.012893 -15.307604 0.553 84 170 127
-3.073905 -15.332633 0.703 84 170 127
-3.056493 -15.395376 0.692 84 170 127
-3.053455 -15.466509 0.719 84 170 127
-3.038982 -15.268497 0.595 84 170 127
-3.025345 -15.239532 0.551 84 170 127
-3.055482 -15.380178 0.683 84 170 127
-3.116428 -15.396264 0.828 84 170 127
-3.081152 -15.344653 0.726 84 170 127
-3.025689 -15.343733 0.599 84 170 127
-3.033891 -15.304762 0.6 84 170 127
-3.038825 -15.424581 0.666 84 170 127
-3.059598 -15.333189 0.671 84 170 127
-3.018646 -15.358544 0.59 84 170 127
-3.021798 -15.243584 0.543 84 170 127
-3.056345 -15.434734 0.711 84 170 127
-3.076714 -15.349159 0.716 84 170 127
-3.006864 -15.397095 0.582 84 170 127
-3.028333 -15.39738 0.631 84 170 127
-3.000211 -15.463336 0.597 84 170 127
-3.031956 -15.285545 0.586 84 170 127
-3.01204 -15.372011 0.58 84 170 127
-3.028265 -15.388436 0.625 84 170 127
-3.027094 -15.234151 0.551 84 170 127
-3.076014 -15.43369 0.756 84 170 127
-3.031095 -15.466679 0.668 84 170 127
-3.054486 -15.307736 0.647 84 170 127
-3.057787 -15.389107 0.694 84 170 127
-3.058882 -15.415483 0.708 84 170 127
-3.007839 -15.407822 0.588 84 170 127
-3.005743 -15.485208 0.62 84 170 127
-3.062407 -15.349715 0.685 84 170 127
-3.021998 -15.446623 0.637 84 170 127
-3.062674 -15.32601 0.675 84 170 127
-3.06242 -15.29247 0.658 84 170 127
-3.034858 -15.432214 0.66 84 170 127
-3.003927 -15.481644 0.614 84 170 127
-3.048593 -15.415115 0.684 84 170 127
-3.050192 -15.449092 0.703 84 170 127
-3.031027 -15.457735 0.665 84 170 127
-3.006737 -15.498169 0.628 84 170 127
-3.079612 -15.436347 0.765 84 170 127
-3.004603 -15.511602 0.629 84 170 127
-3.021642 -15.399667 0.616 84 170 127
-3.014709 -15.311168 0.56 84 170 127
-3.022414 -15.383561 0.61 84 170 127
-3.041209 -15.385206 0.654 84 170 127
-3.049012 -15.411534 0.685 84 170 127
-3.064987 -15.453899 0.74 84 170 127
-3.005494 -15.511148 0.632 84 170 127
-3.04471 -15.433928 0.684 84 170 127
-3.027599 -15.477439 0.665 84 170 127
-3.002545 -15.417253 0.582 84 170 127
-3.022923 -15.450641 0.643 84 170 127
-3.070812 -15.337577 0.699 84 170 127
-3.065844 -15.448973 0.739 84 170 127
-3.037518 -15.252408 0.584 84 170 127
-3.037043 -15.425488 0.663 84 170 127
-3.071474 -15.42478 0.741 84 170 127
-3.061414 -15.336753 0.677 84 170 127
-3.027577 -15.415722 0.638 84 170 127
-3.043302 -15.484028 0.704 84 170 127
-3.035155 -15.353499 0.624 84 170 127
-3.030798 -15.309705 0.595 84 170 127
-3.035168 -15.296254 0.599 84 170 127
-3.003406 -15.471808 0.608 84 170 127
-3.099919 -15.401309 0.794 84 170 127
-3.068967 -15.389021 0.718 84 170 127
-3.072179 -15.399731 0.731 84 170 127
-3.088098 -15.375907 0.756 84 170 127
-3.08408 -15.376831 0.746 84 170 127
-3.070176 -15.371571 0.714 84 170 127
-3.029979 -15.378584 0.624 84 170 127
-3.097008 -15.371367 0.773 84 170 127
-3.020806 -15.466311 0.644 84 170 127
-3.019342 -15.450221 0.634 84 170 127
-3.100911 -15.41427 0.802 84 170 127
-3.029992 -15.321339 0.598 84 170 127
-2.998684 -15.497784 0.609 84 170 127
-3.020118 -15.493595 0.657 84 170 127
-3.029843 -15.360696 0.618 84 170 127
-3.035248 -15.247953 0.578 84 170 127
-3.02109 -15.444841 0.636 84 170 127
-3.01958 -15.481524 0.649 84 170 127
-3.028243 -15.326719 0.598 84 170 127
-3.027403 -15.33388 0.599 84 170 127
-3.013376 -15.253486 0.529 84 170 127
-3.070375 -15.338921 0.697 84 170 127
-3.041995 -15.311856 0.622 84 170 127
-3.009044 -15.33089 0.556 84 170 127
-3.09291 -15.420592 0.786 84 170 127
-3.079086 -15.36703 0.731 84 170 127
-3.015527 -15.477978 0.64 84 170 127
-3.061312 -15.323338 0.669 84 170 127
-3.084449 -15.366543 0.742 84 170 127
-3.034748 -15.299836 0.6 84 170 127
-3.014683 -15.425658 0.612 84 170 127
-3.032575 -15.485003 0.681 84 170 127
-3.034778 -15.480515 0.683 84 170 127
-3.113653 -15.38421 0.818 84 170 127
-3.034985 -15.33114 0.615 84 170 127
-3.034319 -15.420142 0.655 84 170 127
-3.080957 -15.436783 0.767 84 170 127
-3.010653 -15.483829 0.63 84 170 127
-3.050922 -15.309552 0.641 84 170 127
-3.02594 -15.317792 0.589 84 170 127
-3.094233 -15.359313 0.762 84 170 127
-3.022698 -15.362092 0.602 84 170 127
-3.077779 -15.430546 0.757 84 170 127
-3.015748 -15.507046 0.652 84 170 127
-3.035719 -15.251081 0.579 84 170 127
-3.049021 -15.294808 0.629 84 170 127
-3.004678 -15.40382 0.58 84 170 127
-3.081288 -15.362541 0.735 84 170 127
-3.078369 -15.449326 0.768 84 170 127
-3.059412 -15.308593 0.659 84 170 127
-3.006885 -15.458813 0.61 84 170 127
-3.053679 -15.31937 0.651 84 170 127
-3.052293 -15.431187 0.699 84 170 127
-3.063587 -15.387273 0.706 84 170 127
-3.006753 -15.500405 0.629 84 170 127
-3.091599 -15.424628 0.787 84 170 127
-3.09484 -15.380327 0.772 84 170 127
-3.019537 -15.35809 0.593 84 170 127
-3.067197 -15.332684 0.688 84 170 127
-3.044065 -15.34896 0.642 84 170 127
-3.01462 -15.476195 0.637 84 170 127
-3.105986 -15.375771 0.796 84 170 127
-3.065721 -15.37384 0.705 84 170 127
-3.019223 -15.434568 0.627 84 170 127
-3.019206 -15.432333 0.625 84 170 127
-3.004462 -15.434234 0.593 84 170 127
-3.003809 -15.465991 0.607 84 170 127
-3.037866 -15.416091 0.66 84 170 127
-3.09745 -15.429502 0.803 84 170 127
-3.106809 -15.366373 0.793 84 170 127
-3.06668 -15.38233 0.709 84 170 127
-3.074682 -15.376008 0.725 84 170 127
-3.021005 -15.433661 0.631 84 170 127
-3.038804 -15.362864 0.638 84 170 127
-3.014412 -15.389883 0.596 84 170 127
-3.019342 -15.450221 0.634 84 170 127
-3.021582 -15.273996 0.559 84 170 127
-3.0182 -15.240927 0.535 84 170 127
-3.076311 -15.354977 0.72 84 170 127
-3.103835 -15.386968 0.797 84 170 127
-3.039678 -15.360173 0.637 84 170 127
-3.044142 -15.476866 0.703 84 170 127
-3.023182 -15.307974 0.578 84 170 127
-3.050489 -15.370378 0.669 84 170 127
-3.025969 -15.262782 0.563 84 170 127
-3.101315 -15.408454 0.801 84 170 127
-3.070664 -15.376933 0.716 84 170 127
-3.028943 -15.242188 0.56 84 170 127
-3.031778 -15.379911 0.63 84 170 127
-3.038172 -15.456339 0.681 84 170 127
-3.06898 -15.331776 0.693 84 170 127
-3.047057 -15.330601 0.642 84 170 127
-3.016499 -15.429222 0.618 84 170 127
-3.040022 -15.464375 0.688 84 170 127
-3.088819 -15.353092 0.747 84 170 127
-3.016589 -15.499884 0.651 84 170 127
-3.031914 -15.397799 0.64 84 170 127
-3.047736 -15.420041 0.685 84 170 127
-3.087847 -15.401848 0.767 84 170 127
-3.016274 -15.340673 0.577 84 170 127
-3.048864 -15.450891 0.703 84 170 127
-3.018603 -15.23511 0.534 84 170 127
-3.012948 -15.373794 0.585 84 170 127
-3.02997 -15.49531 0.678 84 170 127
-3.061126 -15.29874 0.658 84 170 127
-3.110441 -15.373501 0.805 84 170 127
-3.021001 -15.374179 0.603 84 170 127
-3.029554 -15.322683 0.599 84 170 127
-3.089846 -15.370526 0.757 84 170 127
-3.076146 -15.392097 0.735 84 170 127
-3.012295 -15.405551 0.598 84 170 127
-3.055805 -15.422663 0.703 84 170 127
-3.061347 -15.327809 0.674 84 170 127
-3.010725 -15.316566 0.553 84 170 127
-3.032992 -15.421942 0.652 84 170 127
-3.010907 -15.517368 0.646 84 170 127
-3.058389 -15.35064 0.676 84 170 127
-3.042156 -15.450942 0.686 84 170 127
-3.021565 -15.271761 0.557 84 170 127
-3.101934 -15.372223 0.786 84 170 127
-3.010708 -15.314329 0.552 84 170 127
-3.017959 -15.385831 0.602 84 170 127
-3.095867 -15.397761 0.783 84 170 127
-3.110106 -15.388262 0.81 84 170 127
-3.058478 -15.421301 0.71 84 170 127
-3.022825 -15.496706 0.662 84 170 127
-3.07186 -15.416727 0.738 84 170 127
-3.012863 -15.362614 0.58 84 170 127
-3.011921 -15.356359 0.575 84 170 127
-3.043064 -15.452724 0.69 84 170 127
-3.039483 -15.452304 0.681 84 170 127
-3.10787 -15.388278 0.805 84 170 127
-3.017929 -15.44084 0.626 84 170 127
-3.082905 -15.398754 0.754 84 170 127
-3.025405 -15.365202 0.608 84 170 127
-3.030653 -15.408543 0.641 84 170 127
-3.09013 -15.349058 0.749 84 170 127
-3.056896 -15.389561 0.692 84 170 127
-3.052436 -15.332349 0.655 84 170 127
-3.033301 -15.285982 0.59 84 170 127
-3.063587 -15.387273 0.706 84 170 127
-3.065 -15.396654 0.712 84 170 127
-3.067791 -15.410944 0.726 84 170 127
-3.099698 -15.372241 0.78 84 170 127
-3.036789 -15.39195 0.647 84 170 127
-3.040883 -15.283242 0.607 84 170 127
-3.079057 -15.422039 0.758 84 170 127
-3.04328 -15.422311 0.676 84 170 127
-3.07988 -15.412641 0.755 84 170 127
-3.051567 -15.39452 0.682 84 170 127
-3.067482 -15.311214 0.679 84 170 127
-3.104407 -15.40351 0.807 84 170 127
-3.084615 -15.329421 0.726 84 170 127
-3.038321 -15.416982 0.663 84 170 127
-3.007169 -15.437344 0.601 84 170 127
-3.040183 -15.367773 0.644 84 170 127
-3.060129 -15.461987 0.732 84 170 127
-3.083376 -15.401881 0.757 84 170 127
-3.028175 -15.317775 0.593 84 170 127
-3.01134 -15.456543 0.618 84 170 127
-3.016979 -15.315623 0.568 84 170 127
-3.025481 -15.25742 0.561 84 170 127
-3.024909 -15.476564 0.658 84 170 127
-3.090266 -15.366945 0.757 84 170 127
-3.062836 -15.465096 0.74 84 170 127
-3.077673 -15.35765 0.722 84 170 127
-3.081254 -15.358069 0.732 84 170 127
-3.020139 -15.319624 0.576 84 170 127
-3.111383 -15.379755 0.81 84 170 127
-3.058436 -15.297867 0.652 84 170 127
-3.018841 -15.266414 0.547 84 170 127
-3.036012 -15.348574 0.625 84 170 127
-3.065475 -15.459263 0.742 84 170 127
-3.086668 -15.364289 0.746 84 170 127
-3.031298 -15.257822 0.572 84 170 127
-3.063256 -15.461515 0.74 84 170 127
-3.053416 -15.402555 0.688 84 170 127
-3.000211 -15.463336 0.597 84 170 127
-3.07346 -15.450704 0.757 84 170 127
-3.036585 -15.365117 0.634 84 170 127
-3.018841 -15.502103 0.657 84 170 127
-3.092922 -15.363348 0.76 84 170 127
-3.084636 -15.391138 0.755 84 170 127
-3.047565 -15.39768 0.674 84 170 127
-3.079807 -15.344216 0.721 84 170 127
-3.063222 -15.457044 0.737 84 170 127
-3.097933 -15.375384 0.777 84 170 127
-3.033059 -15.430886 0.656 84 170 127
-3.080142 -15.329455 0.715 84 170 127
-3.048974 -15.347581 0.655 84 170 127
-3.018222 -15.302645 0.562 84 170 127
-3.029916 -15.429121 0.649 84 170 127
-3.024557 -15.48909 0.665 84 170 127
-3.016109 -15.377794 0.593 84 170 127
-3.013308 -15.244542 0.527 84 170 127
-3.097313 -15.411614 0.794 84 170 127
-3.095544 -15.355277 0.763 84 170 127
-3.061741 -15.438718 0.725 84 170 127
-3.027925 -15.343716 0.604 84 170 127
-3.044528 -15.468813 0.698 84 170 127
-3.035486 -15.279257 0.593 84 170 127
-3.08425 -15.399192 0.759 84 170 127
-3.036127 -15.304745 0.605 84 170 127
-3.010504 -15.287498 0.54 84 170 127
-3.053722 -15.442804 0.71 84 170 127
-3.013325 -15.246778 0.528 84 170 127
-3.052148 -15.294336 0.635 84 170 127
-3.008294 -15.408712 0.59 84 170 127
-3.01232 -15.291061 0.544 84 170 127
-3.01983 -15.219895 0.529 84 170 127
-3.037175 -15.383896 0.645 84 170 127
-3.028324 -15.278418 0.575 84 170 127
-3.047031 -15.445091 0.695 84 170 127
-3.049509 -15.300171 0.633 84 170 127
-3.052577 -15.409719 0.691 84 170 127
-3.033428 -15.420596 0.652 84 170 127
-3.019804 -15.334386 0.581 84 170 127
-3.007267 -15.391279 0.579 84 170 127
-3.10498 -15.420053 0.814 84 170 127
-3.071071 -15.430597 0.743 84 170 127
-3.085175 -15.40321 0.762 84 170 127
-3.042054 -15.437526 0.681 84 170 127
-3.0365 -15.353937 0.629 84 170 127
-3.015193 -15.257051 0.536 84 170 127
-3.084937 -15.371905 0.747 84 170 127
-3.010062 -15.46505 0.619 84 170 127
-3.015023 -15.470379 0.633 84 170 127
-3.050133 -15.323421 0.645 84 170 127
-3.026614 -15.347751 0.605 84 170 127
-3.01641 -15.358562 0.585 84 170 127
-3.046988 -15.321657 0.637 84 170 127
-3.035295 -15.430869 0.661 84 170 127
-3.022791 -15.256545 0.553 84 170 127
-3.029016 -15.310613 0.592 84 170 127
-3.064983 -15.394418 0.711 84 170 127
-3.059675 -15.461095 0.73 84 170 127
-3.089795 -15.363818 0.755 84 170 127
-3.063336 -15.413214 0.718 84 170 127
-3.074882 -15.343359 0.712 84 170 127
-3.106979 -15.388732 0.804 84 170 127
-3.017831 -15.251216 0.539 84 170 127
-3.099953 -15.405781 0.796 84 170 127
-3.078988 -15.413095 0.752 84 170 127
-3.074618 -15.426545 0.749 84 170 127
-3.084733 -15.345073 0.733 84 170 127
-3.021039 -15.438132 0.632 84 170 127
-3.055241 -15.289394 0.641 84 170 127
-3.08052 -15.438128 0.767 84 170 127
-3.047672 -15.470578 0.709 84 170 127
-3.066697 -15.384566 0.711 84 170 127
-3.051579 -15.337275 0.656 84 170 127
-3.095999 -15.356169 0.766 84 170 127
-3.052267 -15.309989 0.644 84 170 127
-3.007004 -15.474464 0.618 84 170 127
-3.051409 -15.314915 0.645 84 170 127
-3.0221 -15.224351 0.536 84 170 127
-3.03266 -15.260495 0.578 84 170 127
-3.019435 -15.344675 0.586 84 170 127
-3.088938 -15.368744 0.754 84 170 127
-3.079426 -15.41175 0.753 84 170 127
-3.025999 -15.443461 0.646 84 170 127
-3.085187 -15.345964 0.736 84 170 127
-3.106928 -15.382025 0.801 84 170 127
-3.038558 -15.448286 0.676 84 170 127
-3.030823 -15.430902 0.652 84 170 127
-3.106105 -15.391422 0.803 84 170 127
-3.010822 -15.506188 0.641 84 170 127
-3.094199 -15.354841 0.759 84 170 127
-2.996918 -15.500928 0.606 84 170 127
-3.019953 -15.295028 0.565 84 170 127
-3.082485 -15.402335 0.755 84 170 127
-3.034188 -15.461736 0.672 84 170 127
-3.050395 -15.475924 0.716 84 170 127
-3.081428 -15.439911 0.77 84 170 127
-3.107552 -15.405275 0.813 84 170 127
-3.111166 -15.410168 0.825 84 170 127
-3.043981 -15.33778 0.638 84 170 127
-3.023093 -15.237312 0.544 84 170 127
-3.017148 -15.337984 0.577 84 170 127
-3.057201 -15.429808 0.711 84 170 127
-3.011688 -15.384537 0.586 84 170 127
-3.073821 -15.321453 0.699 84 170 127
-3.065772 -15.380548 0.708 84 170 127
-3.038333 -15.359736 0.635 84 170 127
-3.025969 -15.49847 0.672 84 170 127
-3.000546 -15.448574 0.591 84 170 127
-3.097865 -15.36644 0.775 84 170 127
-3.039627 -15.353466 0.635 84 170 127
-3.033369 -15.294927 0.594 84 170 127
-3.052237 -15.364998 0.669 84 170 127
-3.091161 -15.425972 0.785 84 170 127
-3.118613 -15.389539 0.831 84 170 127
-3.027056 -15.405887 0.632 84 170 127
-3.06828 -15.416306 0.73 84 170 127
-3.066022 -15.354607 0.696 84 170 127
-3.094976 -15.398215 0.783 84 170 127
-3.072972 -15.445341 0.754 84 170 127
-3.074818 -15.393897 0.734 84 170 127
-3.062034 -15.300523 0.661 84 170 127
-3.038308 -15.474227 0.689 84 170 127
-3.079693 -15.388045 0.742 84 170 127
-3.04272 -15.348523 0.64 84 170 127
-3.052975 -15.344419 0.662 84 170 127
-3.050141 -15.442384 0.7 84 170 127
-3.080703 -15.403243 0.751 84 170 127
-3.09627 -15.391945 0.782 84 170 127
-3.005048 -15.393531 0.576 84 170 127
-3.038783 -15.301147 0.61 84 170 127
-3.090385 -15.382598 0.765 84 170 127
-3.091895 -15.345913 0.75 84 170 127
-3.03003 -15.385291 0.628 84 170 127
-3.038643 -15.459466 0.682 84 170 127
-3.028401 -15.406324 0.634 84 170 127
-3.062785 -15.458387 0.738 84 170 127
-3.077673 -15.35765 0.723 84 170 127
-3.041668 -15.445579 0.682 84 170 127
-3.081538 -15.3366 0.724 84 170 127
-3.058258 -15.392233 0.696 84 170 127
-2.996685 -15.529104 0.619 84 170 127
-3.006176 -15.424381 0.592 84 170 127
-3.007742 -15.453887 0.61 84 170 127
-3.084016 -15.427368 0.769 84 170 127
-3.08089 -15.427839 0.763 84 170 127
-3.019193 -15.489577 0.651 84 170 127
-3.0226 -15.408156 0.622 84 170 127
-3.103029 -15.398602 0.8 84 170 127
-3.107382 -15.382915 0.803 84 170 127
-3.048868 -15.274684 0.62 84 170 127
-3.082183 -15.421569 0.763 84 170 127
-3.039703 -15.481372 0.694 84 170 127
-3.034756 -15.418797 0.655 84 170 127
-3.048495 -15.46118 0.704 84 170 127
-3.043739 -15.482683 0.703 84 170 127
-3.043531 -15.39637 0.664 84 170 127
-3.014632 -15.418951 0.61 84 170 127
-3.086231 -15.365634 0.746 84 170 127
-3.02756 -15.413486 0.634 84 170 127
-3.029228 -15.456407 0.66 84 170 127
-3.083876 -15.349999 0.734 84 170 127
-3.004946 -15.380116 0.57 84 170 127
-3.067851 -15.300926 0.675 84 170 127
-3.016754 -15.227075 0.526 84 170 127
-3.044706 -15.374447 0.657 84 170 127
-3.012167 -15.506626 0.643 84 170 127
-3.044625 -15.422748 0.678 84 170 127
-3.039351 -15.258209 0.591 84 170 127
-3.043107 -15.34047 0.638 84 170 127
-3.060863 -15.381927 0.697 84 170 127
-3.005171 -15.468665 0.611 84 170 127
-3.032851 -15.344572 0.617 84 170 127
-3.106037 -15.382479 0.799 84 170 127
-3.028608 -15.492637 0.675 84 170 127
-3.052644 -15.418662 0.695 84 170 127
-3.002888 -15.521455 0.568 84 170 127
-3.010097 -15.469522 0.534 84 170 127
-3.004653 -15.518311 0.559 84 170 127
-3.001845 -15.501784 0.576 84 170 127
-3.001288 -15.487477 0.579 84 170 127
-3.013088 -15.451162 0.519 84 170 127
-3.011476 -15.47443 0.525 84 170 127
-3.014013 -15.45518 0.51 84 170 127
-3.01126 -15.504844 0.522 84 170 127
-2.998819 -15.515672 0.594 84 170 127
-3.003105 -15.491042 0.571 84 170 127
-3.013843 -15.432821 0.515 84 170 127
-3.011073 -15.480247 0.528 84 170 127
-3.016198 -15.448456 0.502 84 170 127
-3.00988 -15.499935 0.53 84 170 127
-3.013428 -15.495883 0.511 84 170 127
-3.010636 -15.481593 0.527 84 170 127
-3.008196 -15.454778 0.547 84 170 127
-3.001339 -15.494185 0.582 84 170 127
-3.01647 -15.484232 0.496 84 170 127
-3.013428 -15.495883 0.51 84 170 127
-3.006618 -15.482517 0.551 84 170 127
-3.015421 -15.405081 0.511 84 170 127
-3.013406 -15.434166 0.52 84 170 127
-3.01156 -15.485611 0.522 84 170 127
-3.013593 -15.458762 0.515 84 170 127
-3.008349 -15.474902 0.545 84 170 127
-3.010369 -15.505298 0.526 84 170 127
-3.012974 -15.494991 0.512 84 170 127
-3.005879 -15.503096 0.554 84 170 127
-3.013843 -15.432821 0.515 84 170 127
-3.011675 -15.441782 0.529 84 170 127
-3.009155 -15.463267 0.538 84 170 127
-3.014145 -15.413588 0.518 84 170 127
-3.007224 -15.503532 0.545 84 170 127
-3.015999 -15.481105 0.498 84 170 127
-3.007492 -15.479828 0.547 84 170 127
-3.001543 -15.521018 0.575 84 170 127
-3.015409 -15.462326 0.505 84 170 127
-3.013775 -15.423877 0.516 84 170 127
-3.005511 -15.513385 0.556 84 170 127
-3.015948 -15.474396 0.498 84 170 127
-3.009825 -15.433745 0.536 84 170 127
-3.006855 -15.513822 0.545 84 170 127
-3.003241 -15.508929 0.568 84 170 127
-3.014284 -15.490956 0.508 84 170 127
-3.008065 -15.496371 0.543 84 170 127
-3.005862 -15.500859 0.555 84 170 127
-3.001123 -15.524598 0.579 84 170 127
-3.007729 -15.511131 0.542 84 170 127
-3.004954 -15.499078 0.562 84 170 127
-2.998785 -15.5112 0.592 84 170 127
-3.012816 -15.415386 0.525 84 170 127
-3.011692 -15.444017 0.528 84 170 127
-2.996231 -15.528214 0.607 84 170 127
-3.008735 -15.466849 0.541 84 170 127
-2.995811 -15.531795 0.609 84 170 127
-3.013847 -15.492302 0.511 84 170 127
-3.010631 -15.422112 0.533 84 170 127
-3.003626 -15.500876 0.569 84 170 127
-3.003961 -15.486115 0.567 84 170 127
-3.009002 -15.443144 0.542 84 170 127
-3.011811 -15.45967 0.523 84 170 127
-3.011476 -15.47443 0.524 84 170 127
-3.016067 -15.490048 0.498 84 170 127
-3.013037 -15.444454 0.518 84 170 127
-3.008938 -15.49368 0.537 84 170 127
-2.999273 -15.516562 0.592 84 170 127
-3.009074 -15.511569 0.537 84 170 127
-3.006834 -15.452105 0.557 84 170 127
-3.015689 -15.381376 0.509 84 170 127
-3.011442 -15.469958 0.524 84 170 127
-3.006499 -15.466866 0.553 84 170 127
-3.00949 -15.448506 0.539 84 170 127
-3.008043 -15.434653 0.546 84 170 127
-2.997105 -15.525523 0.6 84 170 127
-3.008633 -15.453433 0.544 84 170 127
-3.007191 -15.499061 0.545 84 170 127
-3.004683 -15.463302 0.564 84 170 127
-3.012083 -15.495445 0.516 84 170 127
-3.002684 -15.494622 0.574 84 170 127
-3.012481 -15.430148 0.525 84 170 127
-3.008332 -15.472666 0.541 84 170 127
-3.006181 -15.483863 0.554 84 170 127
-3.012816 -15.415386 0.523 84 170 127
-3.138516 -15.12463 0.712 84 170 127
-3.141881 -15.155463 0.715 84 170 127
-3.174844 -15.314872 0.779 84 170 127
-3.12737 -15.129186 0.668 84 170 127
-3.132971 -15.160003 0.677 84 170 127
-3.132936 -15.15553 0.678 84 170 127
-3.175281 -15.313528 0.781 84 170 127
-3.173817 -15.297439 0.782 84 170 127
-3.133942 -15.111247 0.699 84 170 127
-3.148826 -15.186716 0.729 84 170 127
-3.116389 -15.096622 0.635 84 170 127
-3.126143 -15.144402 0.656 84 170 127
-3.158297 -15.255964 0.736 84 170 127
-3.132983 -15.102757 0.698 84 170 127
-3.152089 -15.204132 0.734 84 170 127
-3.161559 -15.273381 0.744 84 170 127
-3.144821 -15.130396 0.734 84 170 127
-3.155403 -15.228258 0.738 84 170 127
-3.126377 -15.116224 0.669 84 170 127
-3.132915 -15.093814 0.703 84 170 127
-3.113648 -15.08904 0.628 84 170 127
-3.15256 -15.20726 0.736 84 170 127
-3.131507 -15.143913 0.677 84 170 127
-3.113076 -15.072497 0.632 84 170 127
-3.141211 -15.184985 0.7 84 170 127
-3.108603 -15.072531 0.617 84 170 127
-3.157235 -15.234058 0.742 84 170 127
-3.120844 -15.094353 0.654 84 170 127
-3.148033 -15.141105 0.742 84 170 127
-3.169799 -15.298363 0.765 84 170 127
-3.147078 -15.192096 0.719 84 170 127
-3.141643 -15.124159 0.726 84 170 127
-3.128261 -15.128732 0.672 84 170 127
-3.13746 -15.162205 0.691 84 170 127
-3.148237 -15.167937 0.732 84 170 127
-3.137035 -15.106304 0.712 84 170 127
-3.142908 -15.172896 0.711 84 170 127
-3.138805 -15.162642 0.697 84 170 127
-3.135491 -15.138516 0.693 84 170 127
-3.158331 -15.260436 0.735 84 170 127
-3.17237 -15.283585 0.781 84 170 127
-3.13157 -15.093376 0.698 84 170 127
-3.130344 -15.108592 0.688 84 170 127
-3.145665 -15.182715 0.718 84 170 127
-3.11518 -15.114073 0.625 84 170 127
-3.115044 -15.096185 0.632 84 170 127
-3.148792 -15.182243 0.728 84 170 127
-3.122461 -15.130566 0.649 84 170 127
-3.115918 -15.093495 0.637 84 170 127
-3.156918 -15.251056 0.732 84 170 127
-3.149331 -15.194315 0.727 84 170 127
-3.110487 -15.085039 0.618 84 170 127
-3.14079 -15.188565 0.695 84 170 127
-3.132864 -15.087105 0.703 84 170 127
-3.120492 -15.106877 0.651 84 170 127
-3.130212 -15.150185 0.671 84 170 127
-3.173329 -15.292075 0.781 84 170 127
-3.130599 -15.142132 0.674 84 170 127
-3.141121 -15.114324 0.726 84 170 127
-3.130412 -15.117536 0.683 84 170 127
-3.161776 -15.242969 0.757 84 170 127
-3.17195 -15.287166 0.779 84 170 127
-3.146471 -15.171081 0.725 84 170 127
-3.140684 -15.115668 0.725 84 170 127
-3.16539 -15.24786 0.77 84 170 127
-3.151215 -15.206822 0.727 84 170 127
-3.156964 -15.198282 0.757 84 170 127
-3.143595 -15.145611 0.724 84 170 127
-3.15875 -15.256855 0.739 84 170 127
-3.16038 -15.235823 0.753 84 170 127
-3.123789 -15.128766 0.653 84 170 127
-3.122983 -15.140401 0.645 84 170 127
-3.137476 -15.16444 0.694 84 170 127
-3.119432 -15.084971 0.653 84 170 127
-3.163104 -15.241169 0.761 84 170 127
-3.122325 -15.112678 0.654 84 170 127
-3.133692 -15.137188 0.689 84 170 127
-3.125957 -15.119805 0.666 84 170 127
-3.101424 -15.069455 0.591 84 170 127
-3.13401 -15.120192 0.698 84 170 127
-3.118693 -15.105549 0.641 84 170 127
-3.140132 -15.160843 0.705 84 170 127
-3.142466 -15.11476 0.732 84 170 127
-3.125151 -15.131439 0.657 84 170 127
-3.146302 -15.148721 0.735 84 170 127
-3.106368 -15.072548 0.608 84 170 127
-3.138033 -15.178748 0.691 84 170 127
-3.145466 -15.215364 0.705 84 170 127
-3.13317 -15.127354 0.69 84 170 127
-3.16783 -15.274675 0.769 84 170 127
-3.129487 -15.113518 0.68 84 170 127
-3.165158 -15.276037 0.758 84 170 127
-3.146441 -15.226089 0.705 84 170 127
-3.173295 -15.287603 0.783 84 170 127
-3.174305 -15.302801 0.781 84 170 127
-3.144842 -15.192112 0.71 84 170 127
-3.16467 -15.270674 0.757 84 170 127
-3.142067 -15.180058 0.705 84 170 127
-3.165577 -15.272456 0.762 84 170 127
-3.129339 -15.152874 0.664 84 170 127
-3.106889 -15.082383 0.606 84 170 127
-3.117331 -15.102876 0.637 84 170 127
-3.13339 -15.156422 0.68 84 170 127
-3.128698 -15.127388 0.672 84 170 127
-3.110606 -15.100691 0.615 84 170 127
-3.151737 -15.216658 0.727 84 170 127
-3.150256 -15.198333 0.731 84 170 127
-3.154223 -15.1907 0.748 84 170 127
-3.154847 -15.213951 0.741 84 170 127
-3.116996 -15.117638 0.632 84 170 127
-3.153616 -15.169684 0.754 84 170 127
-3.136148 -15.16624 0.686 84 170 127
-3.151889 -15.236782 0.719 84 170 127
-3.135588 -15.092452 0.714 84 170 127
-3.142063 -15.120578 0.728 84 170 127
-3.144019 -15.20151 0.703 84 170 127
-3.141881 -15.155463 0.713 84 170 127
-3.133306 -15.145242 0.684 84 170 127
-3.146573 -15.184497 0.72 84 170 127
-3.131167 -15.099194 0.692 84 170 127
-3.133386 -15.09694 0.702 84 170 127
-3.152628 -15.216204 0.733 84 170 127
-3.139339 -15.115232 0.72 84 170 127
-3.112252 -15.081895 0.625 84 170 127
-3.115634 -15.114964 0.625 84 170 127
-3.162247 -15.246096 0.757 84 170 127
-3.161356 -15.24655 0.753 84 170 127
-3.14953 -15.161666 0.742 84 170 127
-3.161407 -15.253257 0.751 84 170 127
-3.134367 -15.167148 0.68 84 170 127
-3.14023 -15.114778 0.723 84 170 127
-3.158126 -15.233604 0.744 84 170 127
-3.146976 -15.178679 0.726 84 170 127
-3.143111 -15.199729 0.702 84 170 127
-3.123402 -15.136819 0.649 84 170 127
-3.131354 -15.12379 0.683 84 170 127
-3.120895 -15.10106 0.652 84 170 127
-3.122007 -15.129674 0.645 84 170 127
-3.115396 -15.08366 0.64 84 170 127
-3.15138 -15.169702 0.746 84 170 127
-3.118795 -15.118965 0.639 84 170 127
-3.13149 -15.141678 0.679 84 170 127
-3.114624 -15.099766 0.629 84 170 127
-3.150944 -15.171046 0.743 84 170 127
-3.146153 -15.188078 0.715 84 170 127
-3.171127 -15.296564 0.77 84 170 127
-3.113682 -15.093513 0.628 84 170 127
-3.129538 -15.120225 0.68 84 170 127
-3.119851 -15.08139 0.655 84 170 127
-3.116389 -15.096622 0.636 84 170 127
-3.137086 -15.113013 0.711 84 170 127
-3.131065 -15.085777 0.696 84 170 127
-3.116877 -15.101986 0.635 84 170 127
-3.162047 -15.278744 0.745 84 170 127
-3.174305 -15.302801 0.782 84 170 127
-3.147918 -15.184934 0.725 84 170 127
-3.134888 -15.176983 0.677 84 170 127
-3.143225 -15.155899 0.717 84 170 127
-3.136772 -15.18949 0.679 84 170 127
-3.155471 -15.237202 0.733 84 170 127
-3.107309 -15.078802 0.609 84 170 127
-3.112724 -15.085022 0.629 84 170 127
-3.145173 -15.11787 0.739 84 170 127
-3.132915 -15.093814 0.704 84 170 127
-3.154563 -15.23542 0.729 84 170 127
-3.137086 -15.113013 0.709 84 170 127
-3.137858 -15.096907 0.722 84 170 127
-3.154546 -15.233184 0.73 84 170 127
-3.15816 -15.238075 0.746 84 170 127
-3.123806 -15.131002 0.65 84 170 127
-3.160163 -15.266235 0.739 84 170 127
-3.137358 -15.148788 0.699 84 170 127
-3.136479 -15.091998 0.718 84 170 127
-3.133539 -15.117064 0.695 84 170 127
-3.154813 -15.209479 0.742 84 170 127
-3.108688 -15.083711 0.613 84 170 127
-3.165645 -15.281401 0.758 84 170 127
-3.146569 -15.125015 0.741 84 170 127
-3.141511 -15.165751 0.706 84 170 127
-3.118927 -15.077373 0.655 84 170 127
-3.122092 -15.140855 0.643 84 170 127
-3.160986 -15.256838 0.747 84 170 127
-3.114977 -15.087241 0.634 84 170 127
-3.125202 -15.138147 0.655 84 170 127
-3.152395 -15.244381 0.719 84 170 127
-3.177165 -15.326035 0.783 84 170 127
-3.140467 -15.146081 0.712 84 170 127
-3.11173 -15.072061 0.627 84 170 127
-3.136636 -15.171603 0.686 84 170 127
-3.118795 -15.118965 0.638 84 170 127
-3.159807 -15.21928 0.759 84 170 127
-3.151987 -15.190717 0.741 84 170 127
-3.12308 -15.094335 0.664 84 170 127
-3.134078 -15.129135 0.693 84 170 127
-3.131621 -15.100085 0.694 84 170 127
-3.155636 -15.200081 0.748 84 170 127
-3.133675 -15.134953 0.689 84 170 127
-3.116822 -15.271485 0.601 84 170 127
-3.141112 -15.23105 0.687 84 170 127
-3.114141 -15.153885 0.613 84 170 127
-3.131117 -15.328175 0.638 84 170 127
-3.149306 -15.308805 0.699 84 170 127
-3.128617 -15.175689 0.655 84 170 127
-3.147341 -15.344598 0.685 84 170 127
-3.092345 -15.287323 0.525 84 170 127
-3.149369 -15.258267 0.707 84 170 127
-3.129224 -15.196704 0.655 84 170 127
-3.10588 -15.302874 0.565 84 170 127
-3.158687 -15.307392 0.727 84 170 127
-3.111043 -15.335034 0.574 84 170 127
-3.103559 -15.291711 0.56 84 170 127
-3.114875 -15.309514 0.59 84 170 127
-3.135699 -15.22483 0.669 84 170 127
-3.150732 -15.260941 0.711 84 170 127
-3.098709 -15.183071 0.559 84 170 127
-3.114467 -15.25585 0.596 84 170 127
-3.121629 -15.256689 0.619 84 170 127
-3.133178 -15.246316 0.659 84 170 127
-3.104883 -15.23043 0.57 84 170 127
-3.103643 -15.30289 0.558 84 170 127
-3.105646 -15.095362 0.599 84 170 127
-3.147791 -15.286008 0.697 84 170 127
-3.129004 -15.167636 0.659 84 170 127
-3.100181 -15.082434 0.583 84 170 127
-3.10745 -15.156171 0.591 84 170 127
-3.154783 -15.264488 0.724 84 170 127
-3.114115 -15.268374 0.593 84 170 127
-3.123797 -15.247728 0.628 84 170 127
-3.097386 -15.244351 0.544 84 170 127
-3.135385 -15.301308 0.656 84 170 127
-3.096074 -15.248386 0.54 84 170 127
-3.096868 -15.293998 0.536 84 170 127
-3.123929 -15.206136 0.635 84 170 127
-3.143137 -15.320927 0.676 84 170 127
-3.103593 -15.296183 0.559 84 170 127
-3.109855 -15.178514 0.596 84 170 127
-3.136726 -15.242264 0.67 84 170 127
-3.113305 -15.220528 0.599 84 170 127
-3.105943 -15.252337 0.569 84 170 127
-3.158432 -15.273852 0.734 84 170 127
-3.113453 -15.18117 0.607 84 170 127
-3.132915 -15.329502 0.644 84 170 127
-3.111548 -15.106945 0.615 84 170 127
-3.112507 -15.115435 0.616 84 170 127
-3.098217 -15.118227 0.57 84 170 127
-3.126555 -15.257546 0.637 84 170 127
-3.119279 -15.300535 0.606 84 170 127
-3.165446 -15.314049 0.749 84 170 127
-3.103521 -15.227757 0.568 84 170 127
-3.179519 -15.34167 0.788 84 170 127
-3.116134 -15.29877 0.594 84 170 127
-3.103249 -15.191981 0.572 84 170 127
-3.10271 -15.17991 0.574 84 170 127
-3.152721 -15.346346 0.702 84 170 127
-3.150141 -15.242162 0.712 84 170 127
-3.15379 -15.251526 0.722 84 170 127
-3.154957 -15.346329 0.709 84 170 127
-3.149022 -15.330274 0.692 84 170 127
-3.142373 -15.220306 0.693 84 170 127
-3.110661 -15.16688 0.601 84 170 127
-3.152866 -15.247508 0.72 84 170 127
-3.148058 -15.262302 0.701 84 170 127
-3.128643 -15.296886 0.635 84 170 127
-3.103635 -15.183928 0.577 84 170 127
-3.114361 -15.182953 0.609 84 170 127
-3.102396 -15.256389 0.557 84 170 127
-3.10885 -15.222797 0.584 84 170 127
-3.11322 -15.209348 0.601 84 170 127
-3.105379 -15.119067 0.592 84 170 127
-3.1715 -15.345757 0.763 84 170 127
-3.102859 -15.140553 0.58 84 170 127
-3.102549 -15.276513 0.558 84 170 127
-3.148008 -15.255595 0.703 84 170 127
-3.153493 -15.330239 0.706 84 170 127
-3.11899 -15.262524 0.609 84 170 127
-3.114518 -15.262557 0.594 84 170 127
-3.148343 -15.240833 0.708 84 170 127
-3.163159 -15.307358 0.742 84 170 127
-3.146158 -15.247559 0.699 84 170 127
-3.101726 -15.285911 0.555 84 170 127
-3.107657 -15.242484 0.577 84 170 127
-3.103678 -15.307363 0.555 84 170 127
-3.11462 -15.275973 0.593 84 170 127
-3.097848 -15.128515 0.567 84 170 127
-3.107255 -15.248302 0.576 84 170 127
-3.125698 -15.262472 0.63 84 170 127
-3.09736 -15.123153 0.567 84 170 127
-3.09419 -15.235878 0.537 84 170 127
-3.134155 -15.257042 0.66 84 170 127
-3.109164 -15.146318 0.598 84 170 127
-3.144482 -15.321364 0.679 84 170 127
-3.112231 -15.255866 0.59 84 170 127
-3.131392 -15.187743 0.663 84 170 127
-3.147366 -15.230107 0.707 84 170 127
-3.114145 -15.213366 0.604 84 170 127
-3.143489 -15.308402 0.68 84 170 127
-3.106724 -15.119504 0.596 84 170 127
-3.152081 -15.320859 0.704 84 170 127
-3.146446 -15.285571 0.691 84 170 127
-3.101811 -15.297091 0.551 84 170 127
-3.099931 -15.108376 0.578 84 170 127
-3.141198 -15.242229 0.685 84 170 127
-3.150248 -15.315059 0.7 84 170 127
-3.094492 -15.216645 0.542 84 170 127
-3.096172 -15.202321 0.548 84 170 127
-3.133832 -15.214558 0.666 84 170 127
-3.128036 -15.275871 0.636 84 170 127
-3.109346 -15.111435 0.608 84 170 127
-3.123547 -15.27367 0.623 84 170 127
-3.096414 -15.293106 0.536 84 170 127
-3.117369 -15.166829 0.623 84 170 127
-3.121264 -15.32646 0.609 84 170 127
-3.107373 -15.263953 0.573 84 170 127
-3.150664 -15.251997 0.712 84 170 127
-3.114964 -15.144486 0.618 84 170 127
-3.165361 -15.302869 0.749 84 170 127
-3.12011 -15.174412 0.629 84 170 127
-3.113792 -15.22589 0.601 84 170 127
-3.128655 -15.239641 0.646 84 170 127
-3.14833 -15.298079 0.697 84 170 127
-3.102948 -15.211214 0.568 84 170 127
-3.126276 -15.338497 0.621 84 170 127
-3.121472 -15.177084 0.634 84 170 127
-3.100508 -15.1844 0.567 84 170 127
-3.141045 -15.222106 0.687 84 170 127
-3.14581 -15.319565 0.683 84 170 127
-3.104357 -15.161115 0.582 84 170 127
-3.115235 -15.180262 0.613 84 170 127
-3.130997 -15.312521 0.638 84 170 127
-3.163698 -15.319429 0.74 84 170 127
-3.09419 -15.235878 0.537 84 170 127
-3.113967 -15.307732 0.587 84 170 127
-3.118889 -15.249107 0.611 84 170 127
-3.141299 -15.255646 0.681 84 170 127
-3.140018 -15.204671 0.688 84 170 127
-3.10739 -15.266189 0.573 84 170 127
-3.138295 -15.33125 0.659 84 170 127
-3.107687 -15.187475 0.588 84 170 127
-3.103941 -15.224176 0.568 84 170 127
-3.101701 -15.164712 0.573 84 170 127
-3.11563 -15.291171 0.593 84 170 127
-3.102099 -15.099415 0.586 84 170 127
-3.152399 -15.303863 0.707 84 170 127
-3.138474 -15.236884 0.677 84 170 127
-3.097594 -15.330665 0.533 84 170 127
-3.180916 -15.348815 0.791 84 170 127
-3.101509 -15.080635 0.588 84 170 127
-3.11549 -15.213802 0.608 84 170 127
-3.15379 -15.251526 0.722 84 170 127
-3.109652 -15.151682 0.599 84 170 127
-3.096278 -15.275218 0.537 84 170 127
-3.124009 -15.157834 0.643 84 170 127
-3.107526 -15.284078 0.573 84 170 127
-3.098149 -15.109283 0.571 84 170 127
-3.149641 -15.294044 0.703 84 170 127
-3.116292 -15.142687 0.623 84 170 127
-3.117141 -15.254487 0.606 84 170 127
-3.103597 -15.119975 0.585 84 170 127
-3.179974 -15.342562 0.788 84 170 127
-3.121095 -15.3041 0.609 84 170 127
-3.102731 -15.241628 0.562 84 170 127
-3.150027 -15.285991 0.703 84 170 127
-3.113725 -15.216947 0.6 84 170 127
-3.109036 -15.247394 0.581 84 170 127
-3.133909 -15.342464 0.643 84 170 127
-3.164453 -15.301086 0.746 84 170 127
-3.153676 -15.295355 0.715 84 170 127
-3.101929 -15.077054 0.59 84 170 127
-3.14581 -15.319565 0.685 84 170 127
-3.124447 -15.156489 0.647 84 170 127
-3.149454 -15.269447 0.705 84 170 127
-3.116216 -15.250469 0.602 84 170 127
-3.173737 -15.345739 0.769 84 170 127
-3.123254 -15.176176 0.64 84 170 127
-3.159362 -15.337352 0.723 84 170 127
-3.178225 -15.347941 0.783 84 170 127
-3.111714 -15.305512 0.581 84 170 127
-3.111901 -15.330108 0.58 84 170 127
-3.109011 -15.126195 0.602 84 170 127
-3.116572 -15.297425 0.598 84 170 127
-3.108795 -15.156609 0.598 84 170 127
-3.103181 -15.183038 0.575 84 170 127
-3.108973 -15.297931 0.575 84 170 127
-3.118575 -15.325585 0.6 84 170 127
-3.12992 -15.28838 0.639 84 170 127
-3.119113 -15.337656 0.6 84 170 127
-3.172323 -15.336358 0.765 84 170 127
-3.094245 -15.302067 0.528 84 170 127
-3.132084 -15.219937 0.659 84 170 127
-3.128762 -15.312539 0.633 84 170 127
-3.131982 -15.206521 0.661 84 170 127
-3.129763 -15.208775 0.655 84 170 127
-3.180932 -15.351051 0.791 84 170 127
-3.12036 -15.14847 0.634 84 170 127
-3.110208 -15.165989 0.6 84 170 127
-3.13695 -15.330812 0.654 84 170 127
-3.118294 -15.170847 0.625 84 170 127
-3.121714 -15.26787 0.618 84 170 127
-3.127981 -15.209682 0.65 84 170 127
-3.13659 -15.224376 0.671 84 170 127
-3.15682 -15.29712 0.722 84 170 127
-3.159561 -15.304702 0.732 84 170 127
-3.117514 -15.303679 0.601 84 170 127
-3.127226 -15.228024 0.641 84 170 127
-3.118133 -15.267449 0.605 84 170 127
-3.09963 -15.127607 0.573 84 170 127
-3.100389 -15.168748 0.568 84 170 127
-3.147167 -15.262756 0.701 84 170 127
-3.154749 -15.260016 0.725 84 170 127
-3.109227 -15.33147 0.569 84 170 127
-3.128231 -15.183742 0.652 84 170 127
-3.118044 -15.196789 0.619 84 170 127
-3.12028 -15.196772 0.624 84 170 127
-3.114696 -15.168191 0.613 84 170 127
-3.095183 -15.24884 0.536 84 170 127
-3.097267 -15.2287 0.549 84 170 127
-3.100062 -15.066782 0.584 84 170 127
-3.130188 -15.264675 0.645 84 170 127
-3.159828 -15.280997 0.736 84 170 127
-3.107534 -15.167352 0.592 84 170 127
-3.116936 -15.227655 0.61 84 170 127
-3.126258 -15.336261 0.623 84 170 127
-3.097271 -15.28818 0.539 84 170 127
-3.147206 -15.32671 0.689 84 170 127
-3.126645 -15.328207 0.624 84 170 127
-3.105655 -15.214324 0.575 84 170 127
-3.136564 -15.338865 0.653 84 170 127
-3.142712 -15.265027 0.685 84 170 127
-3.120785 -15.20437 0.627 84 170 127
-3.109087 -15.254102 0.579 84 170 127
-3.140981 -15.272643 0.678 84 170 127
-3.135185 -15.333958 0.649 84 170 127
-3.115405 -15.202622 0.608 84 170 127
-3.107 -15.214762 0.581 84 170 127
-3.116152 -15.301007 0.595 84 170 127
-3.109707 -15.217871 0.588 84 170 127
-3.104645 -15.199126 0.577 84 170 127
-3.109486 -15.188803 0.592 84 170 127
-3.125715 -15.264709 0.632 84 170 127
-3.178696 -15.351068 0.783 84 170 127
-3.098132 -15.107047 0.572 84 170 127
-3.105006 -15.305564 0.562 84 170 127
-3.100347 -15.281001 0.549 84 170 127
-3.110165 -15.278243 0.58 84 170 127
-3.125439 -15.169452 0.645 84 170 127
-3.172727 -15.330542 0.768 84 170 127
-3.13446 -15.29729 0.654 84 170 127
-3.119478 -15.267887 0.61 84 170 127
-3.1216 -15.311699 0.613 84 170 127
-3.105528 -15.315398 0.562 84 170 127
-3.102511 -15.21256 0.568 84 170 127
-3.099256 -15.078416 0.58 84 170 127
-3.135198 -15.276711 0.659 84 170 127
-3.164033 -15.304668 0.746 84 170 127
-3.100097 -15.071255 0.583 84 170 127
-3.129215 -15.31343 0.634 84 170 127
-3.167919 -15.345336 0.75 84 170 127
-3.15161 -15.317733 0.704 84 170 127
-3.125397 -15.281706 0.627 84 170 127
-3.107602 -15.176295 0.589 84 170 127
-3.098964 -15.216611 0.556 84 170 127
-3.13244 -15.266893 0.65 84 170 127
-3.10692 -15.263062 0.57 84 170 127
-3.098887 -15.088705 0.578 84 170 127
-3.121281 -15.328695 0.608 84 170 127
-3.145572 -15.288261 0.69 84 170 127
-3.154834 -15.271195 0.722 84 170 127
-3.122071 -15.314825 0.614 84 170 127
-3.120692 -15.309916 0.609 84 170 127
-3.113759 -15.221418 0.6 84 170 127
-3.10476 -15.155297 0.585 84 170 127
-3.092867 -15.297158 0.523 84 170 127
-3.124956 -15.223569 0.635 84 170 127
-3.101089 -15.319904 0.546 84 170 127
-3.110606 -15.336379 0.574 84 170 127
-3.136713 -15.299509 0.661 84 170 127
-3.139369 -15.295911 0.668 84 170 127
-3.091759 -15.328025 0.515 84 170 127
-3.137918 -15.222576 0.677 84 170 127
-3.175417 -15.331415 0.775 84 170 127
-3.127315 -15.298685 0.63 84 170 127
-3.118854 -15.244636 0.614 84 170 127
-3.156769 -15.290412 0.726 84 170 127
-3.150884 -15.281065 0.709 84 170 127
-3.099575 -15.297107 0.545 84 170 127
-3.119639 -15.171285 0.628 84 170 127
-3.154312 -15.261361 0.721 84 170 127
-3.106876 -15.139627 0.594 84 170 127
-3.123178 -15.283958 0.62 84 170 127
-3.109728 -15.279589 0.578 84 170 127
-3.127378 -15.248148 0.638 84 170 127
-3.128965 -15.339371 0.631 84 170 127
-3.144125 -15.274407 0.687 84 170 127
-3.110458 -15.140049 0.606 84 170 127
-3.118048 -15.256269 0.607 84 170 127
-3.131176 -15.218156 0.656 84 170 127
-3.166689 -15.30107 0.755 84 170 127
-3.164674 -15.330154 0.744 84 170 127
-3.095099 -15.23766 0.54 84 170 127
-3.114841 -15.305041 0.593 84 170 127
-3.142297 -15.328089 0.671 84 170 127
-3.110352 -15.302839 0.578 84 170 127
-3.133734 -15.260623 0.659 84 170 127
-3.118638 -15.275048 0.606 84 170 127
-3.113996 -15.252722 0.595 84 170 127
-3.122367 -15.236112 0.626 84 170 127
-3.11064 -15.105164 0.61 84 170 127
-3.144113 -15.331654 0.676 84 170 127
-3.142645 -15.256083 0.687 84 170 127
-3.136564 -15.338865 0.653 84 170 127
-3.106834 -15.251883 0.573 84 170 127
-3.120797 -15.147125 0.636 84 170 127
