ply
format ascii 1.0
element vertex 1509
property double x
property double y
property double z
property uchar red
property uchar green
property uchar blue
element face 0
property list uchar int vertex_indices
end_header
0.977216 -14.60668 0.576 0 0 0
0.963398 -14.60076 0.545 0 0 0
0.864042 -14.551259 0.444 0 0 0
0.784759 -14.508617 0.731 0 0 0
0.93043 -14.583962 0.488 0 0 0
0.935339 -14.585342 0.707 0 0 0
0.937121 -14.58625 0.683 0 0 0
0.926866 -14.582147 0.525 0 0 0
0.933557 -14.584435 0.614 0 0 0
0.868968 -14.550402 0.883 0 0 0
0.958051 -14.598037 0.578 0 0 0
0.93934 -14.588503 0.53 0 0 0
0.942905 -14.590319 0.506 0 0 0
0.874768 -14.552235 0.922 0 0 0
0.946031 -14.59079 0.644 0 0 0
0.970979 -14.603502 0.612 0 0 0
0.934902 -14.583997 0.725 0 0 0
0.964742 -14.600324 0.604 0 0 0
0.940685 -14.588066 0.692 0 0 0
0.859586 -14.548989 0.429 0 0 0
0.864042 -14.551259 0.424 0 0 0
0.95405 -14.594876 0.625 0 0 0
0.934885 -14.586233 0.578 0 0 0
0.955832 -14.595784 0.616 0 0 0
0.950486 -14.59306 0.686 0 0 0
0.851568 -14.544903 0.411 0 0 0
0.970088 -14.603048 0.581 0 0 0
0.935339 -14.585342 0.693 0 0 0
0.937121 -14.58625 0.711 0 0 0
0.934448 -14.584888 0.658 0 0 0
0.945577 -14.591681 0.54 0 0 0
0.943358 -14.589428 0.693 0 0 0
0.953596 -14.595766 0.545 0 0 0
0.846221 -14.542179 0.439 0 0 0
0.974981 -14.606663 0.54 0 0 0
0.974981 -14.606663 0.564 0 0 0
0.915737 -14.575355 0.689 0 0 0
0.929539 -14.583508 0.491 0 0 0
0.948704 -14.592152 0.612 0 0 0
0.467056 -14.354596 0.05 0 0 0
0.931775 -14.583527 0.676 0 0 0
0.943796 -14.590773 0.547 0 0 0
0.954941 -14.59533 0.631 0 0 0
0.951814 -14.594858 0.541 0 0 0
0.931775 -14.583527 0.613 0 0 0
0.897026 -14.565821 0.638 0 0 0
0.966524 -14.601232 0.61 0 0 0
0.972762 -14.60441 0.597 0 0 0
0.95627 -14.597129 0.578 0 0 0
0.929539 -14.583508 0.545 0 0 0
0.865857 -14.547695 0.895 0 0 0
0.936667 -14.587141 0.576 0 0 0
0.942905 -14.590319 0.548 0 0 0
0.717009 -14.478586 0.339 0 0 0
0.872985 -14.551327 0.92 0 0 0
0.992801 -14.615742 0.548 0 0 0
0.47953 -14.360952 0.059 0 0 0
0.968306 -14.60214 0.59 0 0 0
0.961616 -14.599853 0.558 0 0 0
0.933994 -14.585779 0.572 0 0 0
0.928211 -14.581711 0.62 0 0 0
0.862294 -14.545879 0.922 0 0 0
0.957563 -14.603399 1.004 0 0 0
0.962455 -14.607015 1.052 0 0 0
0.959799 -14.603417 0.942 0 0 0
0.884115 -14.55812 0.936 0 0 0
0.989203 -14.618399 0.821 0 0 0
0.968692 -14.610193 1.049 0 0 0
0.87744 -14.553597 0.921 0 0 0
0.93623 -14.585796 0.8 0 0 0
0.939794 -14.587612 0.726 0 0 0
0.982058 -14.617002 1.003 0 0 0
0.957126 -14.602056 0.975 0 0 0
0.991841 -14.624232 1.096 0 0 0
0.943358 -14.589428 0.764 0 0 0
0.984242 -14.623728 1.251 0 0 0
0.905045 -14.569906 0.894 0 0 0
0.901027 -14.568981 0.988 0 0 0
0.967347 -14.61063 1.135 0 0 0
0.959799 -14.603417 0.979 0 0 0
0.956235 -14.601602 0.977 0 0 0
0.992716 -14.626923 1.197 0 0 0
0.976678 -14.618751 1.237 0 0 0
0.981637 -14.613421 0.8 0 0 0
0.922848 -14.581223 0.938 0 0 0
0.966474 -14.60794 1.014 0 0 0
0.988295 -14.620181 0.931 0 0 0
0.925521 -14.582584 0.913 0 0 0
0.975383 -14.612479 0.974 0 0 0
0.899245 -14.568073 1.004 0 0 0
0.924613 -14.584366 1.056 0 0 0
0.967801 -14.609739 1.064 0 0 0
0.962489 -14.602543 0.845 0 0 0
0.917485 -14.580734 1.069 0 0 0
0.955815 -14.59802 0.774 0 0 0
0.945106 -14.594808 0.998 0 0 0
0.909937 -14.573521 0.936 0 0 0
0.950889 -14.598877 1.003 0 0 0
0.992313 -14.621105 0.875 0 0 0
0.959396 -14.5976 0.67 0 0 0
0.952218 -14.600676 1.078 0 0 0
0.927757 -14.582601 0.855 0 0 0
0.899682 -14.569419 1.015 0 0 0
0.967853 -14.60303 0.669 0 0 0
0.991892 -14.617525 0.734 0 0 0
0.909029 -14.575304 1.054 0 0 0
0.947359 -14.592588 0.768 0 0 0
0.907264 -14.572159 0.954 0 0 0
0.924176 -14.583021 1.021 0 0 0
0.963783 -14.608814 1.121 0 0 0
0.976745 -14.609807 0.749 0 0 0
0.949998 -14.598423 0.984 0 0 0
0.908592 -14.573958 1.021 0 0 0
0.981621 -14.615658 0.917 0 0 0
0.928614 -14.587527 1.099 0 0 0
0.959328 -14.606544 1.121 0 0 0
0.896589 -14.564475 0.881 0 0 0
0.901481 -14.56809 0.923 0 0 0
0.959782 -14.605653 1.079 0 0 0
0.957983 -14.606981 1.185 0 0 0
0.962892 -14.60836 1.149 0 0 0
0.987823 -14.623308 1.16 0 0 0
0.981218 -14.60984 0.618 0 0 0
0.970003 -14.614228 1.22 0 0 0
0.987387 -14.621963 1.114 0 0 0
0.948233 -14.59528 0.919 0 0 0
0.968709 -14.607957 0.951 0 0 0
0.969617 -14.606175 0.796 0 0 0
0.965128 -14.608377 1.031 0 0 0
0.912156 -14.575774 0.987 0 0 0
0.972762 -14.60441 0.625 0 0 0
0.943307 -14.596136 1.081 0 0 0
0.955327 -14.603383 1.13 0 0 0
0.973619 -14.609336 0.872 0 0 0
0.986058 -14.620164 1.056 0 0 0
0.969617 -14.606175 0.82 0 0 0
0.980712 -14.61744 1.064 0 0 0
0.929068 -14.586636 1.059 0 0 0
0.876096 -14.554033 0.944 0 0 0
0.952268 -14.593968 0.72 0 0 0
0.988731 -14.621526 1.015 0 0 0
0.931304 -14.586654 0.981 0 0 0
0.928194 -14.583946 0.909 0 0 0
0.958874 -14.607435 1.197 0 0 0
0.900153 -14.566291 0.883 0 0 0
0.982966 -14.615221 0.857 0 0 0
0.928614 -14.587527 1.107 0 0 0
0.950452 -14.597532 0.962 0 0 0
0.970038 -14.609756 1.006 0 0 0
0.93976 -14.592084 1.009 0 0 0
0.945526 -14.598389 1.129 0 0 0
0.994128 -14.617541 0.611 0 0 0
0.937087 -14.590722 0.979 0 0 0
0.942433 -14.593446 0.983 0 0 0
0.966491 -14.605703 0.856 0 0 0
0.923285 -14.582567 1.005 0 0 0
0.959782 -14.605653 1.087 0 0 0
0.965111 -14.610613 1.19 0 0 0
0.990479 -14.626905 1.258 0 0 0
0.965179 -14.601668 0.679 0 0 0
0.910828 -14.573975 0.939 0 0 0
0.99233 -14.61887 0.795 0 0 0
0.967801 -14.609739 1.054 0 0 0
0.9656 -14.605249 0.892 0 0 0
0.992313 -14.621105 0.915 0 0 0
0.993624 -14.62514 1.065 0 0 0
0.947308 -14.599298 1.137 0 0 0
0.910828 -14.573975 0.948 0 0 0
0.914392 -14.575791 0.927 0 0 0
0.89479 -14.565804 0.987 0 0 0
0.991439 -14.618416 0.788 0 0 0
0.962438 -14.609251 1.207 0 0 0
0.951814 -14.594858 0.755 0 0 0
0.889898 -14.562189 0.993 0 0 0
0.935742 -14.59116 1.074 0 0 0
0.956672 -14.602945 1.047 0 0 0
0.995019 -14.617995 0.632 0 0 0
0.942433 -14.593446 0.972 0 0 0
0.95716 -14.597583 0.762 0 0 0
0.990531 -14.620197 0.89 0 0 0
0.978074 -14.611606 0.849 0 0 0
0.965145 -14.606141 0.919 0 0 0
0.922865 -14.578986 0.839 0 0 0
0.988278 -14.622416 1.079 0 0 0
0.942416 -14.595682 1.13 0 0 0
0.949544 -14.599314 1.069 0 0 0
0.943307 -14.596136 1.111 0 0 0
0.895698 -14.564021 0.902 0 0 0
0.990076 -14.621089 0.967 0 0 0
0.901918 -14.569435 0.951 0 0 0
0.978998 -14.607588 0.599 0 0 0
0.968238 -14.611084 1.08 0 0 0
0.99191 -14.615288 0.558 0 0 0
0.981603 -14.617894 1.049 0 0 0
0.883224 -14.557666 0.963 0 0 0
0.965145 -14.606141 0.945 0 0 0
0.933069 -14.589797 1.052 0 0 0
0.968726 -14.605721 0.812 0 0 0
0.943761 -14.595245 1.058 0 0 0
0.994549 -14.621122 0.846 0 0 0
0.983368 -14.621038 1.179 0 0 0
0.988782 -14.614818 0.674 0 0 0
0.900136 -14.568527 0.959 0 0 0
0.979821 -14.616986 1.03 0 0 0
0.936667 -14.587141 0.852 0 0 0
0.962909 -14.606124 1.024 0 0 0
0.958017 -14.602509 0.948 0 0 0
0.958488 -14.599381 0.799 0 0 0
0.96918 -14.60483 0.715 0 0 0
0.990513 -14.622434 1.008 0 0 0
0.925504 -14.58482 1.046 0 0 0
0.918376 -14.581188 1.059 0 0 0
0.905482 -14.571251 0.988 0 0 0
0.971837 -14.608428 0.871 0 0 0
0.930413 -14.5862 0.96 0 0 0
0.934414 -14.58936 1.001 0 0 0
0.909046 -14.573067 0.952 0 0 0
0.98342 -14.614329 0.779 0 0 0
0.931321 -14.584417 0.86 0 0 0
0.923285 -14.582567 1.032 0 0 0
0.955361 -14.598911 0.896 0 0 0
0.982075 -14.614767 0.869 0 0 0
0.889007 -14.561735 0.965 0 0 0
0.955344 -14.601148 0.964 0 0 0
0.984782 -14.611656 0.648 0 0 0
0.97851 -14.612951 0.856 0 0 0
0.937558 -14.587595 0.833 0 0 0
0.897917 -14.566275 0.918 0 0 0
0.956672 -14.602945 1.014 0 0 0
0.969584 -14.610647 1.069 0 0 0
0.986109 -14.613456 0.701 0 0 0
0.952268 -14.593968 0.696 0 0 0
0.931321 -14.584417 0.845 0 0 0
0.94018 -14.595665 1.142 0 0 0
0.962472 -14.604779 0.954 0 0 0
0.968272 -14.606611 0.847 0 0 0
0.937961 -14.593411 1.126 0 0 0
0.977199 -14.608915 0.69 0 0 0
0.950435 -14.599768 1.043 0 0 0
0.961598 -14.602089 0.832 0 0 0
0.982983 -14.612985 0.742 0 0 0
0.961564 -14.606561 1.065 0 0 0
0.979351 -14.620112 1.234 0 0 0
0.948704 -14.592152 0.712 0 0 0
0.887225 -14.560827 0.986 0 0 0
0.943761 -14.595245 1.059 0 0 0
0.983856 -14.615675 0.837 0 0 0
0.897463 -14.567165 0.968 0 0 0
0.991387 -14.625124 1.118 0 0 0
0.987437 -14.615255 0.735 0 0 0
0.929959 -14.58709 1.047 0 0 0
0.902809 -14.569889 0.956 0 0 0
0.994111 -14.619778 0.777 0 0 0
0.988714 -14.623762 1.128 0 0 0
0.94909 -14.600205 1.141 0 0 0
0.939306 -14.592976 1.077 0 0 0
0.948199 -14.599751 1.119 0 0 0
0.982949 -14.617456 1.01 0 0 0
0.985604 -14.621055 1.093 0 0 0
0.987874 -14.616599 0.769 0 0 0
0.982477 -14.620584 1.157 0 0 0
0.931758 -14.585762 0.921 0 0 0
0.940214 -14.591193 0.948 0 0 0
0.925958 -14.58393 0.981 0 0 0
0.87966 -14.55585 0.962 0 0 0
0.924176 -14.583021 1.012 0 0 0
0.917485 -14.580734 1.06 0 0 0
0.93354 -14.58667 0.909 0 0 0
0.98737 -14.624199 1.225 0 0 0
0.979384 -14.615641 0.997 0 0 0
0.969584 -14.610647 1.026 0 0 0
0.98742 -14.617491 0.817 0 0 0
0.980746 -14.612967 0.784 0 0 0
0.969146 -14.609302 0.975 0 0 0
0.986529 -14.617037 0.828 0 0 0
0.989219 -14.616163 0.734 0 0 0
0.908609 -14.571723 0.901 0 0 0
0.962069 -14.598962 0.682 0 0 0
0.978493 -14.615187 0.987 0 0 0
0.952688 -14.597549 0.875 0 0 0
0.983385 -14.618802 1.045 0 0 0
0.97851 -14.612951 0.913 0 0 0
0.951309 -14.602459 1.172 0 0 0
0.957597 -14.598927 0.782 0 0 0
0.932212 -14.584871 0.841 0 0 0
0.872985 -14.551327 0.947 0 0 0
0.895681 -14.566257 1.013 0 0 0
0.979436 -14.608932 0.641 0 0 0
0.969112 -14.613774 1.198 0 0 0
0.881879 -14.558103 0.975 0 0 0
0.952251 -14.596204 0.81 0 0 0
0.920175 -14.579861 0.972 0 0 0
0.974963 -14.608899 0.777 0 0 0
0.958891 -14.605199 1.081 0 0 0
0.99317 -14.626032 1.148 0 0 0
0.94825 -14.593042 0.775 0 0 0
0.992279 -14.625578 1.148 0 0 0
0.901481 -14.56809 0.899 0 0 0
0.933086 -14.587562 0.955 0 0 0
0.98695 -14.620618 1.002 0 0 0
0.889461 -14.560843 0.891 0 0 0
0.983351 -14.623274 1.252 0 0 0
0.969163 -14.607065 0.842 0 0 0
0.973584 -14.613808 1.087 0 0 0
0.977602 -14.614733 0.977 0 0 0
0.988278 -14.622416 1.073 0 0 0
0.947762 -14.598406 1.07 0 0 0
0.980275 -14.616095 0.967 0 0 0
0.956723 -14.596238 0.681 0 0 0
0.984713 -14.620601 1.089 0 0 0
0.905028 -14.572143 0.993 0 0 0
0.893462 -14.564005 0.968 0 0 0
0.938415 -14.592522 1.084 0 0 0
0.991371 -14.627359 1.241 0 0 0
0.958034 -14.600273 0.846 0 0 0
0.972239 -14.614244 1.142 0 0 0
0.990076 -14.621089 0.949 0 0 0
0.969634 -14.603938 0.68 0 0 0
0.994111 -14.619778 0.787 0 0 0
0.943796 -14.590773 0.821 0 0 0
0.994583 -14.61665 0.599 0 0 0
0.922848 -14.581223 0.939 0 0 0
0.912593 -14.57712 1.06 0 0 0
0.978476 -14.617423 1.146 0 0 0
0.971382 -14.609319 0.905 0 0 0
0.994111 -14.619778 0.764 0 0 0
0.989152 -14.625107 1.221 0 0 0
0.967398 -14.603922 0.782 0 0 0
0.961547 -14.608797 1.198 0 0 0
0.943324 -14.5939 0.974 0 0 0
0.981637 -14.613421 0.842 0 0 0
0.95405 -14.594876 0.68 0 0 0
0.924176 -14.583021 0.973 0 0 0
0.976325 -14.606226 0.618 0 0 0
0.905919 -14.572597 1.022 0 0 0
0.985185 -14.617474 0.935 0 0 0
0.971837 -14.608428 0.867 0 0 0
0.93043 -14.583962 0.858 0 0 0
0.88857 -14.56039 0.888 0 0 0
0.941542 -14.592992 1.013 0 0 0
0.947762 -14.598406 1.086 0 0 0
0.914829 -14.577136 0.996 0 0 0
0.930867 -14.585308 0.891 0 0 0
0.983437 -14.612094 0.68 0 0 0
0.942416 -14.595682 1.094 0 0 0
0.986966 -14.618382 0.922 0 0 0
0.967381 -14.606157 0.845 0 0 0
0.944686 -14.591227 0.8 0 0 0
0.967801 -14.609739 1.021 0 0 0
0.952705 -14.595312 0.789 0 0 0
0.968726 -14.605721 0.828 0 0 0
0.995911 -14.618449 0.645 0 0 0
0.977653 -14.608025 0.625 0 0 0
0.961547 -14.608797 1.182 0 0 0
0.980242 -14.620566 1.222 0 0 0
0.959346 -14.604308 1.043 0 0 0
0.994532 -14.623359 0.907 0 0 0
0.974526 -14.607553 0.741 0 0 0
0.883224 -14.557666 0.947 0 0 0
0.98695 -14.620618 1.019 0 0 0
0.966524 -14.601232 0.646 0 0 0
0.967818 -14.607503 0.907 0 0 0
0.973602 -14.611571 0.985 0 0 0
0.994095 -14.622013 0.868 0 0 0
0.958488 -14.599381 0.79 0 0 0
0.966053 -14.60436 0.823 0 0 0
0.980712 -14.61744 1.066 0 0 0
0.909046 -14.573067 0.956 0 0 0
0.909029 -14.575304 1.036 0 0 0
0.953596 -14.595766 0.779 0 0 0
0.961564 -14.606561 1.087 0 0 0
0.927723 -14.587073 1.105 0 0 0
0.986966 -14.618382 0.897 0 0 0
0.982494 -14.618348 1.018 0 0 0
0.951377 -14.593514 0.69 0 0 0
0.991371 -14.627359 1.278 0 0 0
0.896135 -14.565367 0.945 0 0 0
0.961564 -14.606561 1.069 0 0 0
0.952234 -14.59844 0.954 0 0 0
0.955815 -14.59802 0.788 0 0 0
0.924193 -14.580785 0.89 0 0 0
0.915266 -14.578482 1.042 0 0 0
0.989674 -14.615272 0.635 0 0 0
0.899699 -14.567183 0.938 0 0 0
0.941559 -14.590756 0.846 0 0 0
0.983385 -14.618802 1.066 0 0 0
0.933994 -14.585779 0.838 0 0 0
0.965179 -14.601668 0.704 0 0 0
0.960237 -14.604762 1.029 0 0 0
0.927757 -14.582601 0.873 0 0 0
0.991387 -14.625124 1.153 0 0 0
0.995457 -14.619341 0.692 0 0 0
0.923739 -14.581676 0.953 0 0 0
0.979805 -14.619222 1.199 0 0 0
0.943324 -14.5939 0.993 0 0 0
0.981654 -14.611186 0.708 0 0 0
0.947308 -14.599298 1.152 0 0 0
0.974896 -14.617843 1.238 0 0 0
0.990076 -14.621089 0.949 0 0 0
0.95489 -14.602037 1.045 0 0 0
0.98737 -14.624199 1.216 0 0 0
0.904591 -14.570797 0.94 0 0 0
0.971416 -14.604846 0.673 0 0 0
0.978493 -14.615187 1.01 0 0 0
0.937961 -14.593411 1.091 0 0 0
0.978091 -14.60937 0.68 0 0 0
0.959328 -14.606544 1.13 0 0 0
0.911282 -14.573085 0.897 0 0 0
0.977619 -14.612497 0.887 0 0 0
0.986058 -14.620164 1.056 0 0 0
0.988731 -14.621526 1.024 0 0 0
0.988312 -14.617945 0.812 0 0 0
0.937524 -14.592068 1.073 0 0 0
0.950923 -14.594404 0.787 0 0 0
0.890352 -14.561297 0.904 0 0 0
0.890789 -14.562643 0.947 0 0 0
0.969634 -14.603938 0.708 0 0 0
0.938415 -14.592522 1.071 0 0 0
0.966474 -14.60794 0.997 0 0 0
0.972693 -14.613354 1.098 0 0 0
0.993657 -14.620668 0.824 0 0 0
0.969129 -14.611538 1.106 0 0 0
0.985219 -14.613002 0.693 0 0 0
0.960725 -14.599399 0.699 0 0 0
0.905936 -14.57036 0.909 0 0 0
0.977602 -14.614733 0.98 0 0 0
0.931758 -14.585762 0.907 0 0 0
0.917956 -14.577607 0.932 0 0 0
0.91261 -14.574883 0.913 0 0 0
0.937524 -14.592068 1.055 0 0 0
0.988328 -14.615709 0.707 0 0 0
0.931741 -14.587998 1.056 0 0 0
0.972308 -14.605301 0.692 0 0 0
0.951343 -14.597986 0.913 0 0 0
0.899699 -14.567183 0.945 0 0 0
0.976762 -14.607571 0.666 0 0 0
0.9656 -14.605249 0.906 0 0 0
0.994968 -14.624704 0.985 0 0 0
0.957563 -14.603399 1.024 0 0 0
0.959379 -14.599835 0.818 0 0 0
0.978057 -14.613841 0.955 0 0 0
0.928631 -14.585292 0.987 0 0 0
0.93085 -14.587544 1.061 0 0 0
0.921957 -14.580769 0.963 0 0 0
0.942416 -14.595682 1.125 0 0 0
0.930884 -14.583073 0.818 0 0 0
0.99317 -14.626032 1.121 0 0 0
0.985621 -14.618818 0.992 0 0 0
0.951343 -14.597986 0.973 0 0 0
0.918376 -14.581188 1.072 0 0 0
0.907281 -14.569923 0.837 0 0 0
0.964238 -14.607924 1.063 0 0 0
0.984345 -14.610312 0.583 0 0 0
0.980259 -14.618331 1.093 0 0 0
0.954907 -14.599802 0.927 0 0 0
0.959396 -14.5976 0.666 0 0 0
0.960287 -14.598054 0.692 0 0 0
0.945123 -14.592572 0.822 0 0 0
0.946888 -14.595716 0.941 0 0 0
0.958017 -14.602509 0.984 0 0 0
0.977199 -14.608915 0.73 0 0 0
0.991387 -14.625124 1.107 0 0 0
0.962035 -14.603434 0.908 0 0 0
0.971365 -14.611555 1.052 0 0 0
0.927286 -14.585728 1.051 0 0 0
0.972728 -14.608882 0.878 0 0 0
0.943358 -14.589428 0.767 0 0 0
0.972711 -14.611117 0.973 0 0 0
0.966019 -14.608831 1.051 0 0 0
0.962018 -14.60567 1.021 0 0 0
0.959765 -14.607889 1.192 0 0 0
0.964221 -14.610159 1.168 0 0 0
0.906827 -14.570814 0.898 0 0 0
0.989169 -14.62287 1.103 0 0 0
0.953982 -14.603821 1.166 0 0 0
0.94909 -14.600205 1.131 0 0 0
0.954 -14.601583 1.018 0 0 0
0.990917 -14.62825 1.286 0 0 0
0.974072 -14.608445 0.758 0 0 0
0.970054 -14.607519 0.864 0 0 0
0.988782 -14.614818 0.632 0 0 0
0.947359 -14.592588 0.763 0 0 0
0.960237 -14.604762 1.018 0 0 0
0.932195 -14.587108 0.981 0 0 0
0.929085 -14.5844 0.901 0 0 0
0.945997 -14.595262 0.977 0 0 0
0.943358 -14.589428 0.734 0 0 0
0.9696 -14.608411 0.948 0 0 0
0.882333 -14.557212 0.921 0 0 0
0.968238 -14.611084 1.094 0 0 0
0.896589 -14.564475 0.911 0 0 0
0.995423 -14.623813 0.911 0 0 0
0.976728 -14.612043 0.887 0 0 0
0.921957 -14.580769 0.926 0 0 0
0.989674 -14.615272 0.647 0 0 0
0.984294 -14.61702 0.895 0 0 0
0.978074 -14.611606 0.796 0 0 0
0.87966 -14.55585 0.968 0 0 0
0.96333 -14.609705 1.203 0 0 0
0.966002 -14.611067 1.2 0 0 0
0.985202 -14.615237 0.808 0 0 0
0.994095 -14.622013 0.849 0 0 0
0.961581 -14.604325 0.977 0 0 0
0.963817 -14.604342 0.897 0 0 0
0.984276 -14.619256 1.01 0 0 0
0.990043 -14.625561 1.18 0 0 0
0.92152 -14.579423 0.895 0 0 0
0.978982 -14.609824 0.698 0 0 0
0.981654 -14.611186 0.669 0 0 0
0.901918 -14.569435 0.949 0 0 0
0.925504 -14.58482 1.078 0 0 0
0.970474 -14.611101 1.031 0 0 0
0.985638 -14.616583 0.825 0 0 0
0.954941 -14.59533 0.705 0 0 0
0.937087 -14.590722 1.027 0 0 0
0.978913 -14.618768 1.172 0 0 0
0.990128 -14.61438 0.582 0 0 0
0.978039 -14.616078 1.074 0 0 0
0.95136 -14.59575 0.817 0 0 0
0.92194 -14.583004 1.069 0 0 0
0.940231 -14.588957 0.818 0 0 0
0.885006 -14.558574 0.928 0 0 0
0.91261 -14.574883 0.907 0 0 0
0.89748 -14.564929 0.905 0 0 0
0.975366 -14.614717 1.089 0 0 0
0.93707 -14.592957 1.133 0 0 0
0.9522 -14.602913 1.165 0 0 0
0.929976 -14.584854 0.902 0 0 0
0.955344 -14.601148 1.009 0 0 0
0.903246 -14.571235 1.034 0 0 0
0.957614 -14.596692 0.667 0 0 0
0.954436 -14.602929 1.105 0 0 0
0.971348 -14.613791 1.164 0 0 0
0.987858 -14.618835 0.918 0 0 0
0.965633 -14.600778 0.669 0 0 0
0.951343 -14.597986 0.916 0 0 0
0.908155 -14.572613 0.934 0 0 0
0.987858 -14.618835 0.901 0 0 0
0.973199 -14.605755 0.656 0 0 0
0.994583 -14.61665 0.56 0 0 0
0.965565 -14.609722 1.117 0 0 0
0.993187 -14.623796 0.998 0 0 0
0.959379 -14.599835 0.776 0 0 0
0.977602 -14.614733 0.997 0 0 0
0.980309 -14.611623 0.77 0 0 0
0.97624 -14.617406 1.22 0 0 0
0.970458 -14.613337 1.131 0 0 0
0.914392 -14.575791 0.934 0 0 0
0.97187 -14.603956 0.641 0 0 0
0.931304 -14.586654 0.943 0 0 0
0.955379 -14.596675 0.732 0 0 0
0.926713 -14.602271 0.127 0 0 0
0.86747 -14.570963 0.109 0 0 0
0.779277 -14.523782 0.082 0 0 0
0.920527 -14.592385 0.242 0 0 0
0.889728 -14.584548 0.087 0 0 0
0.865234 -14.570946 0.087 0 0 0
0.974357 -14.629914 0.102 0 0 0
0.989152 -14.625107 0.329 0 0 0
0.967665 -14.627626 0.088 0 0 0
0.976745 -14.609807 0.478 0 0 0
0.71736 -14.491112 0.068 0 0 0
0.958017 -14.602509 0.426 0 0 0
0.909835 -14.586937 0.244 0 0 0
0.982847 -14.630873 0.176 0 0 0
0.906271 -14.585121 0.244 0 0 0
0.949073 -14.602441 0.338 0 0 0
0.504478 -14.373664 0.064 0 0 0
0.958908 -14.602963 0.437 0 0 0
0.558796 -14.405829 0.037 0 0 0
0.949493 -14.606022 0.289 0 0 0
0.924596 -14.586602 0.395 0 0 0
0.970038 -14.609756 0.426 0 0 0
0.723597 -14.494289 0.061 0 0 0
0.922377 -14.58435 0.414 0 0 0
0.82339 -14.545136 0.137 0 0 0
0.909835 -14.586937 0.246 0 0 0
0.587308 -14.420357 0.057 0 0 0
0.504915 -14.37501 0.051 0 0 0
0.873304 -14.568324 0.223 0 0 0
0.962875 -14.610597 0.331 0 0 0
0.977619 -14.612497 0.445 0 0 0
0.948569 -14.61004 0.206 0 0 0
0.954907 -14.599802 0.438 0 0 0
0.944585 -14.604643 0.262 0 0 0
0.926412 -14.583038 0.472 0 0 0
0.663463 -14.462527 0.052 0 0 0
0.977047 -14.62904 0.15 0 0 0
0.863957 -14.562439 0.22 0 0 0
0.953007 -14.614546 0.176 0 0 0
0.49155 -14.368199 0.051 0 0 0
0.977653 -14.608025 0.512 0 0 0
0.952149 -14.60962 0.257 0 0 0
0.947694 -14.60735 0.251 0 0 0
0.84923 -14.558303 0.159 0 0 0
0.733853 -14.498392 0.093 0 0 0
0.978982 -14.609824 0.506 0 0 0
0.99006 -14.623324 0.377 0 0 0
0.988697 -14.625998 0.307 0 0 0
0.492441 -14.368653 0.048 0 0 0
0.948063 -14.617639 0.07 0 0 0
0.84301 -14.552888 0.183 0 0 0
0.956133 -14.615017 0.199 0 0 0
0.932598 -14.592924 0.362 0 0 0
0.980611 -14.630856 0.158 0 0 0
0.781144 -14.51351 0.278 0 0 0
0.926849 -14.584384 0.454 0 0 0
0.775276 -14.520621 0.104 0 0 0
0.950299 -14.617657 0.095 0 0 0
0.9543 -14.620817 0.081 0 0 0
0.845229 -14.555141 0.174 0 0 0
0.884382 -14.581824 0.075 0 0 0
0.812228 -14.542815 0.081 0 0 0
0.95072 -14.621237 0.04 0 0 0
0.905766 -14.59272 0.093 0 0 0
0.908019 -14.590502 0.153 0 0 0
0.910255 -14.590518 0.185 0 0 0
0.916089 -14.587879 0.282 0 0 0
0.950299 -14.617657 0.096 0 0 0
0.913802 -14.59457 0.146 0 0 0
0.656352 -14.456659 0.073 0 0 0
0.87058 -14.57367 0.088 0 0 0
0.921872 -14.591949 0.268 0 0 0
0.963749 -14.613286 0.293 0 0 0
0.936565 -14.600556 0.262 0 0 0
0.736509 -14.50199 0.055 0 0 0
0.918291 -14.592368 0.226 0 0 0
0.919233 -14.586115 0.351 0 0 0
0.966474 -14.60794 0.422 0 0 0
0.926798 -14.591091 0.324 0 0 0
0.95531 -14.605618 0.355 0 0 0
0.9812 -14.612077 0.478 0 0 0
0.591763 -14.422626 0.049 0 0 0
0.551684 -14.399961 0.064 0 0 0
0.943206 -14.609552 0.166 0 0 0
0.98964 -14.619743 0.431 0 0 0
0.943761 -14.595245 0.427 0 0 0
0.974526 -14.607553 0.504 0 0 0
0.799872 -14.520807 0.334 0 0 0
0.967314 -14.615102 0.302 0 0 0
0.953393 -14.622599 0.04 0 0 0
0.949981 -14.600659 0.375 0 0 0
0.986444 -14.628217 0.254 0 0 0
0.920544 -14.590149 0.281 0 0 0
0.986529 -14.617037 0.453 0 0 0
0.944215 -14.594354 0.435 0 0 0
0.969533 -14.617354 0.284 0 0 0
0.950804 -14.610058 0.231 0 0 0
0.898689 -14.58238 0.209 0 0 0
0.97086 -14.619154 0.254 0 0 0
0.948619 -14.603333 0.316 0 0 0
0.887997 -14.576933 0.194 0 0 0
0.935623 -14.606812 0.142 0 0 0
0.95842 -14.608326 0.333 0 0 0
0.921435 -14.590603 0.278 0 0 0
0.990479 -14.626905 0.308 0 0 0
0.982393 -14.631763 0.155 0 0 0
0.959714 -14.614597 0.239 0 0 0
0.938279 -14.610409 0.103 0 0 0
0.930311 -14.599615 0.204 0 0 0
0.92942 -14.599161 0.207 0 0 0
0.57796 -14.414473 0.07 0 0 0
0.869286 -14.567399 0.195 0 0 0
0.976745 -14.609807 0.492 0 0 0
0.912894 -14.596353 0.113 0 0 0
0.948182 -14.601987 0.353 0 0 0
0.942785 -14.605971 0.232 0 0 0
0.85856 -14.566422 0.106 0 0 0
0.921032 -14.584786 0.388 0 0 0
0.982966 -14.615221 0.437 0 0 0
0.792222 -14.527011 0.154 0 0 0
0.943206 -14.609552 0.158 0 0 0
0.930413 -14.5862 0.447 0 0 0
0.712014 -14.488388 0.055 0 0 0
0.819356 -14.546448 0.081 0 0 0
0.948216 -14.597515 0.43 0 0 0
0.994111 -14.619778 0.468 0 0 0
0.484422 -14.364568 0.043 0 0 0
0.785616 -14.513544 0.333 0 0 0
0.821591 -14.546465 0.108 0 0 0
0.981536 -14.626838 0.23 0 0 0
0.914659 -14.599497 0.073 0 0 0
0.961514 -14.613269 0.269 0 0 0
0.724488 -14.494743 0.08 0 0 0
0.96955 -14.615119 0.328 0 0 0
0.923604 -14.599565 0.155 0 0 0
0.898672 -14.584617 0.18 0 0 0
0.951746 -14.603803 0.352 0 0 0
0.506697 -14.375917 0.065 0 0 0
0.810076 -14.531618 0.246 0 0 0
0.952688 -14.597549 0.47 0 0 0
0.896453 -14.582364 0.193 0 0 0
0.97972 -14.630402 0.143 0 0 0
0.854105 -14.564153 0.11 0 0 0
0.981116 -14.623257 0.292 0 0 0
0.906186 -14.596301 0.042 0 0 0
0.975417 -14.608007 0.496 0 0 0
0.936179 -14.592504 0.385 0 0 0
0.918274 -14.594604 0.18 0 0 0
0.914341 -14.5825 0.355 0 0 0
0.974811 -14.629023 0.131 0 0 0
0.959328 -14.606544 0.367 0 0 0
0.928143 -14.590654 0.348 0 0 0
0.88487 -14.576462 0.187 0 0 0
0.964976 -14.628501 0.042 0 0 0
0.945997 -14.595262 0.436 0 0 0
0.830485 -14.553241 0.071 0 0 0
0.986008 -14.626872 0.281 0 0 0
0.929454 -14.594689 0.3 0 0 0
0.788709 -14.518487 0.266 0 0 0
0.957495 -14.612344 0.25 0 0 0
0.776604 -14.52242 0.093 0 0 0
0.628277 -14.443477 0.04 0 0 0
0.967853 -14.60303 0.507 0 0 0
0.970406 -14.620045 0.235 0 0 0
0.924579 -14.588839 0.348 0 0 0
0.921804 -14.600892 0.102 0 0 0
0.896436 -14.584599 0.16 0 0 0
0.962336 -14.622667 0.121 0 0 0
0.973619 -14.609336 0.451 0 0 0
0.848322 -14.560084 0.109 0 0 0
0.936061 -14.608156 0.111 0 0 0
0.934414 -14.58936 0.425 0 0 0
0.978982 -14.609824 0.511 0 0 0
0.98779 -14.62778 0.278 0 0 0
0.510261 -14.377733 0.056 0 0 0
0.75438 -14.504362 0.191 0 0 0
0.965078 -14.615085 0.269 0 0 0
0.961616 -14.599853 0.506 0 0 0
0.925067 -14.583476 0.455 0 0 0
0.969919 -14.625407 0.15 0 0 0
0.903161 -14.582415 0.262 0 0 0
0.859921 -14.56375 0.168 0 0 0
0.735635 -14.4993 0.104 0 0 0
0.964623 -14.615976 0.25 0 0 0
0.706214 -14.486554 0.038 0 0 0
0.974896 -14.617843 0.331 0 0 0
0.908053 -14.586029 0.242 0 0 0
0.977569 -14.619205 0.322 0 0 0
0.891981 -14.58233 0.157 0 0 0
0.931622 -14.60365 0.156 0 0 0
0.545447 -14.396783 0.056 0 0 0
0.577507 -14.415362 0.038 0 0 0
0.975685 -14.631713 0.089 0 0 0
0.771258 -14.519696 0.086 0 0 0
0.915181 -14.589662 0.239 0 0 0
0.765021 -14.516518 0.078 0 0 0
0.953881 -14.617236 0.134 0 0 0
0.963682 -14.62223 0.147 0 0 0
0.972557 -14.631242 0.069 0 0 0
0.945929 -14.604206 0.287 0 0 0
0.923637 -14.595093 0.235 0 0 0
0.964976 -14.628501 0.049 0 0 0
0.839411 -14.555545 0.11 0 0 0
0.957109 -14.604291 0.38 0 0 0
0.893881 -14.567586 0.424 0 0 0
0.779731 -14.522891 0.105 0 0 0
0.927621 -14.60049 0.182 0 0 0
0.973953 -14.624097 0.2 0 0 0
0.94904 -14.606913 0.264 0 0 0
0.806478 -14.534274 0.157 0 0 0
0.93976 -14.592084 0.438 0 0 0
0.909381 -14.587829 0.212 0 0 0
0.978341 -14.63531 0.059 0 0 0
0.98288 -14.626401 0.242 0 0 0
0.783817 -14.514872 0.285 0 0 0
0.910658 -14.596335 0.086 0 0 0
0.844741 -14.560504 0.071 0 0 0
0.887055 -14.583186 0.093 0 0 0
0.837646 -14.552401 0.155 0 0 0
0.854105 -14.564153 0.109 0 0 0
0.942399 -14.597919 0.358 0 0 0
0.893292 -14.586365 0.085 0 0 0
0.914778 -14.583845 0.342 0 0 0
0.977199 -14.608915 0.5 0 0 0
0.980259 -14.618331 0.364 0 0 0
0.98515 -14.621946 0.358 0 0 0
0.993237 -14.617087 0.513 0 0 0
0.718689 -14.49291 0.054 0 0 0
0.970491 -14.608865 0.438 0 0 0
0.967818 -14.607503 0.444 0 0 0
0.984242 -14.623728 0.31 0 0 0
0.9735 -14.624988 0.194 0 0 0
0.936934 -14.610847 0.08 0 0 0
0.538319 -14.393151 0.049 0 0 0
0.91925 -14.583879 0.379 0 0 0
0.956554 -14.618598 0.142 0 0 0
0.970775 -14.630334 0.06 0 0 0
0.934363 -14.596068 0.313 0 0 0
0.943324 -14.5939 0.436 0 0 0
0.890653 -14.580531 0.167 0 0 0
0.923217 -14.591511 0.282 0 0 0
0.511152 -14.378187 0.061 0 0 0
0.860359 -14.565095 0.149 0 0 0
0.836773 -14.54971 0.186 0 0 0
0.978527 -14.610715 0.487 0 0 0
0.967716 -14.620919 0.21 0 0 0
0.986882 -14.629561 0.229 0 0 0
0.956168 -14.610545 0.267 0 0 0
0.921469 -14.586131 0.363 0 0 0
0.974777 -14.633494 0.049 0 0 0
0.919602 -14.596404 0.168 0 0 0
0.974526 -14.607553 0.495 0 0 0
0.978375 -14.630838 0.122 0 0 0
0.970508 -14.606629 0.47 0 0 0
0.932547 -14.599632 0.229 0 0 0
0.575725 -14.414454 0.051 0 0 0
0.928478 -14.605415 0.1 0 0 0
0.95968 -14.619069 0.156 0 0 0
0.99006 -14.623324 0.378 0 0 0
0.974844 -14.624551 0.214 0 0 0
0.952166 -14.607384 0.294 0 0 0
0.950822 -14.607821 0.26 0 0 0
0.956571 -14.616362 0.173 0 0 0
0.961445 -14.622213 0.113 0 0 0
0.813119 -14.543269 0.075 0 0 0
0.956571 -14.616362 0.181 0 0 0
0.954017 -14.599348 0.444 0 0 0
0.97397 -14.621861 0.235 0 0 0
0.968204 -14.615556 0.303 0 0 0
0.976189 -14.624114 0.224 0 0 0
0.963261 -14.618649 0.188 0 0 0
0.971399 -14.607083 0.478 0 0 0
0.71067 -14.488825 0.049 0 0 0
0.916878 -14.601749 0.046 0 0 0
0.974459 -14.616498 0.352 0 0 0
0.971281 -14.622735 0.196 0 0 0
0.858611 -14.559715 0.221 0 0 0
0.936111 -14.601448 0.243 0 0 0
0.818567 -14.532578 0.311 0 0 0
0.714234 -14.490641 0.041 0 0 0
0.973551 -14.61828 0.31 0 0 0
0.897781 -14.584163 0.164 0 0 0
0.990984 -14.619307 0.444 0 0 0
0.853214 -14.563699 0.095 0 0 0
0.855887 -14.565061 0.102 0 0 0
0.943761 -14.595245 0.426 0 0 0
0.946332 -14.610023 0.187 0 0 0
0.924176 -14.583021 0.452 0 0 0
0.575288 -14.413111 0.056 0 0 0
0.956621 -14.609654 0.281 0 0 0
0.917854 -14.591023 0.25 0 0 0
0.961161 -14.600744 0.495 0 0 0
0.598437 -14.42715 0.038 0 0 0
0.875136 -14.562524 0.325 0 0 0
0.97745 -14.634856 0.056 0 0 0
0.917468 -14.582971 0.378 0 0 0
0.786944 -14.515343 0.309 0 0 0
0.950032 -14.59395 0.497 0 0 0
0.576616 -14.414908 0.039 0 0 0
0.94825 -14.593042 0.493 0 0 0
0.986899 -14.627326 0.265 0 0 0
0.944618 -14.600171 0.338 0 0 0
0.954789 -14.615454 0.179 0 0 0
0.93522 -14.600994 0.242 0 0 0
0.918342 -14.585661 0.341 0 0 0
0.791332 -14.526557 0.166 0 0 0
0.700868 -14.48383 0.039 0 0 0
0.963834 -14.602106 0.483 0 0 0
0.923217 -14.591511 0.29 0 0 0
0.944079 -14.612242 0.13 0 0 0
0.970894 -14.614682 0.344 0 0 0
0.978392 -14.628603 0.161 0 0 0
0.98784 -14.621072 0.395 0 0 0
0.98868 -14.628234 0.268 0 0 0
0.959748 -14.610125 0.307 0 0 0
0.929 -14.59558 0.277 0 0 0
0.935305 -14.589814 0.425 0 0 0
0.98246 -14.62282 0.313 0 0 0
0.918291 -14.592368 0.229 0 0 0
0.850138 -14.55652 0.189 0 0 0
0.956066 -14.62396 0.042 0 0 0
0.960974 -14.62534 0.066 0 0 0
0.940532 -14.60819 0.17 0 0 0
0.894671 -14.581456 0.193 0 0 0
0.589981 -14.421719 0.053 0 0 0
0.920561 -14.587914 0.323 0 0 0
0.964623 -14.615976 0.253 0 0 0
0.978948 -14.614295 0.424 0 0 0
0.941003 -14.605063 0.227 0 0 0
0.675483 -14.469774 0.04 0 0 0
0.98283 -14.633109 0.125 0 0 0
0.949056 -14.604677 0.306 0 0 0
0.989169 -14.62287 0.371 0 0 0
0.92715 -14.603616 0.106 0 0 0
0.910323 -14.581575 0.331 0 0 0
0.901328 -14.588215 0.135 0 0 0
0.660807 -14.458929 0.088 0 0 0
0.705777 -14.48521 0.049 0 0 0
0.949391 -14.619438 0.056 0 0 0
0.990967 -14.621543 0.409 0 0 0
0.913399 -14.588753 0.235 0 0 0
0.917786 -14.599967 0.085 0 0 0
0.905295 -14.595847 0.044 0 0 0
0.97086 -14.619154 0.268 0 0 0
0.785582 -14.518016 0.257 0 0 0
0.798022 -14.528844 0.173 0 0 0
0.915703 -14.579826 0.428 0 0 0
0.76102 -14.513357 0.1 0 0 0
0.937422 -14.605483 0.175 0 0 0
0.939726 -14.596557 0.348 0 0 0
0.89958 -14.582834 0.221 0 0 0
0.818095 -14.535705 0.254 0 0 0
0.93396 -14.590251 0.422 0 0 0
0.812681 -14.541924 0.09 0 0 0
0.898689 -14.58238 0.218 0 0 0
0.940078 -14.609081 0.144 0 0 0
0.929789 -14.60945 0.043 0 0 0
0.835831 -14.555964 0.076 0 0 0
0.813572 -14.542378 0.1 0 0 0
0.98737 -14.624199 0.339 0 0 0
0.875977 -14.569686 0.208 0 0 0
0.987 -14.61391 0.513 0 0 0
0.96027 -14.60029 0.492 0 0 0
0.915703 -14.579826 0.427 0 0 0
0.914341 -14.5825 0.369 0 0 0
0.955361 -14.598911 0.463 0 0 0
0.651897 -14.45439 0.076 0 0 0
0.927252 -14.5902 0.343 0 0 0
0.789146 -14.519833 0.245 0 0 0
0.856324 -14.566406 0.077 0 0 0
0.978965 -14.61206 0.464 0 0 0
0.811875 -14.530291 0.287 0 0 0
0.947291 -14.601533 0.35 0 0 0
0.960673 -14.606107 0.388 0 0 0
0.933875 -14.601432 0.215 0 0 0
0.897798 -14.581926 0.206 0 0 0
0.932178 -14.589343 0.417 0 0 0
0.963194 -14.627593 0.04 0 0 0
0.946349 -14.607787 0.221 0 0 0
0.949879 -14.614075 0.139 0 0 0
0.987404 -14.619727 0.417 0 0 0
0.956706 -14.598474 0.482 0 0 0
0.92093 -14.598202 0.155 0 0 0
0.955697 -14.613672 0.206 0 0 0
0.71736 -14.491112 0.071 0 0 0
0.978426 -14.624131 0.24 0 0 0
0.982512 -14.616112 0.422 0 0 0
0.934732 -14.606358 0.132 0 0 0
0.95178 -14.599331 0.422 0 0 0
0.949845 -14.618546 0.062 0 0 0
0.910641 -14.598572 0.049 0 0 0
0.98784 -14.621072 0.391 0 0 0
0.806058 -14.530694 0.232 0 0 0
0.965446 -14.625374 0.1 0 0 0
0.972728 -14.608882 0.449 0 0 0
0.946837 -14.602425 0.318 0 0 0
0.967263 -14.62181 0.172 0 0 0
0.907111 -14.592283 0.129 0 0 0
0.966825 -14.620465 0.206 0 0 0
0.901379 -14.581507 0.244 0 0 0
0.927638 -14.598253 0.212 0 0 0
0.945055 -14.601517 0.331 0 0 0
0.909381 -14.587829 0.214 0 0 0
0.896856 -14.588181 0.096 0 0 0
0.85903 -14.563296 0.156 0 0 0
0.967801 -14.609739 0.403 0 0 0
0.970962 -14.605738 0.492 0 0 0
0.923183 -14.595984 0.212 0 0 0
0.964187 -14.614631 0.269 0 0 0
0.790928 -14.520741 0.26 0 0 0
0.959363 -14.602072 0.449 0 0 0
0.933489 -14.593379 0.355 0 0 0
0.932615 -14.590688 0.399 0 0 0
0.889342 -14.576495 0.227 0 0 0
0.981133 -14.62102 0.337 0 0 0
0.917837 -14.59326 0.201 0 0 0
0.520499 -14.384071 0.048 0 0 0
0.501351 -14.373194 0.053 0 0 0
0.931304 -14.586654 0.444 0 0 0
0.933523 -14.588906 0.425 0 0 0
0.904892 -14.590031 0.13 0 0 0
0.564595 -14.407662 0.055 0 0 0
0.899143 -14.58149 0.233 0 0 0
0.970877 -14.616918 0.295 0 0 0
0.908456 -14.591846 0.135 0 0 0
0.749891 -14.506564 0.11 0 0 0
0.942887 -14.592555 0.463 0 0 0
0.969969 -14.6187 0.264 0 0 0
0.942416 -14.595682 0.404 0 0 0
0.989588 -14.626451 0.307 0 0 0
0.845178 -14.561849 0.055 0 0 0
0.876499 -14.559851 0.398 0 0 0
0.963648 -14.626702 0.057 0 0 0
0.982477 -14.620584 0.347 0 0 0
0.94186 -14.609989 0.142 0 0 0
0.902656 -14.590014 0.113 0 0 0
0.812312 -14.531636 0.271 0 0 0
0.975702 -14.629477 0.131 0 0 0
0.827375 -14.550533 0.09 0 0 0
0.788255 -14.519379 0.242 0 0 0
0.971837 -14.608428 0.464 0 0 0
0.953982 -14.603821 0.368 0 0 0
0.979771 -14.623693 0.261 0 0 0
0.657697 -14.456222 0.094 0 0 0
0.913836 -14.590098 0.223 0 0 0
0.948971 -14.615857 0.114 0 0 0
0.973602 -14.611571 0.413 0 0 0
0.988749 -14.619289 0.431 0 0 0
0.885761 -14.576916 0.192 0 0 0
0.826518 -14.545608 0.163 0 0 0
0.955242 -14.614563 0.183 0 0 0
0.977535 -14.623677 0.244 0 0 0
0.789146 -14.519833 0.246 0 0 0
0.926276 -14.600926 0.147 0 0 0
0.972121 -14.629897 0.081 0 0 0
0.790491 -14.519395 0.265 0 0 0
0.930294 -14.601851 0.18 0 0 0
0.936934 -14.610847 0.089 0 0 0
0.91202 -14.593662 0.14 0 0 0
0.920527 -14.592385 0.242 0 0 0
0.905346 -14.58914 0.152 0 0 0
0.973988 -14.619624 0.278 0 0 0
0.901799 -14.585088 0.204 0 0 0
0.792727 -14.519411 0.291 0 0 0
0.791785 -14.525666 0.177 0 0 0
0.939607 -14.612208 0.089 0 0 0
0.874632 -14.570123 0.19 0 0 0
0.929976 -14.584854 0.477 0 0 0
0.90538 -14.584667 0.238 0 0 0
0.898184 -14.589979 0.08 0 0 0
0.96632 -14.628064 0.054 0 0 0
0.944936 -14.617168 0.055 0 0 0
0.990967 -14.621543 0.411 0 0 0
0.647442 -14.45212 0.074 0 0 0
0.887644 -14.564408 0.413 0 0 0
0.725817 -14.496542 0.062 0 0 0
0.91118 -14.5865 0.259 0 0 0
0.935203 -14.60323 0.194 0 0 0
0.782472 -14.515309 0.276 0 0 0
0.983301 -14.629982 0.195 0 0 0
0.827863 -14.54517 0.177 0 0 0
0.982393 -14.631763 0.153 0 0 0
0.979249 -14.633529 0.098 0 0 0
0.929824 -14.604978 0.122 0 0 0
0.930867 -14.585308 0.465 0 0 0
0.775259 -14.522857 0.073 0 0 0
0.820247 -14.546902 0.082 0 0 0
0.961581 -14.604325 0.434 0 0 0
0.804713 -14.531131 0.195 0 0 0
0.901328 -14.588215 0.13 0 0 0
0.574834 -14.414001 0.043 0 0 0
0.937439 -14.603248 0.227 0 0 0
0.814934 -14.539705 0.153 0 0 0
0.492441 -14.368653 0.044 0 0 0
0.844757 -14.558269 0.114 0 0 0
0.963732 -14.615522 0.254 0 0 0
0.947678 -14.609586 0.199 0 0 0
0.920107 -14.588804 0.306 0 0 0
0.993657 -14.620668 0.456 0 0 0
0.983823 -14.620147 0.377 0 0 0
0.782387 -14.526489 0.075 0 0 0
0.962909 -14.606124 0.42 0 0 0
0.849213 -14.560538 0.115 0 0 0
0.982949 -14.617456 0.402 0 0 0
0.905397 -14.582432 0.268 0 0 0
0.955764 -14.604729 0.377 0 0 0
0.866108 -14.573636 0.052 0 0 0
0.916509 -14.59146 0.229 0 0 0
0.949124 -14.595734 0.47 0 0 0
0.96918 -14.60483 0.503 0 0 0
0.966337 -14.625828 0.106 0 0 0
0.963346 -14.607469 0.396 0 0 0
0.957041 -14.613235 0.224 0 0 0
0.87638 -14.575502 0.109 0 0 0
0.950283 -14.619892 0.056 0 0 0
0.897327 -14.585053 0.154 0 0 0
0.965985 -14.613302 0.315 0 0 0
0.813119 -14.543269 0.079 0 0 0
0.968557 -14.62808 0.088 0 0 0
0.817187 -14.537486 0.208 0 0 0
0.517389 -14.381365 0.056 0 0 0
0.871471 -14.574124 0.095 0 0 0
0.953982 -14.603821 0.362 0 0 0
0.941979 -14.594337 0.408 0 0 0
0.504461 -14.375899 0.037 0 0 0
0.492441 -14.368653 0.038 0 0 0
0.947257 -14.606005 0.272 0 0 0
0.912423 -14.59948 0.04 0 0 0
0.657243 -14.457113 0.087 0 0 0
0.794055 -14.521211 0.27 0 0 0
0.988328 -14.615709 0.48 0 0 0
0.878684 -14.566576 0.287 0 0 0
0.988312 -14.617945 0.448 0 0 0
0.98473 -14.618364 0.399 0 0 0
0.575288 -14.413111 0.061 0 0 0
0.980594 -14.633092 0.105 0 0 0
0.964555 -14.62492 0.094 0 0 0
0.66659 -14.462997 0.076 0 0 0
0.935708 -14.595632 0.34 0 0 0
0.502696 -14.372756 0.069 0 0 0
0.932178 -14.589343 0.414 0 0 0
0.908036 -14.588266 0.208 0 0 0
0.921872 -14.591949 0.272 0 0 0
0.860779 -14.568676 0.09 0 0 0
0.945123 -14.592572 0.487 0 0 0
0.989219 -14.616163 0.485 0 0 0
0.856812 -14.561043 0.18 0 0 0
0.941877 -14.607754 0.188 0 0 0
0.951797 -14.597095 0.46 0 0 0
0.917888 -14.586552 0.322 0 0 0
0.974357 -14.629914 0.108 0 0 0
0.900925 -14.582397 0.223 0 0 0
0.582853 -14.418087 0.041 0 0 0
0.945055 -14.601517 0.331 0 0 0
0.91967 -14.58746 0.325 0 0 0
0.951343 -14.597986 0.441 0 0 0
0.896873 -14.585944 0.133 0 0 0
0.981098 -14.625493 0.247 0 0 0
0.544102 -14.397221 0.037 0 0 0
0.957109 -14.604291 0.384 0 0 0
0.941525 -14.595228 0.408 0 0 0
0.963363 -14.605233 0.433 0 0 0
0.9638 -14.606578 0.412 0 0 0
0.992801 -14.615742 0.522 0 0 0
0.883542 -14.574663 0.193 0 0 0
0.9543 -14.620817 0.068 0 0 0
0.938398 -14.594757 0.378 0 0 0
0.60111 -14.428512 0.042 0 0 0
0.982949 -14.617456 0.417 0 0 0
0.92051 -14.594622 0.198 0 0 0
0.945424 -14.611805 0.149 0 0 0
0.899228 -14.57031 0.422 0 0 0
0.934397 -14.591596 0.388 0 0 0
0.92631 -14.596455 0.239 0 0 0
0.992295 -14.623342 0.393 0 0 0
0.592654 -14.42308 0.064 0 0 0
0.725834 -14.494307 0.091 0 0 0
0.733853 -14.498392 0.099 0 0 0
0.923132 -14.602692 0.088 0 0 0
0.942332 -14.606862 0.195 0 0 0
0.854542 -14.565498 0.075 0 0 0
0.987404 -14.619727 0.404 0 0 0
0.872044 -14.557581 0.393 0 0 0
0.967818 -14.607503 0.428 0 0 0
0.504915 -14.37501 0.058 0 0 0
0.732945 -14.500175 0.061 0 0 0
0.983755 -14.629091 0.203 0 0 0
0.970071 -14.605284 0.499 0 0 0
0.785145 -14.516671 0.273 0 0 0
0.907077 -14.596755 0.04 0 0 0
0.917451 -14.585207 0.333 0 0 0
0.827408 -14.546062 0.158 0 0 0
0.857703 -14.561497 0.183 0 0 0
0.817171 -14.539722 0.184 0 0 0
0.914239 -14.595916 0.118 0 0 0
0.954924 -14.597566 0.493 0 0 0
0.801586 -14.53066 0.19 0 0 0
0.973079 -14.621408 0.235 0 0 0
0.893275 -14.588601 0.041 0 0 0
0.797131 -14.52839 0.185 0 0 0
0.916929 -14.595041 0.158 0 0 0
0.828265 -14.550987 0.075 0 0 0
0.92051 -14.594622 0.208 0 0 0
0.986966 -14.618382 0.425 0 0 0
0.955815 -14.59802 0.491 0 0 0
0.981939 -14.632655 0.129 0 0 0
0.947745 -14.600642 0.356 0 0 0
0.925487 -14.587056 0.388 0 0 0
0.970508 -14.606629 0.479 0 0 0
0.929505 -14.587981 0.404 0 0 0
0.973551 -14.61828 0.295 0 0 0
0.838941 -14.558671 0.053 0 0 0
0.985167 -14.61971 0.39 0 0 0
0.94951 -14.603786 0.328 0 0 0
0.973567 -14.616044 1.352 0 0 0
0.960219 -14.606998 1.374 0 0 0
0.892571 -14.563551 1.281 0 0 0
0.905028 -14.572143 1.234 0 0 0
0.88013 -14.552723 1.843 0 0 0
0.915283 -14.576245 1.691 0 0 0
0.880551 -14.556304 1.144 0 0 0
0.939306 -14.592976 1.61 0 0 0
0.917956 -14.577607 1.858 0 0 0
0.909483 -14.574412 1.212 0 0 0
0.972676 -14.61559 1.501 0 0 0
0.917048 -14.57939 1.4 0 0 0
0.891697 -14.560861 1.781 0 0 0
0.972676 -14.61559 1.417 0 0 0
0.925958 -14.58393 1.756 0 0 0
0.919284 -14.579407 1.802 0 0 0
0.896572 -14.566711 1.247 0 0 0
0.874331 -14.55089 1.442 0 0 0
0.893462 -14.564005 1.381 0 0 0
0.94598 -14.597498 1.402 0 0 0
0.879222 -14.554505 1.388 0 0 0
0.954436 -14.602929 1.558 0 0 0
0.9095 -14.572177 1.984 0 0 0
0.966893 -14.611521 1.378 0 0 0
0.889007 -14.561735 1.21 0 0 0
0.880551 -14.556304 1.239 0 0 0
0.92774 -14.584838 1.688 0 0 0
0.933069 -14.589797 1.189 0 0 0
0.917956 -14.577607 2.016 0 0 0
0.894807 -14.563567 1.707 0 0 0
0.878786 -14.55316 1.595 0 0 0
0.943744 -14.597481 1.265 0 0 0
0.977131 -14.61786 1.412 0 0 0
0.926832 -14.586619 1.157 0 0 0
0.895244 -14.564913 1.434 0 0 0
0.901481 -14.56809 1.458 0 0 0
0.896151 -14.56313 2.097 0 0 0
0.956655 -14.605183 1.363 0 0 0
0.979351 -14.620112 1.416 0 0 0
0.94909 -14.600205 1.49 0 0 0
0.876113 -14.551798 1.552 0 0 0
0.911282 -14.573085 2.015 0 0 0
0.919738 -14.578515 1.973 0 0 0
0.881005 -14.555413 1.555 0 0 0
0.932632 -14.588452 1.553 0 0 0
0.879694 -14.551377 2.21 0 0 0
0.924176 -14.583021 1.579 0 0 0
0.938852 -14.593865 1.178 0 0 0
0.94287 -14.594791 1.735 0 0 0
0.881442 -14.556758 1.094 0 0 0
0.879677 -14.553614 1.732 0 0 0
0.970894 -14.614682 1.268 0 0 0
0.889931 -14.557717 2.228 0 0 0
0.916174 -14.576699 1.883 0 0 0
0.926395 -14.585274 1.436 0 0 0
0.950435 -14.599768 1.608 0 0 0
0.907281 -14.569923 2.113 0 0 0
0.880114 -14.554959 1.497 0 0 0
0.941525 -14.595228 1.22 0 0 0
0.939306 -14.592976 1.504 0 0 0
0.903263 -14.568998 1.538 0 0 0
0.900136 -14.568527 1.15 0 0 0
0.904591 -14.570797 1.58 0 0 0
0.900136 -14.568527 1.178 0 0 0
0.981133 -14.62102 1.288 0 0 0
0.873877 -14.551781 1.054 0 0 0
0.912593 -14.57712 1.133 0 0 0
0.971785 -14.615136 1.235 0 0 0
0.872985 -14.551327 1.096 0 0 0
0.925067 -14.583476 1.639 0 0 0
0.937524 -14.592068 1.451 0 0 0
0.911282 -14.573085 1.978 0 0 0
0.934414 -14.58936 1.595 0 0 0
0.977569 -14.619205 1.408 0 0 0
0.955327 -14.603383 1.452 0 0 0
0.883258 -14.553194 2.291 0 0 0
0.91883 -14.580297 1.281 0 0 0
0.885459 -14.557683 1.597 0 0 0
0.898371 -14.565383 1.642 0 0 0
0.886367 -14.555901 2.198 0 0 0
0.962438 -14.609251 1.212 0 0 0
0.922831 -14.583458 1.115 0 0 0
0.882333 -14.557212 1.282 0 0 0
0.98246 -14.62282 1.268 0 0 0
0.936179 -14.592504 1.194 0 0 0
0.872094 -14.550873 1.19 0 0 0
0.911265 -14.57532 1.502 0 0 0
0.958891 -14.605199 1.584 0 0 0
0.980242 -14.620566 1.41 0 0 0
0.916157 -14.578936 1.407 0 0 0
0.981133 -14.62102 1.421 0 0 0
0.896151 -14.56313 1.957 0 0 0
0.908155 -14.572613 1.515 0 0 0
0.890789 -14.562643 1.239 0 0 0
0.88815 -14.556809 2.245 0 0 0
0.979351 -14.620112 1.374 0 0 0
0.931287 -14.588889 1.388 0 0 0
0.945089 -14.597044 1.543 0 0 0
0.983806 -14.622382 1.37 0 0 0
0.882333 -14.557212 1.014 0 0 0
0.898371 -14.565383 1.854 0 0 0
0.879677 -14.553614 1.616 0 0 0
0.942853 -14.597027 1.161 0 0 0
0.884115 -14.55812 1.241 0 0 0
0.931287 -14.588889 1.316 0 0 0
0.883694 -14.554539 1.96 0 0 0
0.881005 -14.555413 1.29 0 0 0
0.912593 -14.57712 1.097 0 0 0
0.916611 -14.578044 1.458 0 0 0
0.958891 -14.605199 1.606 0 0 0
0.933069 -14.589797 1.262 0 0 0
0.964674 -14.609268 1.541 0 0 0
0.878331 -14.554051 1.395 0 0 0
0.889024 -14.559499 1.551 0 0 0
0.925504 -14.58482 1.419 0 0 0
0.90059 -14.567636 1.595 0 0 0
0.877457 -14.551361 1.791 0 0 0
0.885459 -14.557683 1.453 0 0 0
0.907247 -14.574396 1.069 0 0 0
0.935288 -14.59205 1.157 0 0 0
0.877878 -14.554941 0.975 0 0 0
0.928631 -14.585292 1.699 0 0 0
0.885914 -14.556791 1.771 0 0 0
0.912593 -14.57712 1.171 0 0 0
0.881896 -14.555867 1.408 0 0 0
0.900136 -14.568527 1.407 0 0 0
0.925067 -14.583476 1.535 0 0 0
0.919284 -14.579407 1.744 0 0 0
0.912593 -14.57712 1.086 0 0 0
0.901481 -14.56809 1.47 0 0 0
0.892571 -14.563551 1.2 0 0 0
0.9095 -14.572177 1.81 0 0 0
0.875659 -14.55269 1.249 0 0 0
0.887696 -14.557699 1.947 0 0 0
0.929068 -14.586636 1.387 0 0 0
0.880551 -14.556304 1.116 0 0 0
0.986025 -14.624636 1.283 0 0 0
0.883224 -14.557666 1.09 0 0 0
0.88235 -14.554976 1.77 0 0 0
0.892571 -14.563551 1.3 0 0 0
0.940197 -14.59343 1.634 0 0 0
0.917502 -14.578498 1.735 0 0 0
0.952654 -14.602021 1.344 0 0 0
0.902809 -14.569889 1.427 0 0 0
0.936633 -14.591614 1.557 0 0 0
0.938869 -14.59163 1.797 0 0 0
0.903263 -14.568998 1.519 0 0 0
0.899245 -14.568073 1.273 0 0 0
0.937087 -14.590722 1.744 0 0 0
0.883241 -14.555429 1.748 0 0 0
0.926395 -14.585274 1.299 0 0 0
0.879222 -14.554505 1.46 0 0 0
0.889915 -14.559953 1.88 0 0 0
0.90328 -14.566763 2.116 0 0 0
0.884132 -14.555883 1.905 0 0 0
0.980242 -14.620566 1.284 0 0 0
0.882333 -14.557212 1.151 0 0 0
0.904137 -14.571689 1.07 0 0 0
0.872094 -14.550873 1.097 0 0 0
0.884132 -14.555883 1.772 0 0 0
0.887242 -14.558591 1.695 0 0 0
0.940197 -14.59343 1.722 0 0 0
0.909046 -14.573067 1.487 0 0 0
0.898825 -14.564493 1.976 0 0 0
0.905919 -14.572597 1.23 0 0 0
0.898825 -14.564493 2.185 0 0 0
0.949981 -14.600659 1.368 0 0 0
0.959328 -14.606544 1.344 0 0 0
0.881896 -14.555867 1.541 0 0 0
0.915283 -14.576245 1.796 0 0 0
0.901464 -14.570327 1.167 0 0 0
0.889461 -14.560843 1.455 0 0 0
0.882333 -14.557212 1.162 0 0 0
0.922394 -14.582113 1.384 0 0 0
0.889007 -14.561735 1.214 0 0 0
0.926395 -14.585274 1.42 0 0 0
0.889898 -14.562189 1.193 0 0 0
0.931741 -14.587998 1.562 0 0 0
0.937087 -14.590722 1.812 0 0 0
0.889024 -14.559499 1.688 0 0 0
0.889024 -14.559499 1.625 0 0 0
0.880114 -14.554959 1.381 0 0 0
0.975349 -14.616952 1.344 0 0 0
0.90681 -14.57305 1.196 0 0 0
0.890805 -14.560407 1.899 0 0 0
0.896589 -14.564475 1.768 0 0 0
0.901481 -14.56809 1.548 0 0 0
0.889007 -14.561735 1.226 0 0 0
0.922848 -14.581223 1.918 0 0 0
0.925504 -14.58482 1.27 0 0 0
0.898791 -14.568965 1.03 0 0 0
0.950872 -14.601113 1.429 0 0 0
0.873439 -14.550436 1.382 0 0 0
0.871203 -14.550419 1.01 0 0 0
0.87744 -14.553597 1.244 0 0 0
0.874314 -14.553125 0.987 0 0 0
0.934414 -14.58936 1.789 0 0 0
0.905936 -14.57036 1.705 0 0 0
0.895261 -14.562676 1.788 0 0 0
0.886351 -14.558137 1.759 0 0 0
0.921066 -14.580315 1.92 0 0 0
0.872094 -14.550873 1.034 0 0 0
0.935742 -14.59116 1.594 0 0 0
0.9037 -14.570343 1.339 0 0 0
0.905936 -14.57036 1.818 0 0 0
0.880584 -14.551831 2.194 0 0 0
0.873439 -14.550436 1.363 0 0 0
0.871203 -14.550419 1.112 0 0 0
0.953545 -14.602475 1.662 0 0 0
0.887679 -14.559936 1.326 0 0 0
0.953545 -14.602475 1.577 0 0 0
0.884149 -14.553648 2.307 0 0 0
0.881022 -14.553177 2.082 0 0 0
0.881476 -14.552286 2.266 0 0 0
0.950418 -14.602004 1.253 0 0 0
0.912593 -14.57712 1.084 0 0 0
0.887242 -14.558591 1.604 0 0 0
0.990026 -14.627796 1.289 0 0 0
0.936179 -14.592504 1.226 0 0 0
0.950435 -14.599768 1.636 0 0 0
0.878769 -14.555395 1.01 0 0 0
0.917939 -14.579844 1.22 0 0 0
0.891243 -14.561751 1.618 0 0 0
0.931287 -14.588889 1.214 0 0 0
0.964221 -14.610159 1.452 0 0 0
0.872985 -14.551327 1.103 0 0 0
0.903246 -14.571235 1.141 0 0 0
0.913501 -14.575337 1.745 0 0 0
0.981133 -14.62102 1.364 0 0 0
0.897026 -14.565821 1.385 0 0 0
0.883224 -14.557666 1.105 0 0 0
0.91261 -14.574883 1.8 0 0 0
0.923285 -14.582567 1.499 0 0 0
0.878348 -14.551815 1.988 0 0 0
0.88857 -14.56039 1.384 0 0 0
0.884132 -14.555883 1.697 0 0 0
0.899699 -14.567183 1.608 0 0 0
0.907718 -14.571268 1.95 0 0 0
0.947762 -14.598406 1.679 0 0 0
0.911265 -14.57532 1.41 0 0 0
0.885459 -14.557683 1.568 0 0 0
0.906373 -14.571705 1.338 0 0 0
0.914375 -14.578028 1.253 0 0 0
0.920158 -14.582096 1.224 0 0 0
0.904591 -14.570797 1.294 0 0 0
0.881459 -14.554522 1.794 0 0 0
0.896151 -14.56313 2.024 0 0 0
0.903717 -14.568108 2.025 0 0 0
0.901044 -14.566745 1.83 0 0 0
0.893933 -14.560878 2.192 0 0 0
0.902355 -14.570781 1.169 0 0 0
0.922394 -14.582113 1.384 0 0 0
0.942416 -14.595682 1.257 0 0 0
0.907264 -14.572159 1.424 0 0 0
0.877895 -14.552706 1.619 0 0 0
0.910811 -14.576212 1.18 0 0 0
0.923722 -14.583912 1.138 0 0 0
0.901935 -14.567199 2.032 0 0 0
0.89168 -14.563097 1.156 0 0 0
0.955327 -14.603383 1.576 0 0 0
0.874768 -14.552235 1.066 0 0 0
0.936633 -14.591614 1.55 0 0 0
0.884132 -14.555883 1.956 0 0 0
0.963783 -14.608814 1.494 0 0 0
0.89126 -14.559515 2.021 0 0 0
0.94598 -14.597498 1.461 0 0 0
0.879677 -14.553614 1.755 0 0 0
0.920158 -14.582096 1.232 0 0 0
0.957109 -14.604291 1.611 0 0 0
0.900153 -14.566291 1.714 0 0 0
0.969112 -14.613774 1.255 0 0 0
0.968221 -14.61332 1.281 0 0 0
0.911282 -14.573085 1.826 0 0 0
0.874768 -14.552235 1.112 0 0 0
0.933523 -14.588906 1.569 0 0 0
0.929505 -14.587981 1.327 0 0 0
0.983351 -14.623274 1.305 0 0 0
0.944652 -14.595699 1.715 0 0 0
0.904591 -14.570797 1.484 0 0 0
0.917939 -14.579844 1.417 0 0 0
0.887696 -14.557699 2.028 0 0 0
0.928614 -14.587527 1.241 0 0 0
0.93707 -14.592957 1.235 0 0 0
0.902826 -14.567654 1.824 0 0 0
0.890805 -14.560407 1.686 0 0 0
0.958437 -14.606091 1.362 0 0 0
0.923285 -14.582567 1.481 0 0 0
0.888116 -14.561281 1.169 0 0 0
0.911282 -14.573085 2.079 0 0 0
0.91883 -14.580297 1.288 0 0 0
0.906373 -14.571705 1.41 0 0 0
0.887679 -14.559936 1.351 0 0 0
0.897042 -14.563584 2.159 0 0 0
0.959328 -14.606544 1.568 0 0 0
0.890789 -14.562643 1.211 0 0 0
0.888133 -14.559045 1.519 0 0 0
0.953545 -14.602475 1.399 0 0 0
0.947308 -14.599298 1.349 0 0 0
0.885006 -14.558574 1.125 0 0 0
0.902809 -14.569889 1.448 0 0 0
0.880584 -14.551831 2.225 0 0 0
0.968676 -14.612429 1.435 0 0 0
0.949544 -14.599314 1.604 0 0 0
0.899245 -14.568073 1.262 0 0 0
0.933086 -14.587562 1.865 0 0 0
0.892117 -14.564442 1.111 0 0 0
0.874331 -14.55089 1.495 0 0 0
0.892588 -14.561315 1.718 0 0 0
0.896572 -14.566711 1.133 0 0 0
0.903717 -14.568108 1.884 0 0 0
0.907264 -14.572159 1.656 0 0 0
0.899245 -14.568073 1.192 0 0 0
0.931741 -14.587998 1.592 0 0 0
0.921066 -14.580315 1.796 0 0 0
0.941525 -14.595228 1.299 0 0 0
0.914392 -14.575791 1.738 0 0 0
0.89748 -14.564929 1.735 0 0 0
0.905045 -14.569906 1.7 0 0 0
0.954436 -14.602929 1.444 0 0 0
0.958437 -14.606091 1.549 0 0 0
0.885006 -14.558574 1.29 0 0 0
0.949981 -14.600659 1.274 0 0 0
0.908172 -14.570377 2.051 0 0 0
0.951763 -14.601567 1.287 0 0 0
0.900153 -14.566291 1.73 0 0 0
0.953109 -14.60113 1.664 0 0 0
0.958437 -14.606091 1.516 0 0 0
0.9522 -14.602913 1.191 0 0 0
0.983351 -14.623274 1.282 0 0 0
0.876549 -14.553144 1.194 0 0 0
0.886351 -14.558137 1.717 0 0 0
0.904154 -14.569452 1.654 0 0 0
0.925521 -14.582584 1.91 0 0 0
0.884115 -14.55812 1.138 0 0 0
0.916594 -14.58028 1.093 0 0 0
0.935742 -14.59116 1.349 0 0 0
0.897934 -14.564039 2.076 0 0 0
0.934414 -14.58936 1.626 0 0 0
0.905919 -14.572597 1.053 0 0 0
0.914829 -14.577136 1.447 0 0 0
0.881022 -14.553177 1.875 0 0 0
0.879694 -14.551377 2.147 0 0 0
0.885023 -14.556337 1.859 0 0 0
0.915266 -14.578482 1.101 0 0 0
