ply
format ascii 1.0
element vertex 1303
property double x
property double y
property double z
property uchar red
property uchar green
property uchar blue
element face 0
property list uchar int vertex_indices
end_header
-5.048363 -14.148147 0.698 255 255 0
-4.999332 -14.051918 0.537 255 255 0
-5.015625 -14.077286 0.614 255 255 0
-4.949927 -13.906497 0.532 255 255 0
-4.987426 -14.015336 0.545 255 255 0
-4.951659 -13.898881 0.571 255 255 0
-5.015522 -14.06387 0.656 255 255 0
-5.0393 -14.132563 0.665 255 255 0
-5.016096 -14.080414 0.607 255 255 0
-5.024199 -14.087507 0.666 255 255 0
-4.967837 -13.968079 0.511 255 255 0
-4.972411 -13.981461 0.508 255 255 0
-4.945269 -13.881936 0.57 255 255 0
-4.957157 -13.916281 0.574 255 255 0
-4.997397 -14.032702 0.585 255 255 0
-5.016027 -14.071469 0.637 255 255 0
-4.956215 -13.910028 0.578 255 255 0
-4.957225 -13.925225 0.537 255 255 0
-4.9978 -14.026885 0.606 255 255 0
-4.988016 -14.034115 0.488 255 255 0
-4.99183 -14.006358 0.614 255 255 0
-5.000206 -14.049229 0.556 255 255 0
-5.016583 -14.085776 0.594 255 255 0
-4.945841 -13.898479 0.514 255 255 0
-4.995967 -14.021085 0.603 255 255 0
-4.957175 -13.918518 0.559 255 255 0
-5.008662 -14.043797 0.657 255 255 0
-5.045117 -14.132966 0.724 255 255 0
-4.996693 -14.057752 0.497 255 255 0
-4.991881 -14.013066 0.595 255 255 0
-4.999701 -14.041629 0.581 255 255 0
-4.999735 -14.046101 0.558 255 255 0
-4.965516 -13.956915 0.522 255 255 0
-4.981978 -14.004643 0.529 255 255 0
-4.995127 -14.028247 0.572 255 255 0
-5.038744 -14.118256 0.704 255 255 0
-4.993345 -14.029156 0.553 255 255 0
-4.978261 -13.986336 0.548 255 255 0
-5.021191 -14.10363 0.587 255 255 0
-5.022048 -14.098704 0.604 255 255 0
-4.984838 -14.027878 0.475 255 255 0
-4.998929 -14.057735 0.515 255 255 0
-4.9695 -13.951519 0.573 255 255 0
-5.030085 -14.096854 0.697 255 255 0
-4.992522 -14.038552 0.515 255 255 0
-5.024586 -14.079454 0.691 255 255 0
-4.994118 -14.013049 0.617 255 255 0
-4.962707 -13.94039 0.549 255 255 0
-4.96782 -13.965843 0.51 255 255 0
-4.99713 -14.056407 0.504 255 255 0
-4.99141 -14.009938 0.6 255 255 0
-5.058822 -14.170877 0.734 255 255 0
-4.989158 -14.00772 0.582 255 255 0
-4.94078 -13.879733 0.535 255 255 0
-4.974647 -13.981443 0.528 255 255 0
-4.936138 -13.857408 0.553 255 255 0
-4.95087 -13.912751 0.525 255 255 0
-4.996824 -14.016159 0.627 255 255 0
-4.997851 -14.033593 0.588 255 255 0
-4.995479 -14.015721 0.62 255 255 0
-5.014835 -14.091156 0.564 255 255 0
-4.970442 -13.957772 0.569 255 255 0
-4.958604 -13.930135 0.539 255 255 0
-5.016397 -14.06118 0.669 255 255 0
-4.95213 -13.902009 0.57 255 255 0
-4.941251 -13.88286 0.521 255 255 0
-4.957276 -13.931933 0.525 255 255 0
-4.979505 -13.973357 0.603 255 255 0
-4.991699 -14.047951 0.479 255 255 0
-4.991983 -14.026482 0.556 255 255 0
-4.983153 -13.98272 0.608 255 255 0
-4.985122 -14.006409 0.545 255 255 0
-4.977757 -13.978737 0.572 255 255 0
-4.964472 -13.937245 0.57 255 255 0
-5.051995 -14.155275 0.718 255 255 0
-5.028252 -14.091055 0.697 255 255 0
-4.998407 -14.0479 0.548 255 255 0
-4.971401 -13.966263 0.547 255 255 0
-5.012548 -14.084465 0.565 255 255 0
-5.006006 -14.047395 0.615 255 255 0
-4.933448 -13.856534 0.534 255 255 0
-5.009184 -14.053632 0.63 255 255 0
-4.953475 -13.902445 0.575 255 255 0
-4.999196 -14.03403 0.599 255 255 0
-5.033784 -14.112926 0.677 255 255 0
-5.041451 -14.121367 0.718 255 255 0
-5.002289 -14.029087 0.642 255 255 0
-4.964086 -13.945298 0.544 255 255 0
-5.047875 -14.142783 0.71 255 255 0
-5.019812 -14.098722 0.592 255 255 0
-4.967315 -13.958244 0.532 255 255 0
-4.963195 -13.945752 0.539 255 255 0
-5.020164 -14.086197 0.632 255 255 0
-5.021441 -14.077689 0.669 255 255 0
-4.981741 -13.97334 0.618 255 255 0
-5.040225 -14.13658 0.663 255 255 0
-5.061075 -14.173095 0.742 255 255 0
-4.953139 -13.917207 0.527 255 255 0
-4.989361 -14.034553 0.502 255 255 0
-4.950331 -13.900681 0.556 255 255 0
-4.983188 -13.987193 0.597 255 255 0
-4.981758 -13.975575 0.614 255 255 0
-4.948531 -13.899352 0.542 255 255 0
-4.98746 -14.019808 0.525 255 255 0
-4.989527 -13.997432 0.623 255 255 0
-5.031514 -14.108471 0.672 255 255 0
-5.008378 -14.065266 0.587 255 255 0
-4.93254 -13.854751 0.528 255 255 0
-4.984248 -14.009099 0.534 255 255 0
-4.969097 -13.957336 0.555 255 255 0
-5.010092 -14.055414 0.627 255 255 0
-4.994134 -14.015285 0.607 255 255 0
-4.941705 -13.883752 0.528 255 255 0
-4.982869 -14.004189 0.538 255 255 0
-4.972428 -13.983697 0.502 255 255 0
-4.993969 -14.052406 0.49 255 255 0
-5.037484 -14.128999 0.659 255 255 0
-4.990689 -14.032753 0.52 255 255 0
-4.999179 -14.031795 0.599 255 255 0
-5.015642 -14.079522 0.612 255 255 0
-4.977252 -13.971138 0.592 255 255 0
-4.957225 -13.925225 0.542 255 255 0
-4.980447 -13.97961 0.589 255 255 0
-4.993464 -14.044807 0.504 255 255 0
-4.991445 -14.014411 0.581 255 255 0
-5.021191 -14.10363 0.587 255 255 0
-4.97009 -13.970298 0.523 255 255 0
-4.963513 -13.928755 0.588 255 255 0
-4.998305 -14.034484 0.589 255 255 0
-5.001937 -14.041612 0.598 255 255 0
-4.964892 -13.933664 0.589 255 255 0
-5.04199 -14.133437 0.686 255 255 0
-4.998878 -14.051026 0.536 255 255 0
-4.996841 -14.018394 0.618 255 255 0
-5.00293 -14.054574 0.565 255 255 0
-4.985508 -13.998356 0.58 255 255 0
-5.034204 -14.109346 0.686 255 255 0
-5.002811 -14.038922 0.61 255 255 0
-4.98645 -14.00461 0.568 255 255 0
-5.003316 -14.046521 0.6 255 255 0
-5.011556 -14.071503 0.597 255 255 0
-5.0319 -14.100418 0.699 255 255 0
-4.955007 -13.927479 0.518 255 255 0
-4.960942 -13.943533 0.524 255 255 0
-5.032893 -14.11338 0.665 255 255 0
-5.002981 -14.061282 0.542 255 255 0
-5.052869 -14.152585 0.733 255 255 0
-5.037904 -14.125418 0.672 255 255 0
-4.972292 -13.965809 0.554 255 255 0
-4.943924 -13.881498 0.559 255 255 0
-4.977269 -13.973373 0.584 255 255 0
-5.019172 -14.073235 0.663 255 255 0
-5.0205 -14.071436 0.684 255 255 0
-4.942074 -13.873462 0.56 255 255 0
-4.983811 -14.010445 0.522 255 255 0
-4.937988 -13.865443 0.553 255 255 0
-4.945825 -13.896242 0.531 255 255 0
-4.959563 -13.938624 0.518 255 255 0
-4.989395 -14.039024 0.488 255 255 0
-4.980617 -14.001971 0.522 255 255 0
-5.058351 -14.167749 0.734 255 255 0
-5.013406 -14.079539 0.588 255 255 0
-4.995785 -14.05597 0.487 255 255 0
-5.012027 -14.074631 0.588 255 255 0
-4.986013 -14.005955 0.56 255 255 0
-5.027394 -14.095981 0.665 255 255 0
-5.0015 -14.042957 0.589 255 255 0
-4.956368 -13.930151 0.518 255 255 0
-5.005183 -14.056793 0.58 255 255 0
-4.99284 -14.021556 0.578 255 255 0
-5.005904 -14.033979 0.658 255 255 0
-4.985895 -13.990303 0.612 255 255 0
-4.9994 -14.060863 0.515 255 255 0
-5.02563 -14.099125 0.642 255 255 0
-5.023292 -14.085726 0.663 255 255 0
-4.946767 -13.902496 0.515 255 255 0
-4.983624 -13.985847 0.597 255 255 0
-4.998895 -14.053264 0.527 255 255 0
-4.978228 -13.981864 0.566 255 255 0
-4.993329 -14.026919 0.559 255 255 0
-5.006613 -14.06841 0.558 255 255 0
-4.970612 -13.980133 0.492 255 255 0
-4.982683 -13.979594 0.61 255 255 0
-5.045134 -14.135202 0.714 255 255 0
-4.978665 -13.980519 0.57 255 255 0
-4.993935 -14.047935 0.501 255 255 0
-4.96269 -13.938153 0.549 255 255 0
-5.034289 -14.120525 0.659 255 255 0
-5.008276 -14.05185 0.629 255 255 0
-4.99259 -14.047497 0.489 255 255 0
-5.043352 -14.13611 0.697 255 255 0
-5.011607 -14.078212 0.575 255 255 0
-4.963161 -13.94128 0.549 255 255 0
-5.022973 -14.102722 0.601 255 255 0
-4.952702 -13.918551 0.517 255 255 0
-4.954854 -13.907354 0.58 255 255 0
-4.981758 -13.975575 0.618 255 255 0
-4.95941 -13.918501 0.584 255 255 0
-5.02299 -14.104959 0.594 255 255 0
-4.973654 -13.968482 0.557 255 255 0
-5.007368 -14.050068 0.625 255 255 0
-5.041031 -14.124947 0.707 255 255 0
-4.990099 -14.013974 0.576 255 255 0
-4.979708 -14.000189 0.522 255 255 0
-4.98788 -14.016228 0.549 255 255 0
-5.02647 -14.091963 0.67 255 255 0
-5.017809 -14.070561 0.659 255 255 0
-4.986769 -13.987613 0.626 255 255 0
-5.006897 -14.046941 0.63 255 255 0
-4.985275 -14.026533 0.482 255 255 0
-5.00789 -14.059903 0.597 255 255 0
-4.950801 -13.903807 0.549 255 255 0
-5.005149 -14.052321 0.598 255 255 0
-4.976094 -13.995296 0.499 255 255 0
-5.009841 -14.081355 0.546 255 255 0
-4.957191 -13.920753 0.551 255 255 0
-4.976781 -13.968011 0.589 255 255 0
-4.978312 -13.993044 0.526 255 255 0
-5.024302 -14.100924 0.624 255 255 0
-4.99965 -14.034921 0.592 255 255 0
-5.000945 -14.02865 0.634 255 255 0
-4.946279 -13.897134 0.527 255 255 0
-4.97505 -13.975627 0.555 255 255 0
-4.948617 -13.910532 0.511 255 255 0
-5.017072 -14.09114 0.58 255 255 0
-4.959126 -13.939969 0.514 255 255 0
-5.005938 -14.038451 0.644 255 255 0
-5.025158 -14.095997 0.651 255 255 0
-4.959898 -13.923863 0.568 255 255 0
-4.999566 -14.023742 0.631 255 255 0
-4.938442 -13.866334 0.547 255 255 0
-4.987206 -13.986268 0.633 255 255 0
-4.989072 -13.99654 0.624 255 255 0
-4.939401 -13.874824 0.537 255 255 0
-5.047472 -14.148601 0.69 255 255 0
-4.972746 -13.9667 0.553 255 255 0
-5.019778 -14.09425 0.596 255 255 0
-4.928403 -13.840024 0.534 255 255 0
-4.954451 -13.913172 0.558 255 255 0
-5.032961 -14.122325 0.635 255 255 0
-5.031549 -14.112944 0.654 255 255 0
-4.960505 -13.944879 0.513 255 255 0
-4.995059 -14.019303 0.601 255 255 0
-4.955914 -13.929261 0.519 255 255 0
-4.98065 -14.006443 0.505 255 255 0
-5.017878 -14.079505 0.634 255 255 0
-4.967213 -13.944828 0.573 255 255 0
-4.99183 -14.006358 0.618 255 255 0
-4.958588 -13.927898 0.545 255 255 0
-4.988687 -14.004593 0.587 255 255 0
-4.94663 -13.884608 0.569 255 255 0
-4.982381 -13.998827 0.548 255 255 0
-4.941637 -13.874807 0.554 255 255 0
-4.974528 -13.965792 0.579 255 255 0
-5.041485 -14.125837 0.706 255 255 0
-5.010932 -14.048252 0.666 255 255 0
-4.998203 -14.021069 0.628 255 255 0
-4.986416 -14.000138 0.58 255 255 0
-5.062437 -14.175768 0.744 255 255 0
-5.012027 -14.074631 0.586 255 255 0
-4.983255 -13.996137 0.56 255 255 0
-4.985475 -13.993884 0.595 255 255 0
-4.984736 -14.014462 0.516 255 255 0
-4.949911 -13.904261 0.54 255 255 0
-4.967162 -13.93812 0.598 255 255 0
-5.031145 -14.118761 0.632 255 255 0
-4.951239 -13.902463 0.554 255 255 0
-4.996222 -14.054626 0.504 255 255 0
-5.00049 -14.02776 0.631 255 255 0
-5.015489 -14.059399 0.672 255 255 0
-4.953928 -13.903337 0.583 255 255 0
-4.982517 -14.016715 0.487 255 255 0
-4.973234 -13.972062 0.544 255 255 0
-4.971333 -13.957318 0.577 255 255 0
-4.983374 -14.011788 0.511 255 255 0
-4.97135 -13.959555 0.569 255 255 0
-5.006596 -14.066175 0.558 255 255 0
-5.002306 -14.031323 0.635 255 255 0
-4.984129 -13.993447 0.582 255 255 0
-4.98329 -14.000609 0.545 255 255 0
-4.974749 -13.99486 0.49 255 255 0
-4.981575 -14.010461 0.498 255 255 0
-4.974278 -13.991734 0.49 255 255 0
-5.014717 -14.075504 0.61 255 255 0
-4.999566 -14.023742 0.638 255 255 0
-4.994992 -14.01036 0.634 255 255 0
-4.95714 -13.914045 0.574 255 255 0
-4.990571 -14.017101 0.568 255 255 0
-4.956351 -13.927916 0.525 255 255 0
-4.945269 -13.881936 0.568 255 255 0
-4.984265 -14.011334 0.529 255 255 0
-5.014263 -14.074614 0.607 255 255 0
-4.989544 -13.999667 0.612 255 255 0
-5.058351 -14.167749 0.732 255 255 0
-4.958486 -13.914483 0.588 255 255 0
-4.975605 -13.989934 0.513 255 255 0
-5.037467 -14.126762 0.667 255 255 0
-4.999077 -14.018378 0.644 255 255 0
-4.966759 -13.943936 0.579 255 255 0
-5.003855 -14.058593 0.564 255 255 0
-4.941705 -13.883752 0.525 255 255 0
-5.013354 -14.072831 0.606 255 255 0
-5.04838 -14.150383 0.698 255 255 0
-5.039737 -14.131218 0.673 255 255 0
-5.027462 -14.104925 0.635 255 255 0
-5.009201 -14.055868 0.627 255 255 0
-5.00663 -14.070646 0.551 255 255 0
-5.049776 -14.157528 0.69 255 255 0
-5.034442 -14.14065 0.597 255 255 0
-5.057277 -14.203089 0.626 255 255 0
-5.045389 -14.168742 0.615 255 255 0
-5.031281 -14.136649 0.582 255 255 0
-5.01033 -14.086719 0.531 255 255 0
-5.024993 -14.133119 0.538 255 255 0
-5.044044 -14.168304 0.603 255 255 0
-5.053458 -14.171364 0.683 255 255 0
-5.027161 -14.124157 0.58 255 255 0
-5.037671 -14.153595 0.586 255 255 0
-5.017207 -14.109028 0.536 255 255 0
-5.027093 -14.115213 0.601 255 255 0
-5.039788 -14.137926 0.658 255 255 0
-5.055898 -14.198179 0.63 255 255 0
-5.00949 -14.09388 0.505 255 255 0
-5.043152 -14.168758 0.6 255 255 0
-5.035316 -14.13796 0.618 255 255 0
-5.055661 -14.166875 0.716 255 255 0
-5.026639 -14.114323 0.602 255 255 0
-5.051273 -14.178088 0.644 255 255 0
-5.031735 -14.137539 0.585 255 255 0
-5.044311 -14.1446 0.673 255 255 0
-5.058958 -14.188765 0.678 255 255 0
-5.035804 -14.143322 0.604 255 255 0
-5.05536 -14.186109 0.656 255 255 0
-5.036661 -14.138396 0.624 255 255 0
-5.043573 -14.165178 0.61 255 255 0
-5.025833 -14.125957 0.566 255 255 0
-5.004008 -14.078716 0.499 255 255 0
-5.04527 -14.15309 0.662 255 255 0
-5.051575 -14.158856 0.695 255 255 0
-5.02442 -14.116576 0.578 255 255 0
-5.025328 -14.118358 0.582 255 255 0
-5.03947 -14.154922 0.607 255 255 0
-5.033517 -14.136631 0.601 255 255 0
-5.043556 -14.162942 0.619 255 255 0
-5.033585 -14.145576 0.577 255 255 0
-5.048045 -14.165144 0.646 255 255 0
-5.056251 -14.185655 0.661 255 255 0
-5.024471 -14.123283 0.56 255 255 0
-5.025464 -14.136246 0.53 255 255 0
-5.035905 -14.156738 0.562 255 255 0
-5.048465 -14.161563 0.663 255 255 0
-5.058202 -14.207106 0.622 255 255 0
-5.03434 -14.127234 0.635 255 255 0
-5.036729 -14.147341 0.6 255 255 0
-5.030861 -14.14023 0.567 255 255 0
-5.022723 -14.128664 0.523 255 255 0
-5.05331 -14.210721 0.568 255 255 0
-5.039839 -14.144633 0.635 255 255 0
-5.004882 -14.076026 0.52 255 255 0
-5.014501 -14.105918 0.517 255 255 0
-5.034913 -14.143776 0.591 255 255 0
-5.04981 -14.162 0.671 255 255 0
-5.059394 -14.187419 0.684 255 255 0
-5.019375 -14.100066 0.579 255 255 0
-5.027212 -14.130866 0.56 255 255 0
-4.997652 -14.066242 0.483 255 255 0
-5.060773 -14.192328 0.686 255 255 0
-5.047086 -14.156653 0.665 255 255 0
-5.036814 -14.158522 0.563 255 255 0
-5.031298 -14.138885 0.57 255 255 0
-5.052114 -14.170927 0.666 255 255 0
-5.044379 -14.153543 0.653 255 255 0
-5.007606 -14.081372 0.526 255 255 0
-5.014399 -14.092502 0.558 255 255 0
-4.999905 -14.068461 0.497 255 255 0
-5.061665 -14.191874 0.692 255 255 0
-5.016248 -14.100537 0.549 255 255 0
-5.007219 -14.089425 0.501 255 255 0
-5.058571 -14.196817 0.653 255 255 0
-5.061597 -14.182931 0.722 255 255 0
-5.034913 -14.143776 0.59 255 255 0
-5.03123 -14.12994 0.597 255 255 0
-5.028977 -14.127722 0.586 255 255 0
-5.038948 -14.145087 0.623 255 255 0
-5.034141 -14.159883 0.544 255 255 0
-5.051023 -14.20403 0.565 255 255 0
-5.038914 -14.140615 0.641 255 255 0
-5.038227 -14.167902 0.553 255 255 0
-5.040934 -14.171012 0.567 255 255 0
-5.047812 -14.19332 0.564 255 255 0
-5.019006 -14.110355 0.55 255 255 0
-5.032728 -14.150501 0.553 255 255 0
-5.03636 -14.15763 0.57 255 255 0
-5.060706 -14.183385 0.71 255 255 0
-5.021293 -14.117046 0.542 255 255 0
-5.043725 -14.185302 0.555 255 255 0
-5.056454 -14.212485 0.59 255 255 0
-5.031837 -14.150955 0.545 255 255 0
-5.037552 -14.137942 0.634 255 255 0
-5.054753 -14.165093 0.712 255 255 0
-5.059394 -14.187419 0.689 255 255 0
-5.056454 -14.212485 0.586 255 255 0
-5.013593 -14.104136 0.511 255 255 0
-5.038931 -14.142852 0.628 255 255 0
-5.033466 -14.129924 0.616 255 255 0
-5.048652 -14.186159 0.598 255 255 0
-5.048902 -14.160218 0.669 255 255 0
-5.018518 -14.104992 0.555 255 255 0
-5.046381 -14.181704 0.583 255 255 0
-5.04754 -14.157545 0.666 255 255 0
-5.015828 -14.104118 0.534 255 255 0
-5.052567 -14.171818 0.671 255 255 0
-5.04317 -14.170996 0.589 255 255 0
-5.046836 -14.182595 0.593 255 255 0
-5.025481 -14.138481 0.527 255 255 0
-5.038091 -14.150014 0.607 255 255 0
-5.037755 -14.164775 0.563 255 255 0
-5.057714 -14.201743 0.631 255 255 0
-5.018064 -14.104102 0.556 255 255 0
-5.032609 -14.13485 0.601 255 255 0
-5.018183 -14.119754 0.514 255 255 0
-5.057748 -14.206216 0.619 255 255 0
-5.034981 -14.15272 0.564 255 255 0
-5.041388 -14.171904 0.574 255 255 0
-5.009019 -14.090754 0.513 255 255 0
-5.058151 -14.200398 0.64 255 255 0
-5.050332 -14.171835 0.653 255 255 0
-5.056386 -14.203543 0.617 255 255 0
-5.02812 -14.132648 0.559 255 255 0
-5.028893 -14.116542 0.613 255 255 0
-5.053879 -14.167783 0.694 255 255 0
-5.013593 -14.104136 0.514 255 255 0
-5.028608 -14.138011 0.552 255 255 0
-5.027195 -14.12863 0.566 255 255 0
-5.055007 -14.198633 0.614 255 255 0
-5.042529 -14.145508 0.654 255 255 0
-5.054469 -14.186563 0.651 255 255 0
-5.050701 -14.161546 0.685 255 255 0
-5.04956 -14.187941 0.6 255 255 0
-5.028608 -14.138011 0.552 255 255 0
-5.051257 -14.175853 0.65 255 255 0
-5.045877 -14.174105 0.607 255 255 0
-5.010783 -14.087609 0.534 255 255 0
-5.050905 -14.188378 0.606 255 255 0
-5.008967 -14.084045 0.527 255 255 0
-5.004932 -14.082734 0.493 255 255 0
-5.008128 -14.091208 0.507 255 255 0
-5.040781 -14.150888 0.629 255 255 0
-5.03641 -14.164337 0.549 255 255 0
-5.037336 -14.168356 0.542 255 255 0
-5.033687 -14.158992 0.542 255 255 0
-5.053226 -14.199541 0.596 255 255 0
-5.010767 -14.085373 0.538 255 255 0
-5.022184 -14.116592 0.552 255 255 0
-5.052822 -14.205359 0.576 255 255 0
-5.043573 -14.165178 0.611 255 255 0
-5.019006 -14.110355 0.547 255 255 0
-5.01265 -14.097881 0.526 255 255 0
-5.049963 -14.182124 0.617 255 255 0
-5.038562 -14.153141 0.602 255 255 0
-5.034493 -14.147358 0.583 255 255 0
-5.049407 -14.167817 0.656 255 255 0
-5.03846 -14.139725 0.634 255 255 0
-5.043505 -14.156234 0.635 255 255 0
-5.052046 -14.161983 0.694 255 255 0
-5.023495 -14.112557 0.576 255 255 0
-5.025447 -14.134009 0.534 255 255 0
-5.051358 -14.189269 0.609 255 255 0
-5.005335 -14.076917 0.522 255 255 0
-5.040917 -14.168776 0.573 255 255 0
-5.050552 -14.200903 0.571 255 255 0
-5.046144 -14.1504 0.678 255 255 0
-5.057023 -14.169548 0.717 255 255 0
-5.007606 -14.081372 0.528 255 255 0
-5.019864 -14.10543 0.569 255 255 0
-5.023092 -14.118374 0.556 255 255 0
-5.049593 -14.192412 0.585 255 255 0
-5.033937 -14.133051 0.611 255 255 0
-5.056891 -14.211142 0.601 255 255 0
-5.055898 -14.198179 0.623 255 255 0
-5.042262 -14.169212 0.59 255 255 0
-5.046381 -14.181704 0.591 255 255 0
-5.050501 -14.194195 0.588 255 255 0
-5.055041 -14.203105 0.606 255 255 0
-5.062505 -14.184712 0.726 255 255 0
-5.041859 -14.17503 0.563 255 255 0
-5.047137 -14.163363 0.644 255 255 0
-5.046178 -14.154872 0.663 255 255 0
-5.052954 -14.163765 0.698 255 255 0
-5.012197 -14.096991 0.518 255 255 0
-5.00537 -14.081389 0.508 255 255 0
-5.053174 -14.192833 0.615 255 255 0
-5.035957 -14.163446 0.55 255 255 0
-5.006732 -14.084062 0.506 255 255 0
-5.038545 -14.150905 0.602 255 255 0
-4.963093 -13.696648 0.663 255 255 0
-4.962991 -13.683232 0.635 255 255 0
-4.963212 -13.7123 0.688 255 255 0
-4.96333 -13.727952 0.727 255 255 0
-4.963717 -13.719899 0.722 255 255 0
-4.964353 -13.685905 0.683 255 255 0
-4.963933 -13.689487 0.678 255 255 0
-4.963394 -13.677415 0.649 255 255 0
-4.963314 -13.725717 0.719 255 255 0
-4.962991 -13.683232 0.639 255 255 0
-4.963598 -13.704247 0.696 255 255 0
-4.963649 -13.710956 0.715 255 255 0
-4.9637 -13.717663 0.707 255 255 0
-4.964086 -13.70961 0.698 255 255 0
-4.488114 -13.8702 0.421 255 255 0
-4.493392 -13.858532 0.403 255 255 0
-4.489794 -13.855876 0.416 255 255 0
-4.480227 -13.832693 0.439 255 255 0
-4.48769 -13.8143 0.415 255 255 0
-4.488352 -13.901504 0.426 255 255 0
-4.484028 -13.862181 0.433 255 255 0
-4.491475 -13.841552 0.406 255 255 0
-4.480867 -13.85818 0.443 255 255 0
-4.486315 -13.868872 0.427 255 255 0
-4.480749 -13.842528 0.44 255 255 0
-4.485611 -13.893923 0.432 255 255 0
-4.494037 -13.9435 0.413 255 255 0
-4.490754 -13.864367 0.413 255 255 0
-4.475402 -13.845252 0.457 255 255 0
-4.49136 -13.885382 0.414 255 255 0
-4.490707 -13.917139 0.419 255 255 0
-4.489455 -13.811156 0.407 255 255 0
-4.479119 -13.86356 0.448 255 255 0
-4.483642 -13.870234 0.437 255 255 0
-4.484784 -13.84384 0.429 255 255 0
-4.488683 -13.827262 0.414 255 255 0
-4.474948 -13.84436 0.457 255 255 0
-4.476344 -13.851505 0.455 255 255 0
-4.484296 -13.838476 0.429 255 255 0
-4.48786 -13.83666 0.417 255 255 0
-4.491292 -13.876437 0.411 255 255 0
-4.489612 -13.890761 0.419 255 255 0
-4.488581 -13.813846 0.41 255 255 0
-4.488937 -13.860802 0.417 255 255 0
-4.49035 -13.870183 0.414 255 255 0
-4.482246 -13.863089 0.438 255 255 0
-4.493057 -13.873293 0.405 255 255 0
-4.473184 -13.847506 0.463 255 255 0
-4.484482 -13.863071 0.433 255 255 0
-4.479319 -13.830912 0.444 255 255 0
-4.479807 -13.836274 0.442 255 255 0
-4.492013 -13.853623 0.406 255 255 0
-4.486082 -13.897049 0.43 255 255 0
-4.478109 -13.848362 0.45 255 255 0
-4.483171 -13.867106 0.436 255 255 0
-4.489226 -13.898814 0.421 255 255 0
-4.487927 -13.845604 0.419 255 255 0
-4.481083 -13.827766 0.437 255 255 0
-4.49439 -13.930975 0.41 255 255 0
-4.481339 -13.861307 0.441 255 255 0
-4.491093 -13.909086 0.417 255 255 0
-4.48312 -13.860399 0.434 255 255 0
-4.488857 -13.909103 0.424 255 255 0
-4.480027 -13.865341 0.445 255 255 0
-4.481725 -13.853254 0.439 255 255 0
-4.48976 -13.851404 0.413 255 255 0
-4.480078 -13.87205 0.445 255 255 0
-4.479153 -13.868032 0.448 255 255 0
-4.52165 -14.046153 0.442 255 255 0
-4.496358 -13.954663 0.416 255 255 0
-4.528125 -14.074279 0.429 255 255 0
-4.508786 -14.001081 0.415 255 255 0
-4.537374 -14.114459 0.423 255 255 0
-4.508247 -13.989009 0.448 255 255 0
-4.520271 -14.041244 0.43 255 255 0
-4.500916 -13.96581 0.431 255 255 0
-4.487058 -13.907775 0.44 255 255 0
-4.50142 -13.973409 0.414 255 255 0
-4.537812 -14.113114 0.422 255 255 0
-4.553031 -14.173821 0.423 255 255 0
-4.560431 -14.205965 0.42 255 255 0
-4.49999 -13.961791 0.439 255 255 0
-4.516605 -14.029643 0.426 255 255 0
-4.525838 -14.067588 0.424 255 255 0
-4.539207 -14.120259 0.417 255 255 0
-4.505103 -13.987245 0.419 255 255 0
-4.517548 -14.035898 0.416 255 255 0
-4.498174 -13.958227 0.419 255 255 0
-4.494877 -13.936338 0.454 255 255 0
-4.485242 -13.904211 0.434 255 255 0
-4.539207 -14.120259 0.422 255 255 0
-4.504178 -13.983226 0.418 255 255 0
-4.481508 -13.883667 0.448 255 255 0
-4.516623 -14.03188 0.424 255 255 0
-4.494458 -13.939919 0.43 255 255 0
-4.529975 -14.082315 0.426 255 255 0
-4.493113 -13.939483 0.423 255 255 0
-4.513882 -14.024298 0.417 255 255 0
-4.489833 -13.919829 0.443 255 255 0
-4.503219 -13.974736 0.436 255 255 0
-4.494877 -13.936338 0.448 255 255 0
-4.524425 -14.058207 0.433 255 255 0
-4.51109 -14.010008 0.425 255 255 0
-4.481508 -13.883667 0.448 255 255 0
-4.5161 -14.022044 0.443 255 255 0
-4.496307 -13.947955 0.435 255 255 0
-4.518875 -14.034099 0.445 255 255 0
-4.501335 -13.962229 0.444 255 255 0
-4.524005 -14.061788 0.421 255 255 0
-4.494979 -13.949755 0.413 255 255 0
-4.486621 -13.909121 0.436 255 255 0
-4.481962 -13.884558 0.456 255 255 0
-4.503622 -13.96892 0.452 255 255 0
-4.505103 -13.987245 0.414 255 255 0
-4.511981 -14.009554 0.428 255 255 0
-4.497181 -13.945265 0.454 255 255 0
-4.50781 -13.990355 0.446 255 255 0
-4.516605 -14.029643 0.43 255 255 0
-4.520254 -14.039007 0.441 255 255 0
-4.489378 -13.918938 0.438 255 255 0
-4.531388 -14.091696 0.417 255 255 0
-4.54104 -14.126059 0.43 255 255 0
-4.517548 -14.035898 0.414 255 255 0
-4.500898 -13.963573 0.445 255 255 0
-4.506431 -13.985445 0.446 255 255 0
-4.510551 -13.997937 0.447 255 255 0
-4.496307 -13.947955 0.436 255 255 0
-4.515244 -14.026971 0.419 255 255 0
-4.500444 -13.962683 0.434 255 255 0
-4.545194 -14.143023 0.42 255 255 0
-4.524005 -14.061788 0.422 255 255 0
-4.53872 -14.114896 0.436 255 255 0
-4.538754 -14.119368 0.421 255 255 0
-4.502748 -13.971609 0.439 255 255 0
-4.531791 -14.085878 0.432 255 255 0
-4.530866 -14.081861 0.44 255 255 0
-4.510182 -14.008225 0.417 255 255 0
-4.536904 -14.111332 0.416 255 255 0
-4.499065 -13.957773 0.441 255 255 0
-4.49957 -13.965372 0.418 255 255 0
-4.563171 -14.213548 0.425 255 255 0
-4.508735 -13.994372 0.442 255 255 0
-4.531807 -14.088115 0.432 255 255 0
-4.488891 -13.913575 0.45 255 255 0
-4.496257 -13.941248 0.455 255 255 0
-4.495802 -13.940356 0.451 255 255 0
-4.491632 -13.921157 0.454 255 255 0
-4.53275 -14.094369 0.421 255 255 0
-4.529084 -14.082769 0.416 255 255 0
-4.473637 -13.848396 0.466 255 255 0
-4.564568 -14.220693 0.42 255 255 0
-4.502328 -13.975191 0.415 255 255 0
-4.491716 -13.932337 0.423 255 255 0
-4.492641 -13.936355 0.423 255 255 0
-4.511038 -14.0033 0.443 255 255 0
-4.549785 -14.15864 0.428 255 255 0
-4.502731 -13.969374 0.439 255 255 0
-4.492625 -13.934119 0.432 255 255 0
-4.52165 -14.046153 0.439 255 255 0
-4.487041 -13.90554 0.447 255 255 0
-4.520725 -14.042135 0.443 255 255 0
-4.527671 -14.073388 0.429 255 255 0
-4.507373 -13.991699 0.429 255 255 0
-4.547935 -14.150604 0.431 255 255 0
-4.47828 -13.870722 0.457 255 255 0
-4.498089 -13.947047 0.455 255 255 0
-4.661729 -13.823265 0.472 255 255 0
-4.819242 -13.835039 0.474 255 255 0
-4.672943 -13.827653 0.472 255 255 0
-4.550434 -13.831713 0.47 255 255 0
-4.643285 -13.809093 0.473 255 255 0
-4.560791 -13.841025 0.469 255 255 0
-4.838467 -13.952066 0.467 255 255 0
-4.816959 -13.887829 0.471 255 255 0
-4.765684 -13.908343 0.469 255 255 0
-4.673486 -13.899204 0.468 255 255 0
-4.906438 -13.951103 0.468 255 255 0
-4.661614 -13.867094 0.469 255 255 0
-4.892216 -13.962838 0.467 255 255 0
-4.73007 -13.812014 0.474 255 255 0
-4.781884 -13.80357 0.475 255 255 0
-4.833927 -13.943156 0.468 255 255 0
-4.860466 -13.84546 0.474 255 255 0
-4.593071 -13.851515 0.469 255 255 0
-4.873887 -13.904839 0.471 255 255 0
-4.615481 -13.858052 0.469 255 255 0
-4.660037 -13.894835 0.468 255 255 0
-4.836557 -13.81836 0.475 255 255 0
-4.803743 -13.855282 0.473 255 255 0
-4.743138 -13.883917 0.47 255 255 0
-4.855756 -13.814189 0.476 255 255 0
-4.808453 -13.886552 0.471 255 255 0
-4.902297 -13.876895 0.473 255 255 0
-4.738933 -13.860247 0.471 255 255 0
-4.597827 -13.830011 0.47 255 255 0
-4.789521 -13.867018 0.472 255 255 0
-4.817494 -13.840419 0.474 255 255 0
-4.773512 -13.82018 0.474 255 255 0
-4.630849 -13.879402 0.468 255 255 0
-4.655513 -13.88816 0.468 255 255 0
-4.873742 -13.767988 0.479 255 255 0
-4.792249 -13.931845 0.468 255 255 0
-4.660702 -13.805831 0.473 255 255 0
-4.735776 -13.915726 0.468 255 255 0
-4.824423 -13.869436 0.472 255 255 0
-4.809212 -13.927691 0.468 255 255 0
-4.79774 -13.830283 0.474 255 255 0
-4.784663 -13.875104 0.471 255 255 0
-4.719207 -13.7951 0.475 255 255 0
-4.897341 -13.931046 0.47 255 255 0
-4.892012 -13.936007 0.469 255 255 0
-4.839926 -13.908674 0.47 255 255 0
-4.835119 -13.923469 0.469 255 255 0
-4.898971 -13.910015 0.471 255 255 0
-4.880594 -13.904787 0.471 255 255 0
-4.754585 -13.860127 0.471 255 255 0
-4.785935 -13.807117 0.475 255 255 0
-4.671297 -13.846448 0.471 255 255 0
-4.515634 -13.84271 0.468 255 255 0
-4.607395 -13.853195 0.469 255 255 0
-4.748115 -13.891482 0.469 255 255 0
-4.577991 -13.868176 0.468 255 255 0
-4.734978 -13.810634 0.474 255 255 0
-4.783097 -13.8456 0.473 255 255 0
-4.880026 -13.947725 0.468 255 255 0
-4.866661 -13.954535 0.468 255 255 0
-4.650468 -13.871651 0.469 255 255 0
-4.943763 -13.978101 0.467 255 255 0
-4.63135 -13.827521 0.471 255 255 0
-4.591505 -13.822009 0.471 255 255 0
-4.63359 -13.886985 0.468 255 255 0
-4.647274 -13.863178 0.469 255 255 0
-4.689906 -13.823499 0.473 255 255 0
-4.863695 -13.858404 0.473 255 255 0
-4.735487 -13.877714 0.47 255 255 0
-4.714689 -13.847908 0.471 255 255 0
-4.600386 -13.872478 0.468 255 255 0
-4.900748 -13.849626 0.475 255 255 0
-4.838412 -13.885878 0.471 255 255 0
-4.800413 -13.828921 0.474 255 255 0
-4.836846 -13.856372 0.473 255 255 0
-4.867815 -13.870895 0.473 255 255 0
-4.599961 -13.816579 0.471 255 255 0
-4.714286 -13.853724 0.471 255 255 0
-4.770542 -13.900256 0.469 255 255 0
-4.859949 -13.895105 0.471 255 255 0
-4.906654 -13.92069 0.47 255 255 0
-4.762265 -13.811321 0.475 255 255 0
-4.817927 -13.779593 0.478 255 255 0
-4.684683 -13.901355 0.468 255 255 0
-4.774976 -13.836269 0.473 255 255 0
-4.726107 -13.879127 0.47 255 255 0
-4.865897 -13.853916 0.474 255 255 0
-4.598183 -13.876967 0.468 255 255 0
-4.788527 -13.854055 0.472 255 255 0
-4.700704 -13.890947 0.469 255 255 0
-4.57663 -13.865503 0.468 255 255 0
-4.731304 -13.91576 0.468 255 255 0
-4.87619 -13.913766 0.47 255 255 0
-4.738173 -13.819107 0.474 255 255 0
-4.864641 -13.924139 0.469 255 255 0
-4.730884 -13.919341 0.467 255 255 0
-4.803862 -13.870934 0.472 255 255 0
-4.733536 -13.856262 0.471 255 255 0
-4.913935 -13.937182 0.469 255 255 0
-4.851556 -13.849999 0.474 255 255 0
-4.741542 -13.909421 0.468 255 255 0
-4.727167 -13.901032 0.468 255 255 0
-4.889789 -13.878779 0.473 255 255 0
-4.532092 -13.830957 0.469 255 255 0
-4.725453 -13.910885 0.468 255 255 0
-4.77319 -13.777696 0.477 255 255 0
-4.718138 -13.88992 0.469 255 255 0
-4.788795 -13.83035 0.474 255 255 0
-4.842612 -13.850067 0.474 255 255 0
-4.786088 -13.82724 0.474 255 255 0
-4.781213 -13.833092 0.474 255 255 0
-4.635843 -13.889203 0.467 255 255 0
-4.89614 -13.831772 0.476 255 255 0
-4.800837 -13.88482 0.471 255 255 0
-4.817821 -13.942384 0.467 255 255 0
-4.680882 -13.871867 0.469 255 255 0
-4.845128 -13.7691 0.479 255 255 0
-4.650481 -13.814406 0.472 255 255 0
-4.799169 -13.8419 0.473 255 255 0
-4.717561 -13.813896 0.474 255 255 0
-4.552436 -13.859873 0.468 255 255 0
-4.749476 -13.894156 0.469 255 255 0
-4.662234 -13.830864 0.472 255 255 0
-4.808202 -13.912494 0.469 255 255 0
-4.849536 -13.819603 0.476 255 255 0
-4.596652 -13.851934 0.469 255 255 0
-4.75226 -13.789483 0.476 255 255 0
-4.889577 -13.968673 0.467 255 255 0
-4.762876 -13.891817 0.47 255 255 0
-4.912437 -13.916621 0.471 255 255 0
-4.762935 -13.781799 0.476 255 255 0
-4.864251 -13.872711 0.473 255 255 0
-4.732763 -13.872368 0.47 255 255 0
-4.912204 -13.944798 0.469 255 255 0
-4.716038 -13.907825 0.468 255 255 0
-4.885902 -13.838111 0.475 255 255 0
-4.829807 -13.930665 0.468 255 255 0
-4.690029 -13.898631 0.468 255 255 0
-4.883531 -13.82024 0.476 255 255 0
-4.889038 -13.956601 0.468 255 255 0
-4.884158 -13.902971 0.471 255 255 0
-4.748937 -13.882084 0.47 255 255 0
-4.758955 -13.846677 0.472 255 255 0
-4.836061 -13.929724 0.469 255 255 0
-4.686278 -13.875852 0.469 255 255 0
-4.798494 -13.81194 0.475 255 255 0
-4.742373 -13.783297 0.476 255 255 0
-4.879606 -13.951306 0.468 255 255 0
-4.543004 -13.854577 0.468 255 255 0
-4.776419 -13.790642 0.476 255 255 0
-4.765794 -13.805033 0.475 255 255 0
-4.804651 -13.857063 0.472 255 255 0
-4.621918 -13.822226 0.471 255 255 0
-4.937725 -13.948629 0.469 255 255 0
-4.562119 -13.839228 0.469 255 255 0
-4.534782 -13.831832 0.469 255 255 0
-4.839714 -13.76288 0.479 255 255 0
-4.557596 -13.832553 0.47 255 255 0
-4.853083 -13.815551 0.476 255 255 0
-4.565012 -13.866933 0.468 255 255 0
-4.719047 -13.891704 0.469 255 255 0
-4.862456 -13.930864 0.469 255 255 0
-4.782168 -13.782101 0.477 255 255 0
-4.875494 -13.82209 0.476 255 255 0
-4.646162 -13.834564 0.471 255 255 0
-4.636229 -13.88115 0.468 255 255 0
-4.711028 -13.895789 0.468 255 255 0
-4.713798 -13.848362 0.471 255 255 0
-4.851026 -13.95689 0.467 255 255 0
-4.607089 -13.812946 0.472 255 255 0
-4.650884 -13.808589 0.473 255 255 0
-4.877425 -13.781825 0.478 255 255 0
-4.635589 -13.855663 0.47 255 255 0
-4.745611 -13.915204 0.468 255 255 0
-4.650583 -13.827822 0.472 255 255 0
-4.545677 -13.853215 0.468 255 255 0
-4.70087 -13.853827 0.471 255 255 0
-4.861204 -13.824881 0.475 255 255 0
-4.781319 -13.905989 0.469 255 255 0
-4.87922 -13.959359 0.467 255 255 0
-4.694717 -13.868184 0.47 255 255 0
-4.868196 -13.803361 0.477 255 255 0
-4.834368 -13.765604 0.479 255 255 0
-4.797896 -13.909887 0.469 255 255 0
-4.708554 -13.864502 0.47 255 255 0
-4.818351 -13.835493 0.474 255 255 0
-4.760389 -13.917775 0.468 255 255 0
-4.890803 -13.953458 0.468 255 255 0
-4.792228 -13.870128 0.471 255 255 0
-4.868065 -13.844954 0.474 255 255 0
-4.884387 -13.815314 0.476 255 255 0
-4.899526 -13.924321 0.47 255 255 0
-4.823442 -13.799229 0.476 255 255 0
-4.812195 -13.79037 0.477 255 255 0
-4.671899 -13.807981 0.473 255 255 0
-4.787382 -13.82097 0.474 255 255 0
-4.790998 -13.825862 0.474 255 255 0
-4.705766 -13.909693 0.467 255 255 0
-4.737741 -13.879932 0.47 255 255 0
-4.629453 -13.872257 0.468 255 255 0
-4.842981 -13.839778 0.474 255 255 0
-4.72945 -13.848243 0.472 255 255 0
-4.865812 -13.842735 0.474 255 255 0
-4.61686 -13.862962 0.469 255 255 0
-4.824066 -13.822479 0.475 255 255 0
-4.903892 -13.851391 0.475 255 255 0
-4.797705 -13.82581 0.474 255 255 0
-4.918322 -13.925968 0.47 255 255 0
-4.74999 -13.785028 0.476 255 255 0
-4.573753 -13.840033 0.469 255 255 0
-4.525116 -13.854713 0.468 255 255 0
-4.91982 -13.946529 0.469 255 255 0
-4.724761 -13.87869 0.47 255 255 0
-4.857844 -13.853529 0.474 255 255 0
-4.802101 -13.933559 0.468 255 255 0
-4.736073 -13.837012 0.472 255 255 0
-4.830338 -13.823774 0.475 255 255 0
-4.86804 -13.959444 0.467 255 255 0
-4.787437 -13.887158 0.47 255 255 0
-4.60277 -13.833104 0.47 255 255 0
-4.652921 -13.841221 0.471 255 255 0
-4.619296 -13.830296 0.471 255 255 0
-4.843516 -13.792368 0.477 255 255 0
-4.909527 -13.886679 0.473 255 255 0
-4.779754 -13.876484 0.471 255 255 0
-4.873445 -13.846703 0.474 255 255 0
-4.525922 -13.84308 0.468 255 255 0
-4.772358 -13.903821 0.469 255 255 0
-4.611481 -13.861214 0.469 255 255 0
-4.7981 -13.93672 0.467 255 255 0
-4.893238 -13.920792 0.47 255 255 0
-4.662031 -13.804032 0.473 255 255 0
-4.843736 -13.821436 0.475 255 255 0
-4.698333 -13.873076 0.47 255 255 0
-4.778637 -13.788388 0.476 255 255 0
-4.862634 -13.836498 0.475 255 255 0
-4.670809 -13.841085 0.471 255 255 0
-4.848111 -13.867467 0.473 255 255 0
-4.86221 -13.780599 0.478 255 255 0
-4.831025 -13.796488 0.477 255 255 0
-4.904011 -13.867043 0.474 255 255 0
-4.689626 -13.904449 0.467 255 255 0
-4.88659 -13.810824 0.477 255 255 0
-4.683453 -13.857089 0.47 255 255 0
-4.656837 -13.82688 0.472 255 255 0
-4.801134 -13.806107 0.476 255 255 0
-4.682596 -13.862016 0.47 255 255 0
-4.5868 -13.850221 0.469 255 255 0
-4.646985 -13.825166 0.472 255 255 0
-4.664674 -13.857679 0.47 255 255 0
-4.887684 -13.837203 0.475 255 255 0
-4.84128 -13.792385 0.477 255 255 0
-4.782876 -13.816531 0.475 255 255 0
-4.893285 -13.868019 0.473 255 255 0
-4.815844 -13.799734 0.476 255 255 0
-4.569701 -13.836486 0.47 255 255 0
-4.865413 -13.908033 0.47 255 255 0
-4.546098 -13.849635 0.468 255 255 0
-4.601056 -13.842957 0.47 255 255 0
-4.860551 -13.85664 0.473 255 255 0
-4.672561 -13.895186 0.468 255 255 0
-4.788324 -13.827224 0.474 255 255 0
-4.89309 -13.960149 0.468 255 255 0
-4.5388 -13.830907 0.469 255 255 0
-4.736578 -13.844611 0.472 255 255 0
-4.83918 -13.810289 0.476 255 255 0
-4.822946 -13.910591 0.469 255 255 0
-4.93882 -13.975008 0.468 255 255 0
-4.80213 -13.87855 0.471 255 255 0
-4.855192 -13.916609 0.47 255 255 0
-4.786071 -13.825005 0.474 255 255 0
-4.941595 -13.987062 0.467 255 255 0
-4.879529 -13.8234 0.476 255 255 0
-4.591085 -13.82559 0.471 255 255 0
-4.804396 -13.823524 0.475 255 255 0
-4.849587 -13.826311 0.475 255 255 0
-4.797892 -13.850407 0.473 255 255 0
-4.678866 -13.900952 0.467 255 255 0
-4.527756 -13.84888 0.468 255 255 0
-4.778273 -13.858158 0.472 255 255 0
-4.719984 -13.838475 0.472 255 255 0
-4.931068 -13.955389 0.469 255 255 0
-4.743452 -13.807439 0.474 255 255 0
-4.78392 -13.836202 0.473 255 255 0
-4.873559 -13.802873 0.477 255 255 0
-4.740796 -13.811037 0.474 255 255 0
-4.817935 -13.898555 0.47 255 255 0
-4.55309 -13.828115 0.47 255 255 0
-4.828165 -13.773253 0.478 255 255 0
-4.836247 -13.954319 0.467 255 255 0
-4.803429 -13.93176 0.468 255 255 0
-4.856668 -13.875452 0.472 255 255 0
-4.858595 -13.775705 0.478 255 255 0
-4.913477 -13.87681 0.473 255 255 0
-4.778375 -13.871574 0.471 255 255 0
-4.69717 -13.837754 0.472 255 255 0
-4.745039 -13.898662 0.469 255 255 0
-4.767224 -13.81665 0.474 255 255 0
-4.88379 -13.913261 0.47 255 255 0
-4.742509 -13.801185 0.475 255 255 0
-4.90783 -13.898767 0.472 255 255 0
-4.838288 -13.810744 0.476 255 255 0
-4.633501 -13.816323 0.472 255 255 0
-4.911097 -13.975665 0.467 255 255 0
-4.833554 -13.893965 0.471 255 255 0
-4.870085 -13.875351 0.472 255 255 0
-4.835569 -13.864879 0.473 255 255 0
-4.808469 -13.888787 0.471 255 255 0
-4.653931 -13.856419 0.47 255 255 0
-4.684662 -13.839639 0.471 255 255 0
-4.915547 -13.913914 0.471 255 255 0
-4.895521 -13.868002 0.473 255 255 0
-4.815809 -13.795261 0.477 255 255 0
-4.592413 -13.823792 0.471 255 255 0
-4.846664 -13.853614 0.473 255 255 0
-4.865753 -13.952753 0.468 255 255 0
-4.762031 -13.839499 0.473 255 255 0
-4.726378 -13.914903 0.467 255 255 0
-4.548737 -13.843801 0.469 255 255 0
-4.599053 -13.814796 0.471 255 255 0
-4.677738 -13.870103 0.469 255 255 0
-4.904236 -13.955592 0.468 255 255 0
-4.69571 -13.881146 0.469 255 255 0
-4.692566 -13.879381 0.469 255 255 0
-4.810251 -13.887879 0.471 255 255 0
-4.776032 -13.798695 0.476 255 255 0
-4.836642 -13.829539 0.475 255 255 0
-4.5407 -13.845651 0.469 255 255 0
-4.529906 -13.837683 0.469 255 255 0
-4.888792 -13.806335 0.477 255 255 0
-4.710505 -13.885953 0.469 255 255 0
-4.579336 -13.868613 0.468 255 255 0
-4.640667 -13.876644 0.468 255 255 0
-4.735102 -13.885767 0.469 255 255 0
-4.74609 -13.801604 0.475 255 255 0
-4.561546 -13.822684 0.47 255 255 0
-4.87342 -13.961193 0.467 255 255 0
-4.751445 -13.917843 0.468 255 255 0
-4.858328 -13.799412 0.477 255 255 0
-4.841844 -13.925654 0.469 255 255 0
-4.720642 -13.866199 0.47 255 255 0
-4.827295 -13.835425 0.474 255 255 0
-4.904537 -13.936359 0.469 255 255 0
-4.818623 -13.871269 0.472 255 255 0
-4.713416 -13.915895 0.467 255 255 0
-4.735988 -13.825831 0.473 255 255 0
-4.692244 -13.836897 0.472 255 255 0
-4.902993 -13.968571 0.467 255 255 0
-4.724443 -13.895687 0.469 255 255 0
-4.802011 -13.862897 0.472 255 255 0
-4.745862 -13.889263 0.469 255 255 0
-4.528965 -13.831429 0.469 255 255 0
-4.558941 -13.832991 0.47 255 255 0
-4.782006 -13.878702 0.471 255 255 0
-4.759443 -13.85204 0.472 255 255 0
-4.78742 -13.884923 0.47 255 255 0
-4.545139 -13.841145 0.469 255 255 0
-4.872898 -13.951357 0.468 255 255 0
-4.790662 -13.840623 0.473 255 255 0
-4.888312 -13.919934 0.47 255 255 0
-4.905275 -13.915781 0.471 255 255 0
-4.815211 -13.893209 0.47 255 255 0
-4.758582 -13.797485 0.475 255 255 0
-4.708435 -13.84885 0.471 255 255 0
-4.600267 -13.856827 0.469 255 255 0
-4.890413 -13.90203 0.471 255 255 0
-4.86535 -13.95857 0.467 255 255 0
-4.879636 -13.896297 0.471 255 255 0
-4.828526 -13.879691 0.471 255 255 0
-4.709831 -13.855995 0.471 255 255 0
-4.715444 -13.829566 0.473 255 255 0
-4.856368 -13.894686 0.471 255 255 0
-4.833876 -13.936448 0.468 255 255 0
-4.7355 -13.820469 0.474 255 255 0
-4.732691 -13.803943 0.474 255 255 0
-4.689015 -13.823953 0.473 255 255 0
-4.674293 -13.88757 0.468 255 255 0
-4.77812 -13.838034 0.473 255 255 0
-4.764119 -13.878839 0.47 255 255 0
-4.849536 -13.819603 0.476 255 255 0
-4.873284 -13.943304 0.468 255 255 0
-4.843083 -13.853194 0.473 255 255 0
-4.844674 -13.768209 0.479 255 255 0
-4.883547 -13.822475 0.476 255 255 0
-4.664542 -13.899272 0.467 255 255 0
-4.912909 -13.919748 0.47 255 255 0
-4.667482 -13.874206 0.469 255 255 0
-4.850652 -13.907699 0.47 255 255 0
-4.848692 -13.767284 0.479 255 255 0
-4.739692 -13.901385 0.469 255 255 0
-4.577737 -13.834636 0.47 255 255 0
-4.939558 -13.954429 0.469 255 255 0
-4.736196 -13.912145 0.468 255 255 0
-4.83747 -13.879622 0.472 255 255 0
-4.611175 -13.820966 0.471 255 255 0
-4.738763 -13.837886 0.472 255 255 0
-4.599978 -13.818814 0.471 255 255 0
-4.789474 -13.91979 0.468 255 255 0
-4.649662 -13.883285 0.468 255 255 0
-4.824652 -13.781778 0.478 255 255 0
-4.732831 -13.881312 0.47 255 255 0
-4.545558 -13.837564 0.469 255 255 0
-4.839213 -13.814762 0.476 255 255 0
-4.566658 -13.848137 0.469 255 255 0
-4.853109 -13.936749 0.468 255 255 0
-4.692461 -13.806484 0.474 255 255 0
-4.719191 -13.792865 0.475 255 255 0
-4.816735 -13.79928 0.476 255 255 0
-4.773126 -13.828234 0.474 255 255 0
-4.617887 -13.880395 0.468 255 255 0
-4.609194 -13.854523 0.469 255 255 0
-4.751105 -13.873123 0.471 255 255 0
-4.883934 -13.814423 0.477 255 255 0
-4.88056 -13.900315 0.471 255 255 0
-4.804838 -13.88166 0.471 255 255 0
-4.837614 -13.780786 0.478 255 255 0
-4.852108 -13.804826 0.477 255 255 0
-4.801757 -13.829357 0.474 255 255 0
-4.545525 -13.833092 0.469 255 255 0
-4.666859 -13.850954 0.47 255 255 0
-4.831386 -13.902925 0.47 255 255 0
-4.808686 -13.858375 0.472 255 255 0
-4.797879 -13.907652 0.469 255 255 0
-4.905683 -13.969445 0.467 255 255 0
-4.683992 -13.869161 0.47 255 255 0
-4.863708 -13.80116 0.477 255 255 0
-4.628257 -13.832463 0.471 255 255 0
-4.67094 -13.799493 0.474 255 255 0
-4.699894 -13.843101 0.471 255 255 0
-4.85173 -13.931841 0.469 255 255 0
-4.614607 -13.860743 0.469 255 255 0
-4.826272 -13.877472 0.472 255 255 0
-4.655373 -13.810791 0.473 255 255 0
-4.557345 -13.858494 0.468 255 255 0
-4.77927 -13.930601 0.467 255 255 0
-4.892602 -13.954785 0.468 255 255 0
-4.805622 -13.808309 0.476 255 255 0
-4.761136 -13.780471 0.476 255 255 0
-4.651444 -13.882377 0.468 255 255 0
-4.645174 -13.881083 0.468 255 255 0
-4.84624 -13.797714 0.477 255 255 0
-4.614756 -13.821385 0.471 255 255 0
-4.856295 -13.826261 0.475 255 255 0
-4.901308 -13.923413 0.47 255 255 0
-4.853694 -13.896048 0.471 255 255 0
-4.669044 -13.844229 0.471 255 255 0
-4.747118 -13.819039 0.474 255 255 0
-4.860597 -13.803865 0.477 255 255 0
-4.872685 -13.805563 0.477 255 255 0
-4.702754 -13.866334 0.47 255 255 0
-4.868671 -13.865969 0.473 255 255 0
-4.879007 -13.813565 0.476 255 255 0
-4.756362 -13.799738 0.475 255 255 0
-4.791888 -13.825408 0.474 255 255 0
-4.899891 -13.854552 0.474 255 255 0
-4.857051 -13.807919 0.476 255 255 0
-4.761564 -13.895852 0.469 255 255 0
-4.634982 -13.834648 0.471 255 255 0
-4.600856 -13.875606 0.468 255 255 0
-4.759295 -13.891397 0.47 255 255 0
-4.803713 -13.910291 0.469 255 255 0
-4.840168 -13.763771 0.479 255 255 0
-4.614506 -13.847326 0.47 255 255 0
-4.800298 -13.872749 0.471 255 255 0
-4.866152 -13.887456 0.472 255 255 0
-4.643726 -13.867229 0.469 255 255 0
-4.498199 -13.843737 0.468 255 255 0
-4.66385 -13.867077 0.469 255 255 0
-4.751186 -13.824822 0.474 255 255 0
-4.880671 -13.797006 0.478 255 255 0
-4.823141 -13.818461 0.475 255 255 0
-4.537188 -13.854175 0.468 255 255 0
-4.648216 -13.869432 0.469 255 255 0
-4.790225 -13.841968 0.473 255 255 0
-4.732526 -13.841063 0.472 255 255 0
-4.760482 -13.812229 0.474 255 255 0
-4.833999 -13.775893 0.478 255 255 0
-4.502234 -13.845048 0.468 255 255 0
-4.779516 -13.845179 0.473 255 255 0
-4.639573 -13.850266 0.47 255 255 0
-4.670609 -13.873734 0.469 255 255 0
-4.9173 -13.968016 0.468 255 255 0
-4.746023 -13.792661 0.475 255 255 0
-4.849468 -13.810659 0.476 255 255 0
-4.629687 -13.844081 0.47 255 255 0
-4.610488 -13.848251 0.47 255 255 0
-4.932633 -13.984893 0.467 255 255 0
-4.821376 -13.821606 0.475 255 255 0
-4.61479 -13.825857 0.471 255 255 0
-4.893896 -13.948515 0.468 255 255 0
-4.709898 -13.864939 0.47 255 255 0
-4.923566 -13.909828 0.471 255 255 0
-4.571937 -13.83647 0.47 255 255 0
-4.742862 -13.78866 0.476 255 255 0
-4.86179 -13.78418 0.478 255 255 0
-4.601544 -13.84832 0.469 255 255 0
-4.549679 -13.850055 0.468 255 255 0
-4.85655 -13.8598 0.473 255 255 0
-4.800645 -13.800743 0.476 255 255 0
-4.548316 -13.847382 0.469 255 255 0
-4.700857 -13.911072 0.467 255 255 0
-4.626428 -13.886145 0.468 255 255 0
-4.739416 -13.806128 0.474 255 255 0
-4.932748 -13.941065 0.47 255 255 0
-4.781849 -13.799097 0.476 255 255 0
-4.901559 -14.133162 0.482 255 255 0
-4.84506 -13.995845 0.471 255 255 0
-4.715873 -13.944947 0.47 255 255 0
-4.903795 -14.133144 0.482 255 255 0
-4.850254 -13.972997 0.468 255 255 0
-4.780199 -13.994101 0.473 255 255 0
-4.882164 -13.993774 0.469 255 255 0
-4.840287 -14.015112 0.473 255 255 0
-4.568712 -13.883005 0.469 255 255 0
-4.916948 -13.98054 0.467 255 255 0
-4.792202 -13.984617 0.471 255 255 0
-4.93156 -14.020232 0.47 255 255 0
-4.838866 -14.122457 0.483 255 255 0
-4.9338 -14.079697 0.476 255 255 0
-4.89962 -14.054464 0.475 255 255 0
-4.91943 -14.13079 0.481 255 255 0
-4.808618 -14.085119 0.481 255 255 0
-4.880662 -14.14942 0.484 255 255 0
-4.623153 -13.925973 0.471 255 255 0
-4.678332 -13.948362 0.471 255 255 0
-4.581997 -13.924497 0.472 255 255 0
-4.898377 -14.067444 0.476 255 255 0
-4.805346 -13.94874 0.467 255 255 0
-4.823205 -14.003613 0.472 255 255 0
-4.847267 -14.050837 0.476 255 255 0
-4.920889 -14.087398 0.477 255 255 0
-4.889709 -14.162767 0.485 255 255 0
-4.933593 -13.993383 0.468 255 255 0
-4.607636 -13.943979 0.473 255 255 0
-4.844934 -14.096919 0.481 255 255 0
-4.936962 -14.083697 0.476 255 255 0
-4.884248 -13.973633 0.467 255 255 0
-4.653061 -13.91859 0.469 255 255 0
-4.78597 -14.047276 0.478 255 255 0
-4.892764 -14.093872 0.479 255 255 0
-4.591611 -13.894906 0.469 255 255 0
-4.558508 -13.893816 0.47 255 255 0
-4.821347 -14.112303 0.483 255 255 0
-4.601162 -13.915854 0.471 255 255 0
-4.717956 -13.924806 0.468 255 255 0
-4.666812 -13.903728 0.468 255 255 0
-4.736574 -14.020818 0.477 255 255 0
-4.917792 -14.032859 0.472 255 255 0
-4.722449 -13.986489 0.474 255 255 0
-4.909463 -14.172905 0.486 255 255 0
-4.917622 -14.010499 0.47 255 255 0
-4.931896 -14.005472 0.469 255 255 0
-4.627829 -13.952771 0.474 255 255 0
-4.785965 -13.987796 0.472 255 255 0
-4.838556 -14.022727 0.474 255 255 0
-4.859155 -14.085182 0.479 255 255 0
-4.625911 -13.935791 0.472 255 255 0
-4.925549 -14.111959 0.479 255 255 0
-4.853385 -14.032007 0.474 255 255 0
-4.881838 -14.127497 0.482 255 255 0
-4.656107 -13.96642 0.474 255 255 0
-4.621973 -13.888414 0.468 255 255 0
-4.728045 -13.957824 0.471 255 255 0
-4.856088 -13.975635 0.468 255 255 0
-4.832904 -13.985203 0.47 255 255 0
-4.917164 -14.185815 0.487 255 255 0
-4.650693 -13.9602 0.474 255 255 0
-4.797714 -13.944773 0.467 255 255 0
-4.870102 -14.113276 0.481 255 255 0
-4.896692 -14.022286 0.472 255 255 0
-4.879004 -13.989773 0.469 255 255 0
-4.91744 -14.045384 0.473 255 255 0
-4.74789 -14.038621 0.478 255 255 0
-4.618999 -13.909009 0.47 255 255 0
-4.859966 -14.13303 0.484 255 255 0
-4.91371 -14.084321 0.477 255 255 0
-4.930215 -14.019795 0.47 255 255 0
-4.861272 -14.069513 0.477 255 255 0
-4.912264 -14.070468 0.476 255 255 0
-4.902123 -14.030743 0.472 255 255 0
-4.796865 -14.068661 0.479 255 255 0
-4.854781 -14.039152 0.475 255 255 0
-4.850784 -14.101793 0.481 255 255 0
-4.818631 -13.990231 0.471 255 255 0
-4.926435 -14.052024 0.473 255 255 0
-4.504067 -13.850848 0.468 255 255 0
-4.837368 -14.101895 0.481 255 255 0
-4.809407 -14.071249 0.479 255 255 0
-4.90817 -14.179175 0.487 255 255 0
-4.640417 -13.902586 0.468 255 255 0
-4.661874 -13.960115 0.473 255 255 0
-4.720129 -13.975327 0.473 255 255 0
-4.870263 -14.016672 0.472 255 255 0
-4.841696 -13.965011 0.468 255 255 0
-4.832637 -14.008908 0.472 255 255 0
-4.89581 -14.141702 0.483 255 255 0
-4.694675 -13.980439 0.474 255 255 0
-4.918195 -14.027042 0.471 255 255 0
-4.766244 -13.982131 0.472 255 255 0
-4.911373 -14.070923 0.476 255 255 0
-4.730752 -13.960934 0.471 255 255 0
-4.89449 -14.026775 0.472 255 255 0
-4.782685 -13.968143 0.47 255 255 0
-4.896853 -14.161372 0.485 255 255 0
-4.810549 -14.044854 0.477 255 255 0
-4.602388 -13.900639 0.469 255 255 0
-4.83486 -14.066136 0.478 255 255 0
-4.890277 -14.11983 0.481 255 255 0
-4.93061 -14.130705 0.481 255 255 0
-4.744776 -13.981848 0.473 255 255 0
-4.792746 -14.05617 0.478 255 255 0
-4.879245 -14.080558 0.478 255 255 0
-4.622449 -13.951023 0.474 255 255 0
-4.697781 -13.918251 0.468 255 255 0
-4.733998 -13.976115 0.472 255 255 0
-4.657499 -13.914084 0.469 255 255 0
-4.877141 -14.038981 0.474 255 255 0
-4.794579 -14.06197 0.479 255 255 0
-4.865592 -14.049356 0.475 255 255 0
-4.861689 -14.006452 0.471 255 255 0
-4.63104 -13.96348 0.475 255 255 0
-4.738352 -13.960429 0.471 255 255 0
-4.917716 -14.140641 0.482 255 255 0
-4.907219 -14.053959 0.474 255 255 0
-4.681641 -13.913007 0.468 255 255 0
-4.854174 -14.018137 0.473 255 255 0
-4.926986 -14.00685 0.469 255 255 0
-4.866898 -13.985839 0.469 255 255 0
-4.772252 -14.066611 0.48 255 255 0
-4.831038 -13.974932 0.469 255 255 0
-4.822688 -14.05326 0.477 255 255 0
-4.799212 -13.965334 0.469 255 255 0
-4.841208 -13.959648 0.467 255 255 0
-4.900825 -13.977531 0.467 255 255 0
-4.796059 -14.080295 0.481 255 255 0
-4.587508 -13.884652 0.468 255 255 0
-4.934255 -14.080587 0.476 255 255 0
-4.68896 -13.993452 0.476 255 255 0
-4.847398 -14.009243 0.472 255 255 0
-4.836982 -14.109948 0.482 255 255 0
-4.884176 -14.140897 0.484 255 255 0
-4.61224 -13.902352 0.469 255 255 0
