ply
format ascii 1.0
element vertex 1302
property double x
property double y
property double z
property uchar red
property uchar green
property uchar blue
element face 0
property list uchar int vertex_indices
end_header
-5.631653 -12.925027 2.412 161 19 46
-5.481853 -12.63323 2.351 161 19 46
-5.63483 -12.931264 2.403 161 19 46
-5.626659 -12.915226 2.428 161 19 46
-5.513581 -12.688893 2.499 161 19 46
-5.623952 -12.912115 2.376 161 19 46
-5.560847 -12.788265 2.32 161 19 46
-5.530379 -12.72186 2.511 161 19 46
-5.501323 -12.664836 2.545 161 19 46
-5.621211 -12.904533 2.453 161 19 46
-5.525839 -12.712951 2.535 161 19 46
-5.556711 -12.773539 2.459 161 19 46
-5.609895 -12.886731 2.32 161 19 46
-5.509058 -12.682219 2.456 161 19 46
-5.449619 -12.569969 2.418 161 19 46
-5.559031 -12.784701 2.323 161 19 46
-5.462769 -12.593573 2.46 161 19 46
-5.542687 -12.752625 2.321 161 19 46
-5.5327 -12.733024 2.316 161 19 46
-5.614435 -12.89564 2.348 161 19 46
-5.694304 -13.047986 2.368 161 19 46
-5.577174 -12.818106 2.378 161 19 46
-5.605253 -12.864405 2.541 161 19 46
-5.638916 -12.939282 2.39 161 19 46
-5.583076 -12.829689 2.373 161 19 46
-5.649812 -12.960667 2.428 161 19 46
-5.55259 -12.761047 2.581 161 19 46
-5.688418 -13.038638 2.333 161 19 46
-5.453705 -12.577988 2.427 161 19 46
-5.52362 -12.715203 2.329 161 19 46
-5.573037 -12.803379 2.535 161 19 46
-5.554912 -12.772211 2.414 161 19 46
-5.629837 -12.921463 2.427 161 19 46
-5.512219 -12.68622 2.514 161 19 46
-5.649359 -12.959777 2.407 161 19 46
-5.61847 -12.896952 2.479 161 19 46
-5.557619 -12.775321 2.486 161 19 46
-5.527201 -12.715623 2.504 161 19 46
-5.571692 -12.802942 2.496 161 19 46
-5.558123 -12.78292 2.329 161 19 46
-5.602109 -12.862639 2.46 161 19 46
-5.507662 -12.675074 2.565 161 19 46
-5.568077 -12.79805 2.406 161 19 46
-5.491841 -12.652833 2.342 161 19 46
-5.62259 -12.909443 2.379 161 19 46
-5.613056 -12.890732 2.396 161 19 46
-5.584857 -12.828781 2.451 161 19 46
-5.634814 -12.929028 2.472 161 19 46
-5.554491 -12.775791 2.314 161 19 46
-5.525385 -12.712059 2.526 161 19 46
-5.610786 -12.886276 2.367 161 19 46
-5.42196 -12.520089 2.335 161 19 46
-5.429207 -12.532109 2.352 161 19 46
-5.492244 -12.647016 2.518 161 19 46
-5.494531 -12.653707 2.455 161 19 46
-5.60981 -12.87555 2.511 161 19 46
-5.477296 -12.622085 2.459 161 19 46
-5.616671 -12.895623 2.444 161 19 46
-5.518609 -12.703166 2.419 161 19 46
-5.509058 -12.682219 2.477 161 19 46
-5.445097 -12.563295 2.345 161 19 46
-5.636209 -12.936172 2.38 161 19 46
-5.509546 -12.687582 2.346 161 19 46
-5.596644 -12.849711 2.525 161 19 46
-5.583059 -12.827453 2.4 161 19 46
-5.456446 -12.58557 2.362 161 19 46
-5.509058 -12.682219 2.496 161 19 46
-5.592542 -12.839457 2.563 161 19 46
-5.563941 -12.783323 2.572 161 19 46
-5.532229 -12.729897 2.376 161 19 46
-5.514036 -12.689784 2.517 161 19 46
-5.591634 -12.837674 2.56 161 19 46
-5.5726 -12.804724 2.479 161 19 46
-5.51042 -12.684892 2.457 161 19 46
-5.467779 -12.605609 2.39 161 19 46
-5.539896 -12.738336 2.55 161 19 46
-5.578485 -12.814071 2.532 161 19 46
-5.524443 -12.705806 2.608 161 19 46
-5.613964 -12.892513 2.381 161 19 46
-5.588507 -12.838145 2.428 161 19 46
-5.642549 -12.946411 2.395 161 19 46
-5.445534 -12.56195 2.418 161 19 46
-5.571255 -12.804287 2.394 161 19 46
-5.689781 -13.041311 2.33 161 19 46
-5.455992 -12.584679 2.336 161 19 46
-5.499962 -12.662163 2.527 161 19 46
-5.608011 -12.874223 2.454 161 19 46
-5.544419 -12.745009 2.601 161 19 46
-5.45009 -12.573096 2.349 161 19 46
-5.567169 -12.796268 2.43 161 19 46
-5.504047 -12.670182 2.505 161 19 46
-5.51454 -12.697384 2.367 161 19 46
-5.620337 -12.907224 2.325 161 19 46
-5.686586 -13.032839 2.374 161 19 46
-5.498651 -12.666198 2.377 161 19 46
-5.40834 -12.49336 2.316 161 19 46
-5.527638 -12.714278 2.539 161 19 46
-5.520879 -12.707622 2.426 161 19 46
-5.440086 -12.551258 2.397 161 19 46
-5.457354 -12.587352 2.342 161 19 46
-5.555348 -12.770865 2.512 161 19 46
-5.418765 -12.511617 2.352 161 19 46
-5.679776 -13.019473 2.363 161 19 46
-5.613527 -12.893858 2.316 161 19 46
-5.509966 -12.684001 2.461 161 19 46
-5.448275 -12.569532 2.324 161 19 46
-5.439649 -12.552603 2.336 161 19 46
-5.579444 -12.822561 2.375 161 19 46
-5.578519 -12.818543 2.438 161 19 46
-5.55259 -12.761047 2.598 161 19 46
-5.616217 -12.894732 2.419 161 19 46
-5.704291 -13.067588 2.333 161 19 46
-5.520408 -12.704494 2.434 161 19 46
-5.645727 -12.952648 2.411 161 19 46
-5.600327 -12.863547 2.355 161 19 46
-5.532649 -12.726315 2.504 161 19 46
-5.593467 -12.843474 2.528 161 19 46
-5.713371 -13.085408 2.327 161 19 46
-5.625314 -12.914788 2.355 161 19 46
-5.667518 -12.995417 2.411 161 19 46
-5.69205 -13.045767 2.329 161 19 46
-5.539021 -12.741025 2.442 161 19 46
-5.623969 -12.914352 2.335 161 19 46
-5.490025 -12.649268 2.365 161 19 46
-5.60897 -12.882712 2.384 161 19 46
-5.592139 -12.845273 2.395 161 19 46
-5.523115 -12.707604 2.504 161 19 46
-5.468233 -12.606501 2.38 161 19 46
-5.499525 -12.663507 2.487 161 19 46
-5.608062 -12.88093 2.394 161 19 46
-5.551716 -12.763738 2.49 161 19 46
-5.571272 -12.806522 2.38 161 19 46
-5.549009 -12.760628 2.421 161 19 46
-5.513161 -12.692474 2.426 161 19 46
-5.450982 -12.572642 2.385 161 19 46
-5.448729 -12.570423 2.364 161 19 46
-5.572651 -12.811432 2.328 161 19 46
-5.606616 -12.867078 2.535 161 19 46
-5.423322 -12.522762 2.335 161 19 46
-5.633923 -12.929482 2.413 161 19 46
-5.423305 -12.520527 2.364 161 19 46
-5.577157 -12.81587 2.391 161 19 46
-5.560813 -12.783793 2.431 161 19 46
-5.510403 -12.682656 2.514 161 19 46
-5.45732 -12.58288 2.432 161 19 46
-5.631636 -12.922791 2.477 161 19 46
-5.437832 -12.549039 2.381 161 19 46
-5.6294 -12.922808 2.349 161 19 46
-5.58891 -12.832328 2.565 161 19 46
-5.48229 -12.631886 2.429 161 19 46
-5.508167 -12.682673 2.408 161 19 46
-5.529454 -12.717842 2.548 161 19 46
-5.580369 -12.826579 2.315 161 19 46
-5.603 -12.862185 2.511 161 19 46
-5.577123 -12.811398 2.545 161 19 46
-5.574433 -12.810524 2.428 161 19 46
-5.452361 -12.577551 2.324 161 19 46
-5.544436 -12.747246 2.557 161 19 46
-5.567135 -12.791796 2.526 161 19 46
-5.585312 -12.829672 2.462 161 19 46
-5.598007 -12.852385 2.529 161 19 46
-5.592104 -12.8408 2.52 161 19 46
-5.515414 -12.694693 2.467 161 19 46
-5.454596 -12.577534 2.427 161 19 46
-5.472773 -12.615411 2.355 161 19 46
-5.568026 -12.791342 2.605 161 19 46
-5.577628 -12.818997 2.353 161 19 46
-5.587582 -12.834127 2.445 161 19 46
-5.523115 -12.707604 2.507 161 19 46
-5.568043 -12.793578 2.516 161 19 46
-5.583967 -12.829235 2.417 161 19 46
-5.636209 -12.936172 2.334 161 19 46
-5.635756 -12.935282 2.379 161 19 46
-5.474555 -12.614503 2.489 161 19 46
-5.553583 -12.77401 2.326 161 19 46
-5.508167 -12.682673 2.433 161 19 46
-5.563083 -12.788249 2.429 161 19 46
-5.525385 -12.712059 2.518 161 19 46
-5.598023 -12.85462 2.476 161 19 46
-5.63663 -12.932591 2.453 161 19 46
-5.694774 -13.051112 2.323 161 19 46
-5.439649 -12.552603 2.357 161 19 46
-5.496834 -12.662634 2.38 161 19 46
-5.458699 -12.58779 2.405 161 19 46
-5.517684 -12.699148 2.432 161 19 46
-5.475951 -12.621648 2.387 161 19 46
-5.534465 -12.729879 2.485 161 19 46
-5.583984 -12.831471 2.361 161 19 46
-5.491353 -12.64747 2.474 161 19 46
-5.512657 -12.684875 2.57 161 19 46
-5.425575 -12.524981 2.342 161 19 46
-5.493639 -12.65416 2.449 161 19 46
-5.549429 -12.757047 2.561 161 19 46
-5.557215 -12.781137 2.332 161 19 46
-5.422397 -12.518744 2.347 161 19 46
-5.590322 -12.841709 2.397 161 19 46
-5.436017 -12.545475 2.363 161 19 46
-5.440557 -12.554385 2.364 161 19 46
-5.502737 -12.674217 2.347 161 19 46
-5.589397 -12.837691 2.455 161 19 46
-5.54035 -12.739226 2.549 161 19 46
-5.502299 -12.675562 2.321 161 19 46
-5.509966 -12.684001 2.495 161 19 46
-5.588961 -12.839036 2.402 161 19 46
-5.533994 -12.726752 2.536 161 19 46
-5.587162 -12.837708 2.328 161 19 46
-5.658892 -12.978487 2.416 161 19 46
-5.520896 -12.709857 2.332 161 19 46
-5.615746 -12.891605 2.512 161 19 46
-5.52858 -12.720532 2.465 161 19 46
-5.575795 -12.813197 2.43 161 19 46
-5.479566 -12.626539 2.416 161 19 46
-5.701584 -13.064478 2.322 161 19 46
-5.509092 -12.686691 2.328 161 19 46
-5.66661 -12.993634 2.393 161 19 46
-5.559888 -12.779776 2.477 161 19 46
-5.488209 -12.645704 2.394 161 19 46
-5.573491 -12.80427 2.548 161 19 46
-5.485485 -12.640359 2.35 161 19 46
-5.516793 -12.699602 2.417 161 19 46
-5.555803 -12.771757 2.511 161 19 46
-5.524074 -12.716094 2.321 161 19 46
-5.603437 -12.860841 2.54 161 19 46
-5.588507 -12.838145 2.397 161 19 46
-5.46413 -12.596246 2.458 161 19 46
-5.549901 -12.760174 2.466 161 19 46
-5.655731 -12.974486 2.328 161 19 46
-5.557652 -12.779793 2.356 161 19 46
-5.581714 -12.827016 2.357 161 19 46
-5.575795 -12.813197 2.396 161 19 46
-5.504989 -12.676435 2.391 161 19 46
-5.509495 -12.680874 2.548 161 19 46
-5.551296 -12.767319 2.374 161 19 46
-5.596208 -12.851056 2.45 161 19 46
-5.522207 -12.705822 2.515 161 19 46
-5.651628 -12.964231 2.427 161 19 46
-5.485048 -12.641704 2.319 161 19 46
-5.457791 -12.586008 2.368 161 19 46
-5.489554 -12.646142 2.423 161 19 46
-5.600294 -12.859076 2.454 161 19 46
-5.58353 -12.83058 2.346 161 19 46
-5.602109 -12.862639 2.463 161 19 46
-5.6598 -12.980269 2.387 161 19 46
-5.407313 -12.475925 2.762 161 19 46
-5.403681 -12.468798 2.764 161 19 46
-5.432283 -12.524931 2.809 161 19 46
-5.293362 -12.252282 2.433 161 19 46
-5.448173 -12.556116 2.601 161 19 46
-5.406859 -12.475034 2.768 161 19 46
-5.382344 -12.42692 2.942 161 19 46
-5.277472 -12.221098 2.591 161 19 46
-5.354197 -12.371678 2.502 161 19 46
-5.302442 -12.270103 2.554 161 19 46
-5.381436 -12.425138 2.746 161 19 46
-5.484492 -12.627397 2.742 161 19 46
-5.291546 -12.248719 2.32 161 19 46
-5.358737 -12.380588 2.718 161 19 46
-5.208483 -12.087901 2.348 161 19 46
-5.331951 -12.328018 2.569 161 19 46
-5.378258 -12.418901 2.525 161 19 46
-5.257514 -12.18413 2.564 161 19 46
-5.397326 -12.456324 3.002 161 19 46
-5.418663 -12.4982 2.596 161 19 46
-5.322871 -12.310199 2.658 161 19 46
-5.238446 -12.146708 2.457 161 19 46
-5.407767 -12.476816 2.752 161 19 46
-5.376896 -12.416227 2.709 161 19 46
-5.212114 -12.095028 2.326 161 19 46
-5.364638 -12.392171 2.97 161 19 46
-5.435007 -12.530277 2.795 161 19 46
-5.412307 -12.485726 2.564 161 19 46
-5.485837 -12.627833 2.638 161 19 46
-5.237067 -12.141798 2.42 161 19 46
-5.289276 -12.244264 2.347 161 19 46
-5.249325 -12.165854 2.495 161 19 46
-5.473596 -12.606012 2.751 161 19 46
-5.382344 -12.42692 2.831 161 19 46
-5.234797 -12.137343 2.346 161 19 46
-5.266576 -12.199713 2.439 161 19 46
-5.408676 -12.478599 2.561 161 19 46
-5.447265 -12.554335 2.624 161 19 46
-5.349657 -12.362768 2.695 161 19 46
-5.438639 -12.537405 2.835 161 19 46
-5.40232 -12.466125 2.948 161 19 46
-5.318786 -12.302179 2.374 161 19 46
-5.258859 -12.184566 2.53 161 19 46
-5.403681 -12.468798 2.635 161 19 46
-5.290638 -12.246937 2.372 161 19 46
-5.29881 -12.262975 2.329 161 19 46
-5.315154 -12.295052 2.523 161 19 46
-5.299264 -12.263866 2.614 161 19 46
-5.260674 -12.18813 2.483 161 19 46
-5.517616 -12.690205 2.685 161 19 46
-5.360098 -12.383261 2.878 161 19 46
-5.327865 -12.32 2.687 161 19 46
-5.299264 -12.263866 2.763 161 19 46
-5.364184 -12.39128 2.478 161 19 46
-5.28292 -12.23179 2.616 161 19 46
-5.308798 -12.282578 2.531 161 19 46
-5.463608 -12.586411 2.648 161 19 46
-5.37508 -12.412664 2.827 161 19 46
-5.417302 -12.495528 2.491 161 19 46
-5.350111 -12.363658 2.874 161 19 46
-5.395056 -12.451868 2.781 161 19 46
-5.2693 -12.20506 2.415 161 19 46
-5.297448 -12.260303 2.481 161 19 46
-5.260674 -12.18813 2.553 161 19 46
-5.310614 -12.286141 2.709 161 19 46
-5.415939 -12.492855 2.623 161 19 46
-5.361006 -12.385043 2.625 161 19 46
-5.423657 -12.508002 2.674 161 19 46
-5.353289 -12.369895 2.451 161 19 46
-5.428651 -12.517803 2.721 161 19 46
-5.313338 -12.291488 2.434 161 19 46
-5.532598 -12.719607 2.66 161 19 46
-5.408676 -12.478599 2.604 161 19 46
-5.448173 -12.556116 2.835 161 19 46
-5.250233 -12.167638 2.354 161 19 46
-5.247055 -12.161401 2.478 161 19 46
-5.322871 -12.310199 2.695 161 19 46
-5.365546 -12.393953 2.695 161 19 46
-5.385976 -12.434049 2.787 161 19 46
-5.336945 -12.33782 2.674 161 19 46
-5.311068 -12.287032 2.552 161 19 46
-5.294724 -12.254956 2.598 161 19 46
-5.312883 -12.290596 2.534 161 19 46
-5.364638 -12.392171 2.807 161 19 46
-5.340577 -12.344948 2.784 161 19 46
-5.346933 -12.357421 2.688 161 19 46
-5.317423 -12.299506 2.504 161 19 46
-5.316515 -12.297725 2.62 161 19 46
-5.343755 -12.351185 2.596 161 19 46
-5.357375 -12.377915 2.869 161 19 46
-5.323325 -12.311089 2.814 161 19 46
-5.398688 -12.458997 2.485 161 19 46
-5.228912 -12.127996 2.476 161 19 46
-5.439093 -12.538296 2.639 161 19 46
-5.321509 -12.307526 2.62 161 19 46
-5.391424 -12.44474 2.668 161 19 46
-5.379166 -12.420683 2.65 161 19 46
-5.370087 -12.402864 2.642 161 19 46
-5.263415 -12.195712 2.612 161 19 46
-5.314246 -12.293269 2.395 161 19 46
-5.331951 -12.328018 2.509 161 19 46
-5.335129 -12.334255 2.798 161 19 46
-5.347841 -12.359203 2.69 161 19 46
-5.424111 -12.508893 2.886 161 19 46
-5.331951 -12.328018 2.732 161 19 46
-5.311975 -12.288815 2.784 161 19 46
-5.336491 -12.336928 2.643 161 19 46
-5.421841 -12.504437 2.662 161 19 46
-5.451351 -12.562353 2.76 161 19 46
-5.35465 -12.372569 2.525 161 19 46
-5.374172 -12.410882 2.622 161 19 46
-5.392332 -12.446523 2.611 161 19 46
-5.335583 -12.335147 2.469 161 19 46
-5.462246 -12.583737 2.778 161 19 46
-5.309251 -12.283467 2.551 161 19 46
-5.274294 -12.214861 2.637 161 19 46
-5.255227 -12.177439 2.42 161 19 46
-5.406859 -12.475034 2.553 161 19 46
-5.404136 -12.469688 2.873 161 19 46
-5.385068 -12.432266 2.522 161 19 46
-5.250687 -12.168529 2.408 161 19 46
-5.257497 -12.181893 2.555 161 19 46
-5.351927 -12.367223 2.404 161 19 46
-5.500818 -12.657236 2.733 161 19 46
-5.450897 -12.561462 2.737 161 19 46
-5.450443 -12.560572 2.583 161 19 46
-5.342847 -12.349402 2.797 161 19 46
-5.37508 -12.412664 3.031 161 19 46
-5.35919 -12.381479 2.482 161 19 46
-5.375535 -12.413555 2.971 161 19 46
-5.370087 -12.402864 2.596 161 19 46
-5.397326 -12.456324 2.961 161 19 46
-5.465878 -12.590865 2.645 161 19 46
-5.419117 -12.499092 2.888 161 19 46
-5.403228 -12.467907 2.798 161 19 46
-5.349657 -12.362768 2.63 161 19 46
-5.329681 -12.323563 2.769 161 19 46
-5.291546 -12.248719 2.542 161 19 46
-5.353289 -12.369895 2.605 161 19 46
-5.381436 -12.425138 2.575 161 19 46
-5.343755 -12.351185 2.916 161 19 46
-5.310614 -12.286141 2.618 161 19 46
-5.369632 -12.401972 2.956 161 19 46
-5.234343 -12.136452 2.354 161 19 46
-5.359644 -12.382369 2.702 161 19 46
-5.232544 -12.135124 2.458 161 19 46
-5.353289 -12.369895 2.874 161 19 46
-5.344209 -12.352076 2.477 161 19 46
-5.412762 -12.486618 2.882 161 19 46
-5.391424 -12.44474 2.582 161 19 46
-5.388246 -12.438503 3.021 161 19 46
-5.365546 -12.393953 2.565 161 19 46
-5.457253 -12.573936 2.575 161 19 46
-5.301988 -12.269212 2.358 161 19 46
-5.231183 -12.132451 2.465 161 19 46
-5.388246 -12.438503 2.953 161 19 46
-5.525334 -12.705352 2.653 161 19 46
-5.316969 -12.298615 2.739 161 19 46
-5.196679 -12.064734 2.345 161 19 46
-5.316969 -12.298615 2.438 161 19 46
-5.451805 -12.563244 2.669 161 19 46
-5.408222 -12.477708 2.792 161 19 46
-5.324233 -12.312871 2.451 161 19 46
-5.336945 -12.33782 2.777 161 19 46
-5.519432 -12.693769 2.718 161 19 46
-5.353289 -12.369895 2.956 161 19 46
-5.322871 -12.310199 2.663 161 19 46
-5.302442 -12.270103 2.381 161 19 46
-5.486745 -12.629616 2.645 161 19 46
-5.451805 -12.563244 2.791 161 19 46
-5.438185 -12.536514 2.816 161 19 46
-5.499002 -12.653673 2.743 161 19 46
-5.224809 -12.117741 2.348 161 19 46
-5.464046 -12.585066 2.593 161 19 46
-5.486291 -12.628725 2.629 161 19 46
-5.231165 -12.130215 2.374 161 19 46
-5.293816 -12.253174 2.436 161 19 46
-5.265668 -12.197931 2.373 161 19 46
-5.337853 -12.339602 2.627 161 19 46
-5.243423 -12.154272 2.379 161 19 46
-5.346479 -12.356531 2.735 161 19 46
-5.380074 -12.422464 2.986 161 19 46
-5.445903 -12.551661 2.718 161 19 46
-5.437731 -12.535623 2.848 161 19 46
-5.217562 -12.105721 2.39 161 19 46
-5.387338 -12.436722 2.634 161 19 46
-5.46497 -12.589084 2.67 161 19 46
-5.521248 -12.697331 2.657 161 19 46
-5.39097 -12.44385 2.513 161 19 46
-5.314246 -12.293269 2.752 161 19 46
-5.506721 -12.66882 2.685 161 19 46
-5.241607 -12.150708 2.416 161 19 46
-5.252957 -12.172983 2.365 161 19 46
-5.421841 -12.504437 2.745 161 19 46
-5.282466 -12.230898 2.363 161 19 46
-5.359644 -12.382369 2.79 161 19 46
-5.307436 -12.279904 2.687 161 19 46
-5.367362 -12.397517 2.634 161 19 46
-5.448627 -12.557007 2.713 161 19 46
-5.414577 -12.490182 2.787 161 19 46
-5.313338 -12.291488 2.671 161 19 46
-5.346479 -12.356531 2.797 161 19 46
-5.419117 -12.499092 2.717 161 19 46
-5.37281 -12.408209 2.814 161 19 46
-5.350565 -12.36455 2.588 161 19 46
-5.300172 -12.265648 2.713 161 19 46
-5.454529 -12.56859 2.676 161 19 46
-5.515347 -12.685749 2.66 161 19 46
-5.351473 -12.366332 2.658 161 19 46
-5.349203 -12.361876 2.496 161 19 46
-5.364184 -12.39128 2.47 161 19 46
-5.239337 -12.146254 2.422 161 19 46
-5.490377 -12.636744 2.638 161 19 46
-5.480406 -12.619378 2.781 161 19 46
-5.385068 -12.432266 2.903 161 19 46
-5.279288 -12.224661 2.612 161 19 46
-5.494009 -12.643872 2.761 161 19 46
-5.303349 -12.271885 2.497 161 19 46
-5.380528 -12.423356 2.985 161 19 46
-5.483567 -12.623379 2.656 161 19 46
-5.303349 -12.271885 2.462 161 19 46
-5.38189 -12.426029 2.46 161 19 46
-5.447265 -12.554335 2.89 161 19 46
-5.324687 -12.313763 2.576 161 19 46
-5.341939 -12.347621 2.457 161 19 46
-5.36827 -12.399299 2.652 161 19 46
-5.299264 -12.263866 2.567 161 19 46
-5.362822 -12.388606 2.991 161 19 46
-5.512168 -12.679512 2.662 161 19 46
-5.503088 -12.661692 2.688 161 19 46
-5.219378 -12.109285 2.382 161 19 46
-5.431829 -12.52404 2.886 161 19 46
-5.385976 -12.434049 2.785 161 19 46
-5.440001 -12.540077 2.846 161 19 46
-5.424111 -12.508893 2.692 161 19 46
-5.444995 -12.549879 2.575 161 19 46
-5.227551 -12.125323 2.469 161 19 46
-5.52261 -12.700006 2.697 161 19 46
-5.366909 -12.396626 2.695 161 19 46
-5.39778 -12.457214 2.713 161 19 46
-5.38643 -12.434938 2.523 161 19 46
-5.343755 -12.351185 2.564 161 19 46
-5.255681 -12.178329 2.511 161 19 46
-5.361461 -12.385934 2.531 161 19 46
-5.32832 -12.32089 2.867 161 19 46
-5.291092 -12.247828 2.44 161 19 46
-5.434099 -12.528495 2.522 161 19 46
-5.469511 -12.597994 2.748 161 19 46
-5.47632 -12.611358 2.729 161 19 46
-5.536684 -12.727627 2.669 161 19 46
-5.336945 -12.33782 2.458 161 19 46
-5.432283 -12.524931 2.711 161 19 46
-5.331043 -12.326237 2.751 161 19 46
-5.456345 -12.572154 2.804 161 19 46
-5.532144 -12.718717 2.685 161 19 46
-5.417755 -12.496419 2.785 161 19 46
-5.429559 -12.519585 2.545 161 19 46
-5.209845 -12.090573 2.322 161 19 46
-5.415485 -12.491963 2.872 161 19 46
-5.280196 -12.226444 2.428 161 19 46
-5.488578 -12.635416 2.778 161 19 46
-5.298356 -12.262084 2.74 161 19 46
-5.452259 -12.564136 2.821 161 19 46
-5.311068 -12.287032 2.789 161 19 46
-5.470872 -12.600667 2.671 161 19 46
-5.307436 -12.279904 2.345 161 19 46
-5.442725 -12.545424 2.756 161 19 46
-5.398233 -12.458105 2.537 161 19 46
-5.292 -12.24961 2.63 161 19 46
-5.339215 -12.342274 2.793 161 19 46
-5.449534 -12.558788 2.683 161 19 46
-5.481751 -12.619815 2.613 161 19 46
-5.410038 -12.481271 2.549 161 19 46
-5.439093 -12.538296 2.609 161 19 46
-5.407313 -12.475925 2.678 161 19 46
-5.321509 -12.307526 2.629 161 19 46
-5.449534 -12.558788 2.837 161 19 46
-5.405044 -12.471471 2.814 161 19 46
-5.509444 -12.674166 2.712 161 19 46
-5.37054 -12.403754 2.612 161 19 46
-5.366 -12.394843 2.938 161 19 46
-5.47178 -12.602448 2.761 161 19 46
-5.460885 -12.581064 2.669 161 19 46
-5.303349 -12.271885 2.458 161 19 46
-5.28292 -12.23179 2.674 161 19 46
-5.335129 -12.334255 2.559 161 19 46
-5.398688 -12.458997 2.958 161 19 46
-5.456345 -12.572154 2.777 161 19 46
-5.322417 -12.309307 2.536 161 19 46
-5.299717 -12.264756 2.688 161 19 46
-5.28973 -12.245155 2.549 161 19 46
-5.429105 -12.518694 2.863 161 19 46
-5.348295 -12.360095 2.497 161 19 46
-5.501727 -12.659019 2.648 161 19 46
-5.380528 -12.423356 2.669 161 19 46
-5.444995 -12.549879 2.763 161 19 46
-5.394148 -12.450087 2.605 161 19 46
-5.361006 -12.385043 2.482 161 19 46
-5.316061 -12.296833 2.686 161 19 46
-5.286098 -12.238027 2.38 161 19 46
-5.394148 -12.450087 2.674 161 19 46
-5.342393 -12.348512 2.504 161 19 46
-5.280196 -12.226444 2.349 161 19 46
-5.333313 -12.330691 2.401 161 19 46
-5.366 -12.394843 2.778 161 19 46
-5.352835 -12.369005 2.544 161 19 46
-5.378712 -12.419792 2.928 161 19 46
-5.231165 -12.130215 2.39 161 19 46
-5.336945 -12.33782 2.891 161 19 46
-5.37054 -12.403754 2.937 161 19 46
-5.247509 -12.162292 2.337 161 19 46
-5.355558 -12.374351 2.806 161 19 46
-5.297902 -12.261193 2.36 161 19 46
-5.50899 -12.673275 2.682 161 19 46
-5.248871 -12.164965 2.456 161 19 46
-5.272024 -12.210405 2.334 161 19 46
-5.342847 -12.349402 2.705 161 19 46
-5.311975 -12.288815 2.633 161 19 46
-5.440455 -12.540969 2.763 161 19 46
-5.421387 -12.503547 2.77 161 19 46
-5.288822 -12.243373 2.605 161 19 46
-5.355105 -12.37346 2.499 161 19 46
-5.224372 -12.119086 2.422 161 19 46
-5.28065 -12.227335 2.672 161 19 46
-5.365092 -12.393062 2.723 161 19 46
-5.309706 -12.284359 2.412 161 19 46
-5.47632 -12.611358 2.679 161 19 46
-5.464062 -12.587301 2.601 161 19 46
-5.321963 -12.308416 2.391 161 19 46
-5.388246 -12.438503 2.618 161 19 46
-5.233906 -12.137797 2.484 161 19 46
-5.36827 -12.399299 3.023 161 19 46
-5.37281 -12.408209 3.017 161 19 46
-5.321055 -12.306634 2.549 161 19 46
-5.263399 -12.193476 2.501 161 19 46
-5.325595 -12.315544 2.43 161 19 46
-5.308343 -12.281686 2.503 161 19 46
-5.463608 -12.586411 2.68 161 19 46
-5.356466 -12.376132 2.608 161 19 46
-5.41367 -12.4884 2.858 161 19 46
-5.227096 -12.124432 2.425 161 19 46
-5.283828 -12.233572 2.521 161 19 46
-5.465425 -12.589974 2.646 161 19 46
-5.342393 -12.348512 2.695 161 19 46
-5.397326 -12.456324 2.681 161 19 46
-5.356466 -12.376132 2.947 161 19 46
-5.441363 -12.542751 2.804 161 19 46
-5.325141 -12.314653 2.757 161 19 46
-5.48086 -12.620269 2.774 161 19 46
-5.428651 -12.517803 2.928 161 19 46
-5.28065 -12.227335 2.41 161 19 46
-5.296086 -12.257629 2.414 161 19 46
-5.453621 -12.566809 2.868 161 19 46
-5.450897 -12.561462 2.717 161 19 46
-5.274748 -12.215752 2.435 161 19 46
-5.277472 -12.221098 2.57 161 19 46
-5.502181 -12.65991 2.623 161 19 46
-5.311975 -12.288815 2.364 161 19 46
-5.355558 -12.374351 2.522 161 19 46
-5.376896 -12.416227 3.005 161 19 46
-5.243894 -12.157399 2.519 161 19 46
-5.334675 -12.333364 2.805 161 19 46
-5.324687 -12.313763 2.756 161 19 46
-5.453166 -12.565917 2.662 161 19 46
-5.48086 -12.620269 2.746 161 19 46
-5.255681 -12.178329 2.448 161 19 46
-5.260674 -12.18813 2.491 161 19 46
-5.331497 -12.327127 2.885 161 19 46
-5.303349 -12.271885 2.778 161 19 46
-5.357375 -12.377915 2.492 161 19 46
-5.275656 -12.217534 2.32 161 19 46
-5.385976 -12.434049 3.037 161 19 46
-5.364638 -12.392171 2.569 161 19 46
-5.283374 -12.232681 2.637 161 19 46
-5.287914 -12.24159 2.52 161 19 46
-5.252974 -12.17522 2.568 161 19 46
-5.411854 -12.484836 2.587 161 19 46
-5.314246 -12.293269 2.675 161 19 46
-5.449081 -12.557899 2.558 161 19 46
-5.342393 -12.348512 2.552 161 19 46
-5.381436 -12.425138 2.851 161 19 46
-5.28065 -12.227335 2.639 161 19 46
-5.441363 -12.542751 2.697 161 19 46
-5.286098 -12.238027 2.66 161 19 46
-5.296994 -12.259411 2.548 161 19 46
-5.374626 -12.411773 2.522 161 19 46
-5.332405 -12.32891 2.581 161 19 46
-5.366455 -12.395735 2.424 161 19 46
-5.384614 -12.431376 2.62 161 19 46
-5.373264 -12.409101 3.019 161 19 46
-5.49991 -12.655455 2.716 161 19 46
-5.246618 -12.162745 2.508 161 19 46
-5.381436 -12.425138 2.636 161 19 46
-5.339215 -12.342274 2.486 161 19 46
-5.321509 -12.307526 2.695 161 19 46
-5.232527 -12.132888 2.393 161 19 46
-5.295178 -12.255847 2.362 161 19 46
-5.280196 -12.226444 2.468 161 19 46
-5.30789 -12.280795 2.392 161 19 46
-5.309706 -12.284359 2.553 161 19 46
-5.306528 -12.278122 2.748 161 19 46
-5.314246 -12.293269 2.621 161 19 46
-5.509899 -12.675057 2.721 161 19 46
-5.358737 -12.380588 2.566 161 19 46
-5.307436 -12.279904 2.364 161 19 46
-5.270663 -12.207733 2.556 161 19 46
-5.289276 -12.244264 2.351 161 19 46
-5.444995 -12.549879 2.527 161 19 46
-5.412307 -12.485726 2.86 161 19 46
-5.449989 -12.55968 2.712 161 19 46
-5.430013 -12.520476 2.701 161 19 46
-5.300172 -12.265648 2.664 161 19 46
-5.341031 -12.345839 2.462 161 19 46
-5.351927 -12.367223 2.859 161 19 46
-5.314246 -12.293269 2.745 161 19 46
-5.36827 -12.399299 2.561 161 19 46
-5.35465 -12.372569 2.955 161 19 46
-5.336945 -12.33782 2.416 161 19 46
-5.272932 -12.212187 2.43 161 19 46
-5.352381 -12.368114 2.636 161 19 46
-5.23663 -12.143143 2.466 161 19 46
-5.366 -12.394843 2.778 161 19 46
-5.399142 -12.459888 2.658 161 19 46
-5.31016 -12.285251 2.545 161 19 46
-5.370995 -12.404645 2.813 161 19 46
-5.282466 -12.230898 2.558 161 19 46
-5.284736 -12.235353 2.697 161 19 46
-5.287914 -12.24159 2.674 161 19 46
-5.308798 -12.282578 2.465 161 19 46
-5.263853 -12.194367 2.317 161 19 46
-5.358283 -12.379697 2.583 161 19 46
-5.198949 -12.06919 2.35 161 19 46
-5.385068 -12.432266 2.902 161 19 46
-5.465878 -12.590865 2.738 161 19 46
-5.328773 -12.321781 2.531 161 19 46
-5.350111 -12.363658 2.779 161 19 46
-5.344663 -12.352966 2.797 161 19 46
-5.365546 -12.393953 2.647 161 19 46
-5.266576 -12.199713 2.357 161 19 46
-5.249779 -12.166746 2.37 161 19 46
-5.305166 -12.275449 2.776 161 19 46
-5.376442 -12.415338 2.835 161 19 46
-5.438639 -12.537405 2.754 161 19 46
-5.360553 -12.384152 2.552 161 19 46
-5.283828 -12.233572 2.491 161 19 46
-5.321509 -12.307526 2.404 161 19 46
-5.525788 -12.706243 2.666 161 19 46
-5.365546 -12.393953 2.715 161 19 46
-5.232527 -12.132888 2.314 161 19 46
-5.502181 -12.65991 2.703 161 19 46
-5.319239 -12.30307 2.566 161 19 46
-5.30108 -12.26743 2.614 161 19 46
-5.398688 -12.458997 2.545 161 19 46
-5.482659 -12.621596 2.667 161 19 46
-5.348295 -12.360095 2.468 161 19 46
-5.299717 -12.264756 2.577 161 19 46
-5.38416 -12.430485 2.783 161 19 46
-5.308798 -12.282578 2.674 161 19 46
-5.290638 -12.246937 2.421 161 19 46
-5.293362 -12.252282 2.404 161 19 46
-5.313791 -12.292378 2.622 161 19 46
-5.341031 -12.345839 2.815 161 19 46
-5.278834 -12.223771 2.359 161 19 46
-5.292 -12.24961 2.324 161 19 46
-5.301534 -12.268321 2.335 161 19 46
-5.387338 -12.436722 2.89 161 19 46
-5.326957 -12.318217 2.771 161 19 46
-5.434099 -12.528495 2.635 161 19 46
-5.383252 -12.428701 2.797 161 19 46
-5.254319 -12.175656 2.427 161 19 46
-5.314699 -12.29416 2.375 161 19 46
-5.389154 -12.440286 2.958 161 19 46
-5.301534 -12.268321 2.545 161 19 46
-5.423203 -12.507111 2.588 161 19 46
-5.242532 -12.154726 2.507 161 19 46
-5.305166 -12.275449 2.624 161 19 46
-5.353743 -12.370787 2.746 161 19 46
-5.248417 -12.164073 2.483 161 19 46
-5.343301 -12.350294 2.825 161 19 46
-5.325141 -12.314653 2.614 161 19 46
-5.389608 -12.441175 3.001 161 19 46
-5.438185 -12.536514 2.694 161 19 46
-5.37962 -12.421575 2.587 161 19 46
-5.504905 -12.665257 2.74 161 19 46
-5.366455 -12.395735 2.441 161 19 46
-5.377804 -12.41801 2.906 161 19 46
-5.2693 -12.20506 2.469 161 19 46
-5.30562 -12.27634 2.374 161 19 46
-5.387792 -12.437613 2.904 161 19 46
-5.472688 -12.604231 2.667 161 19 46
-5.322871 -12.310199 2.682 161 19 46
-5.249325 -12.165854 2.459 161 19 46
-5.408222 -12.477708 2.532 161 19 46
-5.27611 -12.218424 2.529 161 19 46
-5.294724 -12.254956 2.374 161 19 46
-5.216654 -12.103939 2.317 161 19 46
-5.29427 -12.254065 2.536 161 19 46
-5.267031 -12.200604 2.401 161 19 46
-5.38416 -12.430485 2.489 161 19 46
-5.361006 -12.385043 2.642 161 19 46
-5.301534 -12.268321 2.54 161 19 46
-5.380074 -12.422464 2.588 161 19 46
-5.335583 -12.335147 2.779 161 19 46
-5.406405 -12.474144 2.62 161 19 46
-5.306528 -12.278122 2.407 161 19 46
-5.344663 -12.352966 2.445 161 19 46
-5.357375 -12.377915 2.895 161 19 46
-5.40913 -12.479489 2.862 161 19 46
-5.389154 -12.440286 2.943 161 19 46
-5.307436 -12.279904 2.554 161 19 46
-5.304712 -12.274558 2.477 161 19 46
-5.353289 -12.369895 2.764 161 19 46
-5.315608 -12.295942 2.616 161 19 46
-5.396418 -12.454541 2.888 161 19 46
-5.341939 -12.347621 2.863 161 19 46
-5.279288 -12.224661 2.604 161 19 46
-5.291092 -12.247828 2.59 161 19 46
-5.486291 -12.628725 2.584 161 19 46
-5.528512 -12.711589 2.673 161 19 46
-5.497187 -12.650109 2.732 161 19 46
-5.316515 -12.297725 2.787 161 19 46
-5.292 -12.24961 2.718 161 19 46
-5.294724 -12.254956 2.466 161 19 46
-5.237521 -12.142689 2.394 161 19 46
-5.385068 -12.432266 2.595 161 19 46
-5.332405 -12.32891 2.397 161 19 46
-5.382344 -12.42692 2.658 161 19 46
-5.346933 -12.357421 2.763 161 19 46
-5.286552 -12.238918 2.354 161 19 46
-5.356921 -12.377024 2.551 161 19 46
-5.446811 -12.553443 2.626 161 19 46
-5.408676 -12.478599 2.491 161 19 46
-5.375988 -12.414446 2.742 161 19 46
-5.284282 -12.234463 2.491 161 19 46
-5.314699 -12.29416 2.398 161 19 46
-5.334675 -12.333364 2.711 161 19 46
-5.348295 -12.360095 2.964 161 19 46
-5.302442 -12.270103 2.569 161 19 46
-5.355105 -12.37346 2.535 161 19 46
-5.430467 -12.521367 2.647 161 19 46
-5.235268 -12.140471 2.493 161 19 46
-5.38643 -12.434938 2.555 161 19 46
-5.318331 -12.301289 2.551 161 19 46
-5.422295 -12.505329 2.756 161 19 46
-5.315154 -12.295052 2.543 161 19 46
-5.330589 -12.325346 2.701 161 19 46
-5.399596 -12.460778 2.981 161 19 46
-5.45816 -12.575718 2.733 161 19 46
-5.474051 -12.606904 2.686 161 19 46
-5.343755 -12.351185 2.664 161 19 46
-5.36373 -12.390389 3.022 161 19 46
-5.37735 -12.417119 2.457 161 19 46
-5.440909 -12.541861 2.595 161 19 46
-5.232981 -12.13378 2.366 161 19 46
-5.391878 -12.445631 2.819 161 19 46
-5.465425 -12.589974 2.64 161 19 46
-5.274294 -12.214861 2.326 161 19 46
-5.333313 -12.330691 2.547 161 19 46
-5.340123 -12.344057 2.631 161 19 46
-5.417755 -12.496419 2.666 161 19 46
-5.417302 -12.495528 2.904 161 19 46
-5.317423 -12.299506 2.653 161 19 46
-5.245693 -12.158728 2.352 161 19 46
-5.29654 -12.258519 2.58 161 19 46
-5.321509 -12.307526 2.593 161 19 46
-5.289276 -12.244264 2.665 161 19 46
-5.311522 -12.287923 2.352 161 19 46
-5.459069 -12.5775 2.745 161 19 46
-5.30108 -12.26743 2.698 161 19 46
-5.283828 -12.233572 2.459 161 19 46
-5.270663 -12.207733 2.579 161 19 46
-5.371448 -12.405536 2.458 161 19 46
-5.403228 -12.467907 2.739 161 19 46
-5.353289 -12.369895 2.738 161 19 46
-5.333313 -12.330691 2.582 161 19 46
-5.428651 -12.517803 2.526 161 19 46
-5.459977 -12.579283 2.714 161 19 46
-5.444087 -12.548098 2.724 161 19 46
-5.273386 -12.213078 2.34 161 19 46
-5.240699 -12.148927 2.436 161 19 46
-5.38643 -12.434938 2.755 161 19 46
-5.312883 -12.290596 2.432 161 19 46
-5.388246 -12.438503 2.737 161 19 46
-5.382344 -12.42692 2.743 161 19 46
-5.346933 -12.357421 2.588 161 19 46
-5.448173 -12.556116 2.837 161 19 46
-5.385068 -12.432266 2.524 161 19 46
-5.2693 -12.20506 2.582 161 19 46
-5.320147 -12.304852 2.674 161 19 46
-5.258859 -12.184566 2.456 161 19 46
-5.466786 -12.592647 2.767 161 19 46
-5.230274 -12.130669 2.441 161 19 46
-5.459069 -12.5775 2.595 161 19 46
-5.307436 -12.279904 2.596 161 19 46
-5.459977 -12.579283 2.688 161 19 46
-5.399142 -12.459888 2.81 161 19 46
-5.375535 -12.413555 2.732 161 19 46
-5.416393 -12.493745 2.505 161 19 46
-5.39097 -12.44385 2.634 161 19 46
-5.270663 -12.207733 2.549 161 19 46
-5.366455 -12.395735 2.705 161 19 46
-5.476774 -12.612249 2.79 161 19 46
-5.270208 -12.206841 2.334 161 19 46
-5.377804 -12.41801 2.904 161 19 46
-5.268847 -12.204168 2.475 161 19 46
-5.322417 -12.309307 2.633 161 19 46
-5.282012 -12.230008 2.677 161 19 46
-5.283374 -12.232681 2.507 161 19 46
-5.414577 -12.490182 2.913 161 19 46
-5.318786 -12.302179 2.726 161 19 46
-5.357375 -12.377915 2.864 161 19 46
-5.443179 -12.546314 2.84 161 19 46
-5.285644 -12.237136 2.547 161 19 46
-5.347387 -12.358313 2.759 161 19 46
-5.305166 -12.275449 2.545 161 19 46
-5.332405 -12.32891 2.709 161 19 46
-5.467677 -12.592193 2.562 161 19 46
-5.395964 -12.45365 3.009 161 19 46
-5.273386 -12.213078 2.427 161 19 46
-5.283374 -12.232681 2.405 161 19 46
-5.296994 -12.259411 2.406 161 19 46
-5.390516 -12.442959 2.973 161 19 46
-5.333767 -12.331583 2.586 161 19 46
-5.366 -12.394843 2.988 161 19 46
-5.329227 -12.322673 2.569 161 19 46
-5.316515 -12.297725 2.701 161 19 46
-5.256589 -12.180112 2.484 161 19 46
-5.322417 -12.309307 2.629 161 19 46
-5.405951 -12.473252 2.74 161 19 46
-5.443633 -12.547206 2.668 161 19 46
-5.307436 -12.279904 2.595 161 19 46
-5.498549 -12.652782 2.66 161 19 46
-5.211661 -12.094138 2.322 161 19 46
-5.355558 -12.374351 2.77 161 19 46
-5.38643 -12.434938 2.841 161 19 46
-5.353743 -12.370787 2.886 161 19 46
-5.370087 -12.402864 2.733 161 19 46
-5.316061 -12.296833 2.551 161 19 46
-5.355105 -12.37346 2.635 161 19 46
-5.30789 -12.280795 2.749 161 19 46
-5.408676 -12.478599 2.726 161 19 46
-5.337853 -12.339602 2.879 161 19 46
-5.2389 -12.147597 2.499 161 19 46
-5.357375 -12.377915 2.947 161 19 46
-5.497187 -12.650109 2.693 161 19 46
-5.367816 -12.398408 2.676 161 19 46
-5.409584 -12.480381 2.92 161 19 46
-5.246147 -12.159617 2.382 161 19 46
-5.376442 -12.415338 2.988 161 19 46
-5.490377 -12.636744 2.683 161 19 46
-5.341031 -12.345839 2.819 161 19 46
-5.236159 -12.140017 2.324 161 19 46
-5.390516 -12.442959 2.945 161 19 46
-5.361914 -12.386825 2.551 161 19 46
-5.37735 -12.417119 2.873 161 19 46
-5.438185 -12.536514 2.55 161 19 46
-5.344209 -12.352076 2.602 161 19 46
-5.349657 -12.362768 2.602 161 19 46
-5.375535 -12.413555 2.906 161 19 46
-5.359644 -12.382369 2.459 161 19 46
-5.344663 -12.352966 2.9 161 19 46
-5.22982 -12.129778 2.466 161 19 46
-5.387792 -12.437613 2.582 161 19 46
-5.38189 -12.426029 2.731 161 19 46
-5.386884 -12.43583 2.84 161 19 46
-5.439093 -12.538296 2.738 161 19 46
-5.420933 -12.502656 2.673 161 19 46
-5.428651 -12.517803 2.92 161 19 46
-5.36827 -12.399299 2.986 161 19 46
-5.239354 -12.148489 2.466 161 19 46
-5.39324 -12.448304 2.454 161 19 46
-5.318331 -12.301289 2.519 161 19 46
-5.285644 -12.237136 2.666 161 19 46
-5.459522 -12.578391 2.585 161 19 46
-5.362822 -12.388606 2.925 161 19 46
-5.271116 -12.208624 2.324 161 19 46
-5.293362 -12.252282 2.593 161 19 46
-5.327412 -12.319109 2.761 161 19 46
-5.381436 -12.425138 2.715 161 19 46
-5.37962 -12.421575 2.519 161 19 46
-5.338307 -12.340492 2.8 161 19 46
-5.300172 -12.265648 2.483 161 19 46
-5.45816 -12.575718 2.67 161 19 46
-5.342847 -12.349402 2.84 161 19 46
-5.468602 -12.596211 2.669 161 19 46
-5.265668 -12.197931 2.544 161 19 46
-5.36827 -12.399299 3.02 161 19 46
-5.314699 -12.29416 2.616 161 19 46
-5.302442 -12.270103 2.766 161 19 46
-5.507174 -12.66971 2.696 161 19 46
-5.230728 -12.13156 2.481 161 19 46
-5.278834 -12.223771 2.605 161 19 46
-5.404136 -12.469688 2.831 161 19 46
-5.423657 -12.508002 2.512 161 19 46
-5.454529 -12.56859 2.678 161 19 46
-5.450443 -12.560572 2.687 161 19 46
-5.210753 -12.092356 2.344 161 19 46
-5.444995 -12.549879 2.61 161 19 46
-5.501727 -12.659019 2.611 161 19 46
-5.295178 -12.255847 2.369 161 19 46
-5.387792 -12.437613 2.885 161 19 46
-5.507628 -12.670602 2.615 161 19 46
-5.425019 -12.510674 2.6 161 19 46
-5.320147 -12.304852 2.425 161 19 46
-5.272024 -12.210405 2.603 161 19 46
-5.502181 -12.65991 2.662 161 19 46
-5.25706 -12.183238 2.594 161 19 46
-5.346479 -12.356531 2.874 161 19 46
-5.38416 -12.430485 2.955 161 19 46
-5.252502 -12.172091 2.34 161 19 46
-5.373264 -12.409101 2.844 161 19 46
-5.243423 -12.154272 2.456 161 19 46
-5.374172 -12.410882 3.023 161 19 46
-5.430013 -12.520476 2.734 161 19 46
-5.26841 -12.205514 2.64 161 19 46
-5.309706 -12.284359 2.548 161 19 46
-5.386884 -12.43583 2.939 161 19 46
-5.213023 -12.096811 2.33 161 19 46
-5.445903 -12.551661 2.877 161 19 46
-5.396872 -12.455433 2.831 161 19 46
-5.454529 -12.56859 2.802 161 19 46
-5.351018 -12.36544 2.544 161 19 46
-5.336037 -12.336037 2.487 161 19 46
-5.41367 -12.4884 2.961 161 19 46
-5.290638 -12.246937 2.468 161 19 46
-5.287006 -12.239809 2.391 161 19 46
-5.38189 -12.426029 2.946 161 19 46
-5.352835 -12.369005 2.663 161 19 46
-5.367816 -12.398408 2.661 161 19 46
-5.295632 -12.256738 2.462 161 19 46
-5.485837 -12.627833 2.716 161 19 46
-5.343755 -12.351185 2.835 161 19 46
-5.430013 -12.520476 2.626 161 19 46
-5.462246 -12.583737 2.78 161 19 46
-5.367362 -12.397517 2.566 161 19 46
-5.473596 -12.606012 2.681 161 19 46
-5.390516 -12.442959 2.722 161 19 46
-5.494009 -12.643872 2.641 161 19 46
-5.248871 -12.164965 2.34 161 19 46
-5.411399 -12.483945 2.695 161 19 46
-5.385522 -12.433157 2.504 161 19 46
-5.306528 -12.278122 2.558 161 19 46
-5.206213 -12.083446 2.325 161 19 46
-5.347841 -12.359203 2.519 161 19 46
-5.280196 -12.226444 2.451 161 19 46
-5.281104 -12.228226 2.497 161 19 46
-5.457253 -12.573936 2.615 161 19 46
-5.232998 -12.136015 2.488 161 19 46
-5.461792 -12.582847 2.846 161 19 46
-5.299717 -12.264756 2.417 161 19 46
-5.356466 -12.376132 2.473 161 19 46
-5.322417 -12.309307 2.84 161 19 46
-5.459069 -12.5775 2.713 161 19 46
-5.488561 -12.63318 2.632 161 19 46
-5.361914 -12.386825 2.544 161 19 46
-5.415031 -12.491073 2.691 161 19 46
-5.303804 -12.272777 2.333 161 19 46
-5.385976 -12.434049 2.959 161 19 46
-5.389154 -12.440286 2.732 161 19 46
-5.496279 -12.648327 2.626 161 19 46
-5.471326 -12.601558 2.758 161 19 46
-5.436369 -12.53295 2.778 161 19 46
-5.317423 -12.299506 2.612 161 19 46
-5.430013 -12.520476 2.584 161 19 46
-5.47859 -12.615813 2.728 161 19 46
-5.270208 -12.206841 2.336 161 19 46
-5.334675 -12.333364 2.813 161 19 46
-5.248417 -12.164073 2.465 161 19 46
-5.279288 -12.224661 2.609 161 19 46
-5.2693 -12.20506 2.55 161 19 46
-5.383252 -12.428701 3.02 161 19 46
-5.357375 -12.377915 2.562 161 19 46
-5.290638 -12.246937 2.705 161 19 46
-5.349203 -12.361876 2.643 161 19 46
-5.349203 -12.361876 2.618 161 19 46
-5.38643 -12.434938 2.817 161 19 46
-5.341485 -12.346729 2.789 161 19 46
-5.391424 -12.44474 2.796 161 19 46
-5.302896 -12.270993 2.506 161 19 46
-5.318786 -12.302179 2.574 161 19 46
-5.288822 -12.243373 2.631 161 19 46
-5.409584 -12.480381 2.957 161 19 46
-5.300172 -12.265648 2.411 161 19 46
-5.466332 -12.591757 2.614 161 19 46
-5.330135 -12.324454 2.804 161 19 46
-5.354197 -12.371678 2.538 161 19 46
-5.28519 -12.236245 2.42 161 19 46
-5.346479 -12.356531 2.788 161 19 46
-5.351018 -12.36544 2.735 161 19 46
-5.464062 -12.587301 2.635 161 19 46
-5.433191 -12.526713 2.844 161 19 46
-5.40913 -12.479489 2.754 161 19 46
-5.35919 -12.381479 2.79 161 19 46
-5.431829 -12.52404 2.863 161 19 46
-5.385522 -12.433157 2.606 161 19 46
-5.373718 -12.409991 2.781 161 19 46
-5.311068 -12.287032 2.668 161 19 46
-5.37508 -12.412664 3.015 161 19 46
-5.380982 -12.424247 2.539 161 19 46
-5.339215 -12.342274 2.877 161 19 46
-5.46043 -12.580173 2.76 161 19 46
-5.333313 -12.330691 2.522 161 19 46
-5.408222 -12.477708 2.559 161 19 46
-5.460413 -12.577937 2.566 161 19 46
-5.400958 -12.463451 2.585 161 19 46
-5.209845 -12.090573 2.361 161 19 46
-5.421841 -12.504437 2.588 161 19 46
-5.304258 -12.273667 2.386 161 19 46
-5.242078 -12.153834 2.512 161 19 46
-5.37735 -12.417119 3.01 161 19 46
-5.437731 -12.535623 2.908 161 19 46
-5.419571 -12.499982 2.591 161 19 46
-5.445448 -12.55077 2.564 161 19 46
-5.391878 -12.445631 2.498 161 19 46
-5.382344 -12.42692 2.927 161 19 46
-5.209391 -12.089683 2.387 161 19 46
-5.415031 -12.491073 2.582 161 19 46
-5.425927 -12.512457 2.581 161 19 46
-5.263853 -12.194367 2.437 161 19 46
-5.337853 -12.339602 2.547 161 19 46
-5.282012 -12.230008 2.609 161 19 46
-5.288368 -12.242482 2.317 161 19 46
-5.446356 -12.552551 2.671 161 19 46
-5.389154 -12.440286 2.954 161 19 46
-5.219378 -12.109285 2.411 161 19 46
-5.253411 -12.173875 2.504 161 19 46
-5.245256 -12.160071 2.517 161 19 46
-5.457253 -12.573936 2.571 161 19 46
-5.434553 -12.529386 2.87 161 19 46
-5.35919 -12.381479 2.489 161 19 46
-5.309706 -12.284359 2.751 161 19 46
-5.297448 -12.260303 2.675 161 19 46
-5.50445 -12.664365 2.639 161 19 46
-5.296994 -12.259411 2.491 161 19 46
-5.358283 -12.379697 2.485 161 19 46
-5.433645 -12.527604 2.785 161 19 46
-5.325595 -12.315544 2.386 161 19 46
-5.326049 -12.316436 2.65 161 19 46
-5.405044 -12.471471 2.526 161 19 46
-5.436369 -12.53295 2.778 161 19 46
-5.40232 -12.466125 2.471 161 19 46
-5.366455 -12.395735 2.693 161 19 46
-5.391424 -12.44474 2.826 161 19 46
-5.353743 -12.370787 2.444 161 19 46
-5.278834 -12.223771 2.357 161 19 46
-5.292454 -12.250501 2.391 161 19 46
-5.477665 -12.611795 2.624 161 19 46
-5.366909 -12.396626 2.882 161 19 46
-5.411399 -12.483945 2.604 161 19 46
-5.36373 -12.390389 2.991 161 19 46
-5.311068 -12.287032 2.478 161 19 46
-5.400504 -12.462561 2.95 161 19 46
-5.350111 -12.363658 2.669 161 19 46
-5.396418 -12.454541 2.552 161 19 46
-5.422749 -12.506219 2.704 161 19 46
-5.461792 -12.582847 2.628 161 19 46
-5.267031 -12.200604 2.539 161 19 46
-5.385976 -12.434049 3.038 161 19 46
-5.375988 -12.414446 2.987 161 19 46
-5.304712 -12.274558 2.526 161 19 46
-5.264307 -12.195258 2.342 161 19 46
-5.288822 -12.243373 2.436 161 19 46
-5.283374 -12.232681 2.416 161 19 46
-5.337399 -12.338711 2.56 161 19 46
-5.428197 -12.516912 2.753 161 19 46
-5.211206 -12.093246 2.406 161 19 46
-5.37508 -12.412664 2.91 161 19 46
-5.361914 -12.386825 2.948 161 19 46
-5.282012 -12.230008 2.563 161 19 46
-5.325595 -12.315544 2.67 161 19 46
-5.402773 -12.467015 2.644 161 19 46
-5.474051 -12.606904 2.774 161 19 46
-5.334675 -12.333364 2.427 161 19 46
-5.40005 -12.46167 2.628 161 19 46
-5.429559 -12.519585 2.891 161 19 46
-5.297448 -12.260303 2.491 161 19 46
-5.292 -12.24961 2.725 161 19 46
-5.267939 -12.202387 2.426 161 19 46
-5.398233 -12.458105 2.616 161 19 46
-5.469056 -12.597102 2.653 161 19 46
-5.387338 -12.436722 2.914 161 19 46
-5.275202 -12.216642 2.543 161 19 46
-5.257042 -12.181003 2.421 161 19 46
-5.370087 -12.402864 2.884 161 19 46
-5.37508 -12.412664 2.803 161 19 46
-5.368724 -12.40019 2.641 161 19 46
-5.218017 -12.106612 2.377 161 19 46
-5.337853 -12.339602 2.913 161 19 46
-5.422749 -12.506219 2.672 161 19 46
-5.371902 -12.406427 2.535 161 19 46
-5.405951 -12.473252 2.728 161 19 46
-5.461792 -12.582847 2.668 161 19 46
-5.316061 -12.296833 2.514 161 19 46
-5.284736 -12.235353 2.361 161 19 46
-5.410946 -12.483054 2.677 161 19 46
-5.342393 -12.348512 2.737 161 19 46
-5.432737 -12.525822 2.917 161 19 46
-5.399596 -12.460778 2.898 161 19 46
-5.454529 -12.56859 2.87 161 19 46
-5.376442 -12.415338 2.527 161 19 46
-5.383252 -12.428701 2.838 161 19 46
-5.26476 -12.19615 2.576 161 19 46
-5.378258 -12.418901 2.454 161 19 46
-5.421387 -12.503547 2.713 161 19 46
-5.415031 -12.491073 2.499 161 19 46
-5.37735 -12.417119 2.961 161 19 46
-5.450897 -12.561462 2.847 161 19 46
-5.243877 -12.155164 2.373 161 19 46
-5.302896 -12.270993 2.569 161 19 46
-5.273386 -12.213078 2.65 161 19 46
-5.347841 -12.359203 2.677 161 19 46
-5.379166 -12.420683 2.984 161 19 46
-5.410491 -12.482162 2.678 161 19 46
-5.326503 -12.317326 2.685 161 19 46
-5.233889 -12.135561 2.354 161 19 46
-5.335583 -12.335147 2.479 161 19 46
-5.385976 -12.434049 2.634 161 19 46
-5.399142 -12.459888 2.47 161 19 46
-5.412762 -12.486618 2.565 161 19 46
-5.388246 -12.438503 2.885 161 19 46
-5.306528 -12.278122 2.455 161 19 46
-5.448627 -12.557007 2.666 161 19 46
-5.479481 -12.615359 2.599 161 19 46
-5.316515 -12.297725 2.768 161 19 46
-5.378712 -12.419792 2.605 161 19 46
-5.414124 -12.489291 2.718 161 19 46
-5.359644 -12.382369 2.501 161 19 46
-5.404589 -12.470579 2.674 161 19 46
-5.26249 -12.191694 2.458 161 19 46
-5.292 -12.24961 2.567 161 19 46
-5.346479 -12.356531 2.562 161 19 46
-5.222085 -12.112395 2.335 161 19 46
-5.419571 -12.499982 2.881 161 19 46
-5.379166 -12.420683 2.937 161 19 46
-5.431375 -12.523149 2.596 161 19 46
-5.28519 -12.236245 2.317 161 19 46
-5.454982 -12.569481 2.727 161 19 46
-5.338761 -12.341384 2.45 161 19 46
-5.482676 -12.623833 2.736 161 19 46
-5.331951 -12.328018 2.678 161 19 46
-5.376442 -12.415338 2.909 161 19 46
-5.262945 -12.192586 2.439 161 19 46
-5.398233 -12.458105 2.743 161 19 46
-5.229366 -12.128887 2.42 161 19 46
-5.367362 -12.397517 2.819 161 19 46
-5.500818 -12.657236 2.636 161 19 46
-5.478119 -12.612687 2.574 161 19 46
-5.367816 -12.398408 2.578 161 19 46
-5.358283 -12.379697 2.928 161 19 46
-5.454982 -12.569481 2.803 161 19 46
-5.345117 -12.353858 2.856 161 19 46
-5.328773 -12.321781 2.555 161 19 46
-5.497187 -12.650109 2.607 161 19 46
-5.431375 -12.523149 2.55 161 19 46
-5.293816 -12.253174 2.634 161 19 46
-5.420025 -12.500874 2.74 161 19 46
-5.199403 -12.070081 2.329 161 19 46
-5.390516 -12.442959 3.008 161 19 46
-5.481768 -12.62205 2.791 161 19 46
-5.46724 -12.593538 2.635 161 19 46
-5.351927 -12.367223 2.524 161 19 46
-5.329681 -12.323563 2.502 161 19 46
-5.331951 -12.328018 2.587 161 19 46
-5.393694 -12.449196 2.737 161 19 46
-5.306528 -12.278122 2.673 161 19 46
-5.40913 -12.479489 2.509 161 19 46
-5.378258 -12.418901 2.996 161 19 46
-5.258405 -12.183676 2.333 161 19 46
-5.385976 -12.434049 2.501 161 19 46
-5.255681 -12.178329 2.395 161 19 46
-5.435007 -12.530277 2.756 161 19 46
-5.371448 -12.405536 2.495 161 19 46
-5.401412 -12.464342 2.62 161 19 46
-5.426381 -12.513348 2.647 161 19 46
-5.397326 -12.456324 2.913 161 19 46
-5.39097 -12.44385 2.521 161 19 46
-5.456345 -12.572154 2.764 161 19 46
-5.403228 -12.467907 2.744 161 19 46
-5.36373 -12.390389 2.949 161 19 46
-5.452713 -12.565025 2.646 161 19 46
-5.314699 -12.29416 2.597 161 19 46
-5.442271 -12.544533 2.829 161 19 46
-5.293816 -12.253174 2.687 161 19 46
-5.329227 -12.322673 2.651 161 19 46
-5.222557 -12.115522 2.375 161 19 46
-5.270663 -12.207733 2.631 161 19 46
-5.346479 -12.356531 2.73 161 19 46
-5.300172 -12.265648 2.684 161 19 46
-5.287914 -12.24159 2.386 161 19 46
-5.322417 -12.309307 2.647 161 19 46
-5.417755 -12.496419 2.796 161 19 46
-5.333767 -12.331583 2.664 161 19 46
-5.484475 -12.625161 2.703 161 19 46
-5.424565 -12.509784 2.813 161 19 46
-5.339669 -12.343165 2.814 161 19 46
-5.29654 -12.258519 2.461 161 19 46
-5.294724 -12.254956 2.408 161 19 46
-5.286552 -12.238918 2.376 161 19 46
-5.443179 -12.546314 2.83 161 19 46
-5.428651 -12.517803 2.517 161 19 46
-5.446356 -12.552551 2.723 161 19 46
-5.327412 -12.319109 2.529 161 19 46
-5.3887 -12.439394 2.757 161 19 46
-5.426381 -12.513348 2.839 161 19 46
-5.351927 -12.367223 2.877 161 19 46
-5.258405 -12.183676 2.528 161 19 46
-5.226171 -12.120414 2.321 161 19 46
-5.46724 -12.593538 2.67 161 19 46
-5.236176 -12.142252 2.454 161 19 46
-5.455873 -12.569027 2.542 161 19 46
-5.494462 -12.644762 2.702 161 19 46
-5.296994 -12.259411 2.369 161 19 46
-5.430921 -12.522258 2.684 161 19 46
-5.511261 -12.677731 2.66 161 19 46
-5.323779 -12.31198 2.664 161 19 46
-5.466332 -12.591757 2.672 161 19 46
-5.311068 -12.287032 2.779 161 19 46
-5.309706 -12.284359 2.539 161 19 46
-5.444995 -12.549879 2.857 161 19 46
-5.360098 -12.383261 2.81 161 19 46
-5.241624 -12.152945 2.513 161 19 46
-5.39778 -12.457214 2.949 161 19 46
-5.420479 -12.501765 2.886 161 19 46
-5.463154 -12.58552 2.704 161 19 46
-5.279742 -12.225553 2.444 161 19 46
-5.361006 -12.385043 2.611 161 19 46
-5.440909 -12.541861 2.529 161 19 46
-5.369179 -12.401081 2.45 161 19 46
-5.440909 -12.541861 2.724 161 19 46
-5.486291 -12.628725 2.621 161 19 46
-5.223464 -12.117304 2.361 161 19 46
-5.306074 -12.27723 2.715 161 19 46
-5.293816 -12.253174 2.488 161 19 46
-5.385976 -12.434049 2.815 161 19 46
-5.38416 -12.430485 2.834 161 19 46
-5.355558 -12.374351 2.888 161 19 46
-5.299717 -12.264756 2.444 161 19 46
-5.342393 -12.348512 2.529 161 19 46
-5.250233 -12.167638 2.324 161 19 46
-5.357375 -12.377915 2.464 161 19 46
-5.349657 -12.362768 2.908 161 19 46
-5.409584 -12.480381 2.748 161 19 46
-5.399596 -12.460778 2.56 161 19 46
-5.356013 -12.375242 2.825 161 19 46
-5.414577 -12.490182 2.566 161 19 46
-5.228004 -12.126214 2.431 161 19 46
-5.282012 -12.230008 2.543 161 19 46
-5.438639 -12.537405 2.738 161 19 46
-5.415031 -12.491073 2.754 161 19 46
-5.27838 -12.222879 2.536 161 19 46
-5.375535 -12.413555 2.639 161 19 46
-5.343301 -12.350294 2.483 161 19 46
-5.40232 -12.466125 2.85 161 19 46
-5.504905 -12.665257 2.694 161 19 46
-5.274748 -12.215752 2.381 161 19 46
-5.281104 -12.228226 2.447 161 19 46
-5.40913 -12.479489 2.887 161 19 46
-5.468602 -12.596211 2.644 161 19 46
-5.392332 -12.446523 2.824 161 19 46
