ply
format ascii 1.0
element vertex 1235
property double x
property double y
property double z
property uchar red
property uchar green
property uchar blue
element face 0
property list uchar int vertex_indices
end_header
-5.82227 -13.880644 0.688 153 153 153
-5.846765 -13.867042 0.721 153 153 153
-5.884187 -13.847974 0.673 153 153 153
-5.804013 -13.891069 0.683 153 153 153
-5.862365 -13.860214 0.673 153 153 153
-5.820034 -13.880662 0.763 153 153 153
-5.794649 -13.894718 0.709 153 153 153
-5.804887 -13.888379 0.775 153 153 153
-5.902007 -13.838895 0.638 153 153 153
-5.760337 -13.911078 0.843 153 153 153
-5.734951 -13.925136 0.809 153 153 153
-5.765245 -13.909699 0.785 153 153 153
-5.806686 -13.889708 0.676 153 153 153
-5.810233 -13.885655 0.78 153 153 153
-5.770155 -13.90832 0.704 153 153 153
-5.827179 -13.879266 0.65 153 153 153
-5.734498 -13.924245 0.878 153 153 153
-5.750989 -13.916964 0.769 153 153 153
-5.798213 -13.892901 0.757 153 153 153
-5.774156 -13.90516 0.741 153 153 153
-5.876168 -13.85206 0.667 153 153 153
-5.791539 -13.897425 0.7 153 153 153
-5.752318 -13.915165 0.847 153 153 153
-5.702421 -13.940588 0.905 153 153 153
-5.720695 -13.932399 0.846 153 153 153
-5.837417 -13.872926 0.699 153 153 153
-5.82538 -13.877937 0.731 153 153 153
-5.810233 -13.885655 0.756 153 153 153
-5.756336 -13.914239 0.757 153 153 153
-5.899334 -13.840257 0.653 153 153 153
-5.801323 -13.890195 0.806 153 153 153
-5.787067 -13.897459 0.787 153 153 153
-5.816033 -13.883822 0.727 153 153 153
-5.75679 -13.915131 0.717 153 153 153
-5.868602 -13.857037 0.654 153 153 153
-5.942102 -13.818465 0.598 153 153 153
-5.843654 -13.869748 0.667 153 153 153
-5.709549 -13.936956 0.915 153 153 153
-5.818706 -13.88246 0.687 153 153 153
-5.726041 -13.929675 0.851 153 153 153
-5.736733 -13.924227 0.832 153 153 153
-5.730496 -13.927405 0.846 153 153 153
-5.873057 -13.854767 0.633 153 153 153
-5.842763 -13.870202 0.672 153 153 153
-5.767027 -13.908792 0.746 153 153 153
-5.798213 -13.892901 0.715 153 153 153
-5.834291 -13.873398 0.761 153 153 153
-5.795103 -13.895609 0.678 153 153 153
-5.805341 -13.88927 0.731 153 153 153
-5.86682 -13.857944 0.628 153 153 153
-5.797322 -13.893355 0.706 153 153 153
-5.800432 -13.89065 0.778 153 153 153
-5.710441 -13.936502 0.899 153 153 153
-5.910917 -13.834354 0.651 153 153 153
-5.779956 -13.903327 0.689 153 153 153
-5.734498 -13.924245 0.854 153 153 153
-5.811124 -13.885201 0.763 153 153 153
-5.734951 -13.925136 0.832 153 153 153
-5.759463 -13.913769 0.706 153 153 153
-5.842309 -13.869311 0.749 153 153 153
-5.753663 -13.915602 0.785 153 153 153
-5.710003 -13.937847 0.879 153 153 153
-5.915372 -13.832085 0.653 153 153 153
-5.909135 -13.835262 0.646 153 153 153
-5.710003 -13.937847 0.869 153 153 153
-5.767919 -13.908338 0.785 153 153 153
-5.960813 -13.808931 0.589 153 153 153
-5.836963 -13.872036 0.735 153 153 153
-5.844982 -13.867949 0.747 153 153 153
-5.902898 -13.83844 0.647 153 153 153
-5.929628 -13.824821 0.632 153 153 153
-5.861474 -13.860668 0.663 153 153 153
-5.748754 -13.916981 0.861 153 153 153
-5.743861 -13.920595 0.817 153 153 153
-5.748754 -13.916981 0.842 153 153 153
-5.807577 -13.889254 0.651 153 153 153
-5.706876 -13.938318 0.923 153 153 153
-5.805341 -13.88927 0.75 153 153 153
-5.790614 -13.893407 0.931 153 153 153
-5.953634 -13.805855 0.812 153 153 153
-5.803979 -13.886598 0.918 153 153 153
-5.880589 -13.845318 0.87 153 153 153
-5.950978 -13.809452 0.898 153 153 153
-5.974127 -13.795413 0.829 153 153 153
-5.886826 -13.842139 0.867 153 153 153
-5.851639 -13.861191 0.889 153 153 153
-5.850294 -13.860753 0.874 153 153 153
-5.974581 -13.796304 0.86 153 153 153
-5.812435 -13.881166 0.889 153 153 153
-5.743845 -13.91836 0.943 153 153 153
-5.87035 -13.851657 0.912 153 153 153
-5.953634 -13.805855 0.812 153 153 153
-5.968781 -13.798137 0.79 153 153 153
-5.869005 -13.851219 0.862 153 153 153
-5.791505 -13.892953 0.898 153 153 153
-5.851639 -13.861191 0.913 153 153 153
-5.770121 -13.90385 0.93 153 153 153
-5.848075 -13.863007 0.903 153 153 153
-5.847184 -13.863461 0.904 153 153 153
-5.914447 -13.828066 0.871 153 153 153
-5.904192 -13.83217 0.848 153 153 153
-5.95007 -13.807671 0.812 153 153 153
-5.840056 -13.867092 0.931 153 153 153
-5.857422 -13.857121 0.873 153 153 153
-5.866786 -13.853473 0.915 153 153 153
-5.833819 -13.870271 0.896 153 153 153
-5.971017 -13.79812 0.902 153 153 153
-5.92023 -13.823997 0.865 153 153 153
-5.925139 -13.822618 0.898 153 153 153
-5.816453 -13.880241 0.931 153 153 153
-5.927812 -13.821256 0.889 153 153 153
-5.688165 -13.947852 0.961 153 153 153
-5.902864 -13.833968 0.917 153 153 153
-5.87346 -13.848949 0.882 153 153 153
-5.770121 -13.90385 0.933 153 153 153
-5.755865 -13.911113 0.931 153 153 153
-5.767448 -13.905211 0.927 153 153 153
-5.952306 -13.807653 0.825 153 153 153
-5.831146 -13.871633 0.903 153 153 153
-5.959888 -13.804913 0.903 153 153 153
-5.947851 -13.809924 0.842 153 153 153
-5.861441 -13.856196 0.904 153 153 153
-5.972345 -13.796321 0.808 153 153 153
-5.822236 -13.876172 0.918 153 153 153
-5.820454 -13.87708 0.905 153 153 153
-5.896626 -13.837146 0.9 153 153 153
-5.728697 -13.926077 0.952 153 153 153
-5.919793 -13.825342 0.881 153 153 153
-5.884152 -13.843502 0.884 153 153 153
-5.90019 -13.83533 0.87 153 153 153
-5.893063 -13.838962 0.862 153 153 153
-5.881479 -13.844864 0.858 153 153 153
-5.932704 -13.817641 0.86 153 153 153
-5.8258 -13.874356 0.888 153 153 153
-5.95898 -13.80313 0.808 153 153 153
-5.891281 -13.839869 0.861 153 153 153
-5.961216 -13.803114 0.872 153 153 153
-5.800415 -13.888413 0.928 153 153 153
-5.950087 -13.809906 0.893 153 153 153
-5.740281 -13.920176 0.929 153 153 153
-5.948742 -13.80947 0.851 153 153 153
-5.910429 -13.828991 0.849 153 153 153
-5.974127 -13.795413 0.819 153 153 153
-5.954979 -13.806292 0.834 153 153 153
-5.960325 -13.803568 0.866 153 153 153
-5.926921 -13.82171 0.872 153 153 153
-5.798633 -13.889321 0.932 153 153 153
-5.971909 -13.797666 0.846 153 153 153
-5.931376 -13.81944 0.897 153 153 153
-5.856986 -13.858467 0.908 153 153 153
-5.943396 -13.812194 0.842 153 153 153
-5.887716 -13.841685 0.872 153 153 153
-5.956307 -13.804493 0.816 153 153 153
-5.811107 -13.882965 0.923 153 153 153
-5.832037 -13.871179 0.894 153 153 153
-5.840056 -13.867092 0.914 153 153 153
-5.943396 -13.812194 0.852 153 153 153
-5.914447 -13.828066 0.862 153 153 153
-5.969672 -13.797683 0.833 153 153 153
-5.907756 -13.830354 0.83 153 153 153
-5.72157 -13.929709 0.952 153 153 153
-5.92603 -13.822165 0.901 153 153 153
-5.856986 -13.858467 0.887 153 153 153
-5.860549 -13.85665 0.917 153 153 153
-5.971909 -13.797666 0.883 153 153 153
-5.850294 -13.860753 0.865 153 153 153
-5.819563 -13.877534 0.917 153 153 153
-5.783486 -13.897039 0.935 153 153 153
-5.925576 -13.821274 0.861 153 153 153
-5.833819 -13.870271 0.92 153 153 153
-5.836493 -13.868909 0.908 153 153 153
-5.8993 -13.835784 0.898 153 153 153
-5.886826 -13.842139 0.851 153 153 153
-5.962998 -13.802206 0.84 153 153 153
-5.821345 -13.876626 0.89 153 153 153
-5.881479 -13.844864 0.892 153 153 153
-5.893063 -13.838962 0.869 153 153 153
-5.914447 -13.828066 0.898 153 153 153
-5.956307 -13.804493 0.808 153 153 153
-5.96478 -13.801298 0.855 153 153 153
-5.90019 -13.83533 0.914 153 153 153
-5.913993 -13.827175 0.853 153 153 153
-5.931376 -13.81944 0.909 153 153 153
-5.956324 -13.806728 0.9 153 153 153
-5.914447 -13.828066 0.87 153 153 153
-5.871242 -13.851203 0.917 153 153 153
-5.92914 -13.819458 0.815 153 153 153
-5.951415 -13.808107 0.864 153 153 153
-5.858768 -13.857558 0.893 153 153 153
-5.968781 -13.798137 0.836 153 153 153
-5.903755 -13.833514 0.867 153 153 153
-5.854312 -13.859829 0.925 153 153 153
-5.889498 -13.840777 0.853 153 153 153
-5.800852 -13.887068 0.9 153 153 153
-5.856986 -13.858467 0.889 153 153 153
-5.887716 -13.841685 0.863 153 153 153
-5.959434 -13.804022 0.853 153 153 153
-5.912211 -13.828083 0.832 153 153 153
-5.889498 -13.840777 0.86 153 153 153
-5.944287 -13.81174 0.854 153 153 153
-5.888608 -13.841231 0.871 153 153 153
-5.841838 -13.866184 0.921 153 153 153
-5.860095 -13.85576 0.874 153 153 153
-5.80798 -13.883436 0.888 153 153 153
-5.949179 -13.808125 0.817 153 153 153
-5.911774 -13.829428 0.894 153 153 153
-5.839165 -13.867546 0.896 153 153 153
-5.917557 -13.825359 0.861 153 153 153
-5.786159 -13.895678 0.905 153 153 153
-5.818672 -13.877988 0.889 153 153 153
-5.803088 -13.887052 0.921 153 153 153
-5.726915 -13.926985 0.947 153 153 153
-5.885934 -13.842593 0.853 153 153 153
-5.779031 -13.899309 0.927 153 153 153
-5.969235 -13.799028 0.901 153 153 153
-5.871678 -13.849857 0.867 153 153 153
-5.973236 -13.795867 0.836 153 153 153
-5.950961 -13.807217 0.815 153 153 153
-5.981255 -13.79178 0.792 153 153 153
-5.847184 -13.863461 0.874 153 153 153
-5.983037 -13.790873 0.812 153 153 153
-5.811544 -13.88162 0.887 153 153 153
-5.812889 -13.882057 0.923 153 153 153
-5.856986 -13.858467 0.911 153 153 153
-5.934486 -13.816733 0.814 153 153 153
-5.933595 -13.817187 0.817 153 153 153
-5.925576 -13.821274 0.827 153 153 153
-5.975018 -13.794959 0.819 153 153 153
-5.875697 -13.848933 0.918 153 153 153
-5.975472 -13.79585 0.883 153 153 153
-5.914884 -13.826721 0.84 153 153 153
-5.971017 -13.79812 0.895 153 153 153
-5.840056 -13.867092 0.881 153 153 153
-5.860549 -13.85665 0.903 153 153 153
-5.969672 -13.797683 0.791 153 153 153
-5.821799 -13.877518 0.931 153 153 153
-5.80487 -13.886144 0.928 153 153 153
-5.953197 -13.807199 0.822 153 153 153
-5.822236 -13.876172 0.897 153 153 153
-5.975909 -13.794505 0.808 153 153 153
-5.930031 -13.819004 0.822 153 153 153
-5.961216 -13.803114 0.895 153 153 153
-5.78705 -13.895224 0.916 153 153 153
-5.931813 -13.818095 0.87 153 153 153
-5.87257 -13.849403 0.858 153 153 153
-5.800415 -13.888413 0.936 153 153 153
-5.937159 -13.815372 0.848 153 153 153
-5.803979 -13.886598 0.934 153 153 153
-5.828473 -13.872994 0.913 153 153 153
-5.817781 -13.878442 0.887 153 153 153
-5.93494 -13.817624 0.891 153 153 153
-5.93494 -13.817624 0.89 153 153 153
-5.815999 -13.879351 0.884 153 153 153
-5.860986 -13.855306 0.86 153 153 153
-5.738498 -13.921083 0.945 153 153 153
-5.893953 -13.838508 0.878 153 153 153
-5.945632 -13.812177 0.906 153 153 153
-5.921121 -13.823544 0.842 153 153 153
-5.746518 -13.916997 0.947 153 153 153
-5.832037 -13.871179 0.906 153 153 153
-5.975018 -13.794959 0.813 153 153 153
-5.771012 -13.903395 0.927 153 153 153
-5.930922 -13.818549 0.835 153 153 153
-5.819126 -13.87888 0.921 153 153 153
-5.970126 -13.798574 0.879 153 153 153
-5.874352 -13.848495 0.894 153 153 153
-5.74919 -13.915635 0.937 153 153 153
-5.942505 -13.812648 0.848 153 153 153
-5.965217 -13.799953 0.8 153 153 153
-5.736716 -13.921991 0.936 153 153 153
-5.957652 -13.80493 0.856 153 153 153
-5.878807 -13.846226 0.888 153 153 153
-5.968781 -13.798137 0.795 153 153 153
-5.931376 -13.81944 0.904 153 153 153
-5.821833 -13.881989 1.352 153 153 153
-5.719368 -13.934198 1.371 153 153 153
-5.779519 -13.904672 1.539 153 153 153
-5.753679 -13.917837 1.526 153 153 153
-5.775501 -13.905597 1.316 153 153 153
-5.729168 -13.929204 1.277 153 153 153
-5.859239 -13.860686 1.236 153 153 153
-5.677927 -13.95419 1.142 153 153 153
-5.910917 -13.834354 1.289 153 153 153
-5.674363 -13.956006 1.154 153 153 153
-5.911808 -13.8339 1.275 153 153 153
-5.785302 -13.900603 1.327 153 153 153
-5.861037 -13.862014 1.461 153 153 153
-5.776829 -13.903797 1.156 153 153 153
-5.715349 -13.935122 1.131 153 153 153
-5.768356 -13.906993 1.085 153 153 153
-5.824052 -13.879736 1.349 153 153 153
-5.873949 -13.854313 1.287 153 153 153
-5.9283 -13.826619 1.399 153 153 153
-5.915826 -13.832975 1.361 153 153 153
-5.744316 -13.921487 1.413 153 153 153
-5.715349 -13.935122 1.24 153 153 153
-5.681054 -13.95372 1.278 153 153 153
-5.781738 -13.902419 1.315 153 153 153
-5.693091 -13.948709 1.411 153 153 153
-5.897115 -13.842509 1.409 153 153 153
-5.75679 -13.915131 1.407 153 153 153
-5.751444 -13.917854 1.352 153 153 153
-5.696638 -13.944656 1.195 153 153 153
-5.666815 -13.96322 1.578 153 153 153
-5.904243 -13.838877 1.391 153 153 153
-5.715786 -13.933779 1.07 153 153 153
-5.782175 -13.901073 1.186 153 153 153
-5.754117 -13.916492 1.291 153 153 153
-5.762589 -13.913298 1.463 153 153 153
-5.705548 -13.940117 1.198 153 153 153
-5.865492 -13.859744 1.452 153 153 153
-5.930973 -13.825257 1.34 153 153 153
-5.973741 -13.803466 1.363 153 153 153
-5.787521 -13.89835 1.215 153 153 153
-5.677053 -13.956881 1.421 153 153 153
-5.833416 -13.876087 1.378 153 153 153
-5.696184 -13.943767 1.069 153 153 153
-5.677053 -13.956881 1.393 153 153 153
-5.914935 -13.833429 1.342 153 153 153
-5.820942 -13.882443 1.444 153 153 153
-5.693074 -13.946473 1.191 153 153 153
-5.796431 -13.893809 1.197 153 153 153
-5.725605 -13.931021 1.31 153 153 153
-5.870384 -13.856129 1.323 153 153 153
-5.777283 -13.904689 1.45 153 153 153
-5.938992 -13.821172 1.358 153 153 153
-5.775046 -13.904706 1.222 153 153 153
-5.741642 -13.922849 1.312 153 153 153
-5.903352 -13.839331 1.4 153 153 153
-5.965268 -13.806661 1.341 153 153 153
-5.97507 -13.801667 1.351 153 153 153
-5.742534 -13.922395 1.413 153 153 153
-5.785739 -13.899258 1.287 153 153 153
-5.746534 -13.919233 1.21 153 153 153
-5.890878 -13.845687 1.399 153 153 153
-5.797338 -13.895592 1.479 153 153 153
-5.713567 -13.936031 1.21 153 153 153
-5.677036 -13.954644 1.126 153 153 153
-5.806669 -13.887471 1.18 153 153 153
-5.714475 -13.937813 1.397 153 153 153
-5.806232 -13.888816 1.234 153 153 153
-5.66547 -13.962782 1.458 153 153 153
-5.881076 -13.85068 1.312 153 153 153
-5.706002 -13.941009 1.34 153 153 153
-5.773719 -13.906505 1.397 153 153 153
-5.859255 -13.862922 1.468 153 153 153
-5.67749 -13.955536 1.3 153 153 153
-5.751444 -13.917854 1.305 153 153 153
-5.73675 -13.926463 1.538 153 153 153
-5.9225 -13.828453 1.296 153 153 153
-5.929191 -13.826165 1.38 153 153 153
-5.804904 -13.890615 1.342 153 153 153
-5.817361 -13.882024 1.16 153 153 153
-5.693074 -13.946473 1.201 153 153 153
-5.701547 -13.943278 1.246 153 153 153
-5.838308 -13.872472 1.362 153 153 153
-5.7541 -13.914257 1.085 153 153 153
-5.945666 -13.816648 1.315 153 153 153
-5.921172 -13.830251 1.299 153 153 153
-5.682399 -13.954157 1.373 153 153 153
-5.757244 -13.916021 1.455 153 153 153
-5.91048 -13.835699 1.429 153 153 153
-5.73675 -13.926463 1.5 153 153 153
-5.749661 -13.918762 1.393 153 153 153
-5.678398 -13.957317 1.518 153 153 153
-5.835198 -13.875179 1.478 153 153 153
-5.800903 -13.893776 1.507 153 153 153
-5.667706 -13.962766 1.637 153 153 153
-5.65345 -13.97003 1.526 153 153 153
-5.726495 -13.930567 1.294 153 153 153
-5.964831 -13.808005 1.357 153 153 153
-5.674834 -13.959134 1.526 153 153 153
-5.693545 -13.9496 1.615 153 153 153
-5.693965 -13.946019 1.132 153 153 153
-5.812469 -13.885638 1.332 153 153 153
-5.697092 -13.945548 1.23 153 153 153
-5.782629 -13.901965 1.341 153 153 153
-5.84589 -13.869732 1.426 153 153 153
-5.8432 -13.868857 1.214 153 153 153
-5.6806 -13.952828 1.104 153 153 153
-5.672598 -13.95915 1.401 153 153 153
-5.872621 -13.856112 1.463 153 153 153
-5.742096 -13.923739 1.435 153 153 153
-5.855237 -13.863847 1.334 153 153 153
-5.778611 -13.902889 1.241 153 153 153
-5.869493 -13.856583 1.269 153 153 153
-5.673035 -13.957806 1.218 153 153 153
-5.832525 -13.876541 1.493 153 153 153
-5.828053 -13.876575 1.171 153 153 153
-5.690401 -13.947835 1.14 153 153 153
-5.816924 -13.883368 1.202 153 153 153
-5.697966 -13.942859 1.019 153 153 153
-5.761698 -13.913752 1.484 153 153 153
-5.74788 -13.919671 1.361 153 153 153
-5.731842 -13.927842 1.312 153 153 153
-5.683727 -13.952358 1.341 153 153 153
-5.797322 -13.893355 1.283 153 153 153
-5.851236 -13.867008 1.432 153 153 153
-5.738062 -13.922429 1.08 153 153 153
-5.827179 -13.879266 1.417 153 153 153
-5.657014 -13.968213 1.592 153 153 153
-5.746989 -13.920125 1.393 153 153 153
-5.700656 -13.943732 1.258 153 153 153
-5.778611 -13.902889 1.164 153 153 153
-5.734968 -13.927371 1.467 153 153 153
-5.805341 -13.88927 1.271 153 153 153
-5.931864 -13.824803 1.375 153 153 153
-5.872166 -13.855221 1.365 153 153 153
-5.703329 -13.94237 1.331 153 153 153
-5.722023 -13.9306 1.058 153 153 153
-5.699765 -13.944186 1.335 153 153 153
-5.787521 -13.89835 1.18 153 153 153
-5.693074 -13.946473 1.1 153 153 153
-5.742079 -13.921503 1.239 153 153 153
-5.66236 -13.965489 1.499 153 153 153
-5.65034 -13.972737 1.655 153 153 153
-5.685492 -13.949214 0.984 153 153 153
-5.815142 -13.884276 1.266 153 153 153
-5.685946 -13.950105 1.116 153 153 153
-5.976414 -13.802104 1.359 153 153 153
-5.703312 -13.940134 1.047 153 153 153
-5.834291 -13.873398 1.168 153 153 153
-5.702421 -13.940588 1.055 153 153 153
-5.755898 -13.915585 1.408 153 153 153
-5.710457 -13.938738 1.362 153 153 153
-5.9225 -13.828453 1.293 153 153 153
-5.800012 -13.89423 1.529 153 153 153
-5.791976 -13.89608 1.221 153 153 153
-5.710441 -13.936502 1.024 153 153 153
-5.905134 -13.838423 1.357 153 153 153
-5.732295 -13.928733 1.446 153 153 153
-5.716257 -13.936905 1.485 153 153 153
-5.897115 -13.842509 1.363 153 153 153
-5.961267 -13.809821 1.388 153 153 153
-5.70733 -13.939209 1.112 153 153 153
-5.805358 -13.891506 1.484 153 153 153
-5.778611 -13.902889 1.248 153 153 153
-5.909589 -13.836153 1.366 153 153 153
-5.682836 -13.952812 1.249 153 153 153
-5.729605 -13.927859 1.153 153 153 153
-5.732716 -13.925153 1.049 153 153 153
-5.725605 -13.931021 1.281 153 153 153
-5.706456 -13.941898 1.413 153 153 153
-5.808922 -13.889689 1.507 153 153 153
-5.687308 -13.952778 1.512 153 153 153
-5.654341 -13.969576 1.52 153 153 153
-5.792413 -13.894735 1.128 153 153 153
-5.743861 -13.920595 1.162 153 153 153
-5.9283 -13.826619 1.386 153 153 153
-5.80134 -13.892431 1.422 153 153 153
-5.773264 -13.905614 1.17 153 153 153
-5.739423 -13.925101 1.444 153 153 153
-5.656123 -13.968668 1.484 153 153 153
-5.893097 -13.843434 1.262 153 153 153
-5.649449 -13.973191 1.652 153 153 153
-5.782612 -13.899729 1.122 153 153 153
-5.72784 -13.931003 1.469 153 153 153
-5.829398 -13.877012 1.249 153 153 153
-5.870384 -13.856129 1.384 153 153 153
-5.846327 -13.868386 1.268 153 153 153
-5.669908 -13.958277 1.168 153 153 153
-5.709112 -13.938301 1.185 153 153 153
-5.808468 -13.8888 1.353 153 153 153
-5.829398 -13.877012 1.342 153 153 153
-5.714895 -13.934233 1.084 153 153 153
-5.687291 -13.950542 1.311 153 153 153
-5.678835 -13.955973 1.475 153 153 153
-5.726041 -13.929675 1.222 153 153 153
-5.979525 -13.799397 1.357 153 153 153
-5.689947 -13.946944 1.008 153 153 153
-5.856128 -13.863393 1.355 153 153 153
-5.745207 -13.921033 1.369 153 153 153
-5.845873 -13.867496 1.203 153 153 153
-5.80445 -13.889724 1.212 153 153 153
-5.740297 -13.922411 1.125 153 153 153
-5.838308 -13.872472 1.348 153 153 153
-5.8548 -13.865191 1.415 153 153 153
-5.968395 -13.80619 1.354 153 153 153
-5.753226 -13.916946 1.379 153 153 153
-5.751444 -13.917854 1.386 153 153 153
-5.683727 -13.952358 1.33 153 153 153
-5.697075 -13.943313 1.068 153 153 153
-5.738532 -13.925555 1.472 153 153 153
-5.901569 -13.840239 1.411 153 153 153
-5.828053 -13.876575 1.2 153 153 153
-5.914935 -13.833429 1.313 153 153 153
-5.648558 -13.973645 1.651 153 153 153
-5.922954 -13.829343 1.402 153 153 153
-5.804904 -13.890615 1.474 153 153 153
-5.750553 -13.918308 1.293 153 153 153
-5.829852 -13.877904 1.367 153 153 153
-5.817378 -13.884259 1.393 153 153 153
-5.67127 -13.96095 1.56 153 153 153
-5.753663 -13.915602 1.183 153 153 153
-5.750553 -13.918308 1.282 153 153 153
-5.916717 -13.832521 1.311 153 153 153
-5.674363 -13.956006 1.172 153 153 153
-5.886423 -13.847957 1.386 153 153 153
-5.667689 -13.960529 1.242 153 153 153
-5.701093 -13.942387 1.161 153 153 153
-5.788412 -13.897896 1.179 153 153 153
-5.800449 -13.892885 1.394 153 153 153
-5.883749 -13.849319 1.303 153 153 153
-5.876621 -13.852951 1.341 153 153 153
-5.899787 -13.841146 1.381 153 153 153
-5.750535 -13.916073 1.112 153 153 153
-5.774156 -13.90516 1.279 153 153 153
-5.805341 -13.88927 1.221 153 153 153
-5.708675 -13.939646 1.261 153 153 153
-5.756336 -13.914239 1.232 153 153 153
-5.756352 -13.916475 1.476 153 153 153
-5.91048 -13.835699 1.392 153 153 153
-5.665907 -13.961438 1.285 153 153 153
-5.682836 -13.952812 1.211 153 153 153
-5.752789 -13.918291 1.457 153 153 153
-5.746098 -13.920579 1.371 153 153 153
-5.776392 -13.905143 1.364 153 153 153
-5.881076 -13.85068 1.355 153 153 153
-5.833416 -13.876087 1.375 153 153 153
-5.784848 -13.899712 1.299 153 153 153
-5.850782 -13.866117 1.373 153 153 153
-5.773719 -13.906505 1.372 153 153 153
-5.810233 -13.885655 1.177 153 153 153
-5.759026 -13.915113 1.472 153 153 153
-5.763463 -13.910607 1.27 153 153 153
-5.751897 -13.918745 1.536 153 153 153
-5.683727 -13.952358 1.298 153 153 153
-5.689964 -13.94918 1.244 153 153 153
-5.705986 -13.938772 1.075 153 153 153
-5.676599 -13.95599 1.236 153 153 153
-5.678835 -13.955973 1.48 153 153 153
-5.817815 -13.882914 1.339 153 153 153
-5.748333 -13.920561 1.503 153 153 153
-5.84009 -13.871564 1.33 153 153 153
-5.951903 -13.813471 1.329 153 153 153
-5.73317 -13.926044 1.24 153 153 153
-5.849454 -13.867916 1.468 153 153 153
-5.724276 -13.932819 1.445 153 153 153
-5.689527 -13.950524 1.49 153 153 153
-5.773702 -13.904269 1.137 153 153 153
-5.767919 -13.908338 1.261 153 153 153
-5.792884 -13.897861 1.471 153 153 153
-5.799558 -13.893339 1.344 153 153 153
-5.947448 -13.815741 1.317 153 153 153
-5.844545 -13.869294 1.338 153 153 153
-5.873057 -13.854767 1.393 153 153 153
-5.733186 -13.928279 1.465 153 153 153
-5.697092 -13.945548 1.312 153 153 153
-5.81025 -13.887892 1.342 153 153 153
-5.687308 -13.952778 1.596 153 153 153
-5.697529 -13.944202 1.205 153 153 153
-5.737171 -13.922883 1.106 153 153 153
-5.722494 -13.933727 1.458 153 153 153
-5.800886 -13.89154 1.202 153 153 153
-5.747426 -13.918779 1.239 153 153 153
-5.877966 -13.853388 1.45 153 153 153
-5.700219 -13.945077 1.437 153 153 153
-5.676145 -13.955098 1.148 153 153 153
-5.742517 -13.920158 1.095 153 153 153
-5.816487 -13.884713 1.427 153 153 153
-5.702455 -13.94506 1.545 153 153 153
-5.849 -13.867024 1.356 153 153 153
-5.778627 -13.905126 1.511 153 153 153
-5.870384 -13.856129 1.294 153 153 153
-5.785739 -13.899258 1.291 153 153 153
-5.903352 -13.839331 1.366 153 153 153
-5.696655 -13.946893 1.438 153 153 153
-5.785302 -13.900603 1.42 153 153 153
-5.847218 -13.867932 1.367 153 153 153
-5.755445 -13.914694 1.266 153 153 153
-5.681945 -13.953266 1.339 153 153 153
-5.911371 -13.835245 1.381 153 153 153
-5.778611 -13.902889 1.298 153 153 153
-5.802214 -13.889741 1.128 153 153 153
-5.753226 -13.916946 1.425 153 153 153
-5.788866 -13.898787 1.44 153 153 153
-5.773282 -13.907849 1.453 153 153 153
-5.734498 -13.924245 1.059 153 153 153
-5.86282 -13.861106 1.448 153 153 153
-5.795103 -13.895609 1.425 153 153 153
-5.857019 -13.862939 1.374 153 153 153
-5.772374 -13.906068 1.26 153 153 153
-5.6806 -13.952828 1.108 153 153 153
-5.837871 -13.873817 1.488 153 153 153
-5.772828 -13.906959 1.333 153 153 153
-5.773282 -13.907849 1.5 153 153 153
-5.733186 -13.928279 1.487 153 153 153
-5.722477 -13.931491 1.178 153 153 153
-5.781738 -13.902419 1.308 153 153 153
-5.721603 -13.934181 1.402 153 153 153
-5.752771 -13.916056 1.158 153 153 153
-5.871275 -13.855675 1.352 153 153 153
-5.868165 -13.858382 1.403 153 153 153
-5.857019 -13.862939 1.294 153 153 153
-5.669488 -13.961858 1.505 153 153 153
-5.812486 -13.887874 1.497 153 153 153
-5.838308 -13.872472 1.247 153 153 153
-5.718913 -13.933307 1.243 153 153 153
-5.755008 -13.916039 1.377 153 153 153
-5.767482 -13.909683 1.382 153 153 153
-5.725621 -13.933256 1.553 153 153 153
-5.769718 -13.909665 1.483 153 153 153
-5.872621 -13.856112 1.424 153 153 153
-5.905134 -13.838423 1.31 153 153 153
-5.793304 -13.894281 1.151 153 153 153
-5.805341 -13.88927 1.326 153 153 153
-5.762136 -13.912407 1.395 153 153 153
-5.825397 -13.880174 1.431 153 153 153
-5.74566 -13.921923 1.529 153 153 153
-5.876621 -13.852951 1.258 153 153 153
-5.730496 -13.927405 1.198 153 153 153
-5.696655 -13.946893 1.504 153 153 153
-5.892223 -13.846125 1.442 153 153 153
-5.735405 -13.926026 1.302 153 153 153
-5.751897 -13.918745 1.426 153 153 153
-5.784848 -13.899712 1.256 153 153 153
-5.710003 -13.937847 1.133 153 153 153
-5.945229 -13.817993 1.366 153 153 153
-5.794649 -13.894718 1.232 153 153 153
-5.9283 -13.826619 1.388 153 153 153
-5.881531 -13.851572 1.442 153 153 153
-5.726058 -13.931911 1.472 153 153 153
-5.716694 -13.93556 1.268 153 153 153
-5.750553 -13.918308 1.308 153 153 153
-5.769701 -13.90743 1.189 153 153 153
-5.759463 -13.913769 1.325 153 153 153
-5.688636 -13.950978 1.372 153 153 153
-5.769701 -13.90743 1.255 153 153 153
-5.868148 -13.856146 1.235 153 153 153
-5.812032 -13.886983 1.467 153 153 153
-5.890878 -13.845687 1.321 153 153 153
-5.967504 -13.806643 1.367 153 153 153
-5.777283 -13.904689 1.331 153 153 153
-5.860147 -13.862468 1.445 153 153 153
-5.951466 -13.814816 1.34 153 153 153
-5.768373 -13.909229 1.339 153 153 153
-5.676145 -13.955098 1.151 153 153 153
-5.699749 -13.94195 1.031 153 153 153
-5.953248 -13.813908 1.365 153 153 153
-5.690401 -13.947835 1.196 153 153 153
-5.694419 -13.94691 1.336 153 153 153
-5.719804 -13.932853 1.219 153 153 153
-5.766591 -13.910137 1.386 153 153 153
-5.943447 -13.818901 1.324 153 153 153
-5.719368 -13.934198 1.334 153 153 153
-5.687745 -13.951432 1.486 153 153 153
-5.721603 -13.934181 1.451 153 153 153
-5.71313 -13.937376 1.317 153 153 153
-5.70422 -13.941916 1.352 153 153 153
-5.681508 -13.954611 1.399 153 153 153
-5.740735 -13.921066 1.1 153 153 153
-5.678398 -13.957317 1.599 153 153 153
-5.760354 -13.913315 1.43 153 153 153
-5.807577 -13.889254 1.368 153 153 153
-5.91939 -13.831159 1.309 153 153 153
-5.683727 -13.952358 1.252 153 153 153
-5.791539 -13.897425 1.357 153 153 153
-5.732749 -13.929625 1.555 153 153 153
-5.73406 -13.92559 1.162 153 153 153
-5.888205 -13.847049 1.275 153 153 153
-5.808468 -13.8888 1.429 153 153 153
-5.878403 -13.852042 1.275 153 153 153
-5.740752 -13.923303 1.392 153 153 153
-5.861037 -13.862014 1.431 153 153 153
-5.729605 -13.927859 1.117 153 153 153
-5.675708 -13.956444 1.255 153 153 153
-5.759026 -13.915113 1.451 153 153 153
-5.797776 -13.894247 1.427 153 153 153
-5.654341 -13.969576 1.611 153 153 153
-5.730496 -13.927405 1.209 153 153 153
-5.757244 -13.916021 1.468 153 153 153
-5.762573 -13.911061 1.151 153 153 153
-5.657451 -13.966868 1.43 153 153 153
-5.800449 -13.892885 1.379 153 153 153
-5.938992 -13.821172 1.341 153 153 153
-5.890878 -13.845687 1.354 153 153 153
-5.958594 -13.811184 1.366 153 153 153
-5.890878 -13.845687 1.332 153 153 153
-5.811578 -13.886092 1.238 153 153 153
-5.750989 -13.916964 1.265 153 153 153
-5.826272 -13.877483 1.163 153 153 153
-5.781284 -13.901527 1.253 153 153 153
-5.813377 -13.88742 1.513 153 153 153
-5.954139 -13.813454 1.38 153 153 153
-5.795103 -13.895609 1.35 153 153 153
-5.845873 -13.867496 1.19 153 153 153
-5.779065 -13.903781 1.337 153 153 153
-5.726933 -13.929221 1.166 153 153 153
-5.676616 -13.958226 1.545 153 153 153
-5.78041 -13.904218 1.521 153 153 153
-5.757664 -13.912441 1.071 153 153 153
-5.755461 -13.916929 1.468 153 153 153
-5.843654 -13.869748 1.368 153 153 153
-5.881076 -13.85068 1.375 153 153 153
-5.694419 -13.94691 1.283 153 153 153
-5.764809 -13.911045 1.364 153 153 153
-5.750098 -13.917418 1.23 153 153 153
-5.895332 -13.843417 1.337 153 153 153
-5.764355 -13.910153 1.2 153 153 153
-5.870384 -13.856129 1.309 153 153 153
-5.682853 -13.955048 1.572 153 153 153
-5.73897 -13.924211 1.356 153 153 153
-5.843217 -13.871094 1.413 153 153 153
-5.763481 -13.912844 1.458 153 153 153
-5.756352 -13.916475 1.554 153 153 153
-5.815596 -13.885167 1.458 153 153 153
-5.804904 -13.890615 1.404 153 153 153
-5.762119 -13.910171 1.121 153 153 153
-5.67127 -13.96095 1.6 153 153 153
-5.926518 -13.827527 1.311 153 153 153
-5.76079 -13.911969 1.249 153 153 153
-5.777266 -13.902453 1.141 153 153 153
-5.731842 -13.927842 1.269 153 153 153
-5.965722 -13.807551 1.386 153 153 153
-5.857019 -13.862939 1.277 153 153 153
-5.716712 -13.937797 1.558 153 153 153
-5.734951 -13.925136 1.163 153 153 153
-5.690401 -13.947835 1.127 153 153 153
-5.766137 -13.909245 1.147 153 153 153
-5.935428 -13.822988 1.394 153 153 153
-5.875731 -13.853405 1.292 153 153 153
-5.859239 -13.860686 1.224 153 153 153
-5.732295 -13.928733 1.418 153 153 153
-5.713113 -13.935141 1.047 153 153 153
-5.703783 -13.943261 1.396 153 153 153
-5.692183 -13.946927 1.197 153 153 153
-5.713584 -13.938267 1.518 153 153 153
-5.865929 -13.858398 1.313 153 153 153
-5.889095 -13.846595 1.296 153 153 153
-5.738062 -13.922429 1.114 153 153 153
-5.838762 -13.873363 1.401 153 153 153
-5.77192 -13.905177 1.127 153 153 153
-5.755898 -13.915585 1.367 153 153 153
-5.854346 -13.864301 1.294 153 153 153
-5.691746 -13.948272 1.238 153 153 153
-5.838762 -13.873363 1.389 153 153 153
-5.84009 -13.871564 1.297 153 153 153
-5.738079 -13.924664 1.4 153 153 153
-5.919827 -13.829815 1.294 153 153 153
-5.709549 -13.936956 1.011 153 153 153
-5.812923 -13.886529 1.406 153 153 153
-5.761245 -13.912861 1.38 153 153 153
-5.762136 -13.912407 1.302 153 153 153
-5.665033 -13.964128 1.539 153 153 153
-5.820505 -13.883788 1.509 153 153 153
-5.757664 -13.912441 1.103 153 153 153
-5.702001 -13.944169 1.49 153 153 153
-5.806669 -13.887471 1.133 153 153 153
-5.764355 -13.910153 1.184 153 153 153
-5.685072 -13.952794 1.448 153 153 153
-5.702438 -13.942824 1.274 153 153 153
-5.750098 -13.917418 1.25 153 153 153
-5.820942 -13.882443 1.367 153 153 153
-5.754553 -13.915148 1.181 153 153 153
-5.89577 -13.842072 1.267 153 153 153
-5.732278 -13.926497 1.189 153 153 153
-5.755461 -13.916929 1.494 153 153 153
-5.788866 -13.898787 1.318 153 153 153
-5.722915 -13.930146 1.055 153 153 153
-5.680146 -13.951938 0.995 153 153 153
-5.679272 -13.954628 1.336 153 153 153
-5.720695 -13.932399 1.204 153 153 153
-5.974632 -13.803012 1.353 153 153 153
-5.750535 -13.916073 1.089 153 153 153
-5.723368 -13.931037 1.207 153 153 153
-5.709549 -13.936956 1.048 153 153 153
-5.875277 -13.852514 1.225 153 153 153
-5.657905 -13.967759 1.535 153 153 153
-5.712693 -13.938721 1.397 153 153 153
-5.75679 -13.915131 1.316 153 153 153
-5.914935 -13.833429 1.36 153 153 153
-5.672144 -13.95826 1.217 153 153 153
-5.735859 -13.926917 1.432 153 153 153
-5.835198 -13.875179 1.403 153 153 153
-5.888642 -13.845704 1.265 153 153 153
-5.827179 -13.879266 1.452 153 153 153
-5.814268 -13.886966 1.498 153 153 153
-5.842763 -13.870202 1.322 153 153 153
-5.861928 -13.86156 1.403 153 153 153
-5.768356 -13.906993 1.103 153 153 153
-5.884187 -13.847974 1.257 153 153 153
-5.736279 -13.923337 1.074 153 153 153
-5.882858 -13.849772 1.371 153 153 153
-5.979978 -13.800288 1.375 153 153 153
-5.824489 -13.878391 1.186 153 153 153
-5.718913 -13.933307 1.188 153 153 153
-5.672144 -13.95826 1.289 153 153 153
-5.78663 -13.898804 1.306 153 153 153
-5.725621 -13.933256 1.551 153 153 153
-5.65345 -13.97003 1.574 153 153 153
-5.712239 -13.93783 1.359 153 153 153
-5.732295 -13.928733 1.429 153 153 153
-5.810687 -13.886546 1.229 153 153 153
-5.931864 -13.824803 1.334 153 153 153
-5.723823 -13.931929 1.291 153 153 153
-5.812906 -13.884294 1.152 153 153 153
-5.802231 -13.891977 1.46 153 153 153
-5.65345 -13.97003 1.561 153 153 153
-5.796431 -13.893809 1.311 153 153 153
-5.771937 -13.907413 1.334 153 153 153
-5.866384 -13.85929 1.466 153 153 153
-5.756352 -13.916475 1.547 153 153 153
-5.711349 -13.938284 1.365 153 153 153
-5.73897 -13.924211 1.413 153 153 153
-5.817378 -13.884259 1.465 153 153 153
-5.773719 -13.906505 1.413 153 153 153
-5.690872 -13.950962 1.538 153 153 153
-5.717148 -13.936451 1.453 153 153 153
-5.96394 -13.808459 1.384 153 153 153
-5.763027 -13.911953 1.396 153 153 153
-5.743878 -13.922832 1.497 153 153 153
-5.759008 -13.912877 1.217 153 153 153
-5.737641 -13.926009 1.426 153 153 153
-5.824506 -13.880628 1.447 153 153 153
-5.735389 -13.923791 1.09 153 153 153
-5.776392 -13.905143 1.423 153 153 153
-5.688199 -13.952324 1.535 153 153 153
-5.907806 -13.837061 1.287 153 153 153
-5.788412 -13.897896 1.186 153 153 153
-5.763027 -13.911953 1.29 153 153 153
-5.85791 -13.862484 1.308 153 153 153
-5.763027 -13.911953 1.41 153 153 153
-5.67749 -13.955536 1.229 153 153 153
-5.711802 -13.939175 1.419 153 153 153
-5.670816 -13.960058 1.469 153 153 153
-5.84589 -13.869732 1.45 153 153 153
-5.775501 -13.905597 1.424 153 153 153
-5.725605 -13.931021 1.263 153 153 153
-5.71313 -13.937376 1.248 153 153 153
-5.770608 -13.909211 1.465 153 153 153
-5.809359 -13.888346 1.442 153 153 153
-5.712676 -13.936485 1.193 153 153 153
-5.779519 -13.904672 1.525 153 153 153
-5.695764 -13.947347 1.384 153 153 153
-5.775955 -13.906487 1.472 153 153 153
-5.787521 -13.89835 1.249 153 153 153
-5.889987 -13.846141 1.397 153 153 153
-5.667269 -13.964111 1.637 153 153 153
-5.690418 -13.95007 1.415 153 153 153
-5.724713 -13.931475 1.305 153 153 153
-5.722477 -13.931491 1.14 153 153 153
-5.733606 -13.924699 1.078 153 153 153
-5.682853 -13.955048 1.612 153 153 153
-5.876621 -13.852951 1.313 153 153 153
-5.89266 -13.844779 1.314 153 153 153
-5.742096 -13.923739 1.552 153 153 153
-5.68909 -13.95187 1.52 153 153 153
-5.726933 -13.929221 1.196 153 153 153
-5.805358 -13.891506 1.505 153 153 153
-5.682382 -13.951921 1.092 153 153 153
-5.725587 -13.928784 1.05 153 153 153
-5.763901 -13.909263 1.125 153 153 153
-5.944338 -13.818447 1.324 153 153 153
-5.731824 -13.925607 1.049 153 153 153
-5.76881 -13.907884 1.257 153 153 153
-5.877076 -13.853842 1.461 153 153 153
-5.860583 -13.861122 1.317 153 153 153
-5.742079 -13.921503 1.17 153 153 153
-5.808905 -13.887454 1.299 153 153 153
-5.750989 -13.916964 1.139 153 153 153
-5.706893 -13.940555 1.359 153 153 153
-5.751881 -13.91651 1.226 153 153 153
-5.696184 -13.943767 1.002 153 153 153
-5.777283 -13.904689 1.366 153 153 153
-5.722041 -13.932837 1.258 153 153 153
-5.6864 -13.950996 1.229 153 153 153
-5.853909 -13.865645 1.403 153 153 153
-5.903352 -13.839331 1.415 153 153 153
-5.788412 -13.897896 1.308 153 153 153
-5.799995 -13.891994 1.277 153 153 153
-5.677036 -13.954644 1.161 153 153 153
-5.874839 -13.853859 1.265 153 153 153
-5.764355 -13.910153 1.193 153 153 153
-5.934537 -13.823442 1.323 153 153 153
-5.872166 -13.855221 1.357 153 153 153
-5.688182 -13.950088 1.298 153 153 153
-5.803559 -13.890178 1.228 153 153 153
-5.729622 -13.930095 1.501 153 153 153
-5.810704 -13.888782 1.486 153 153 153
-5.735842 -13.924681 1.149 153 153 153
-5.738515 -13.923319 1.174 153 153 153
-5.814251 -13.88473 1.265 153 153 153
-5.840544 -13.872456 1.474 153 153 153
-5.783974 -13.902402 1.503 153 153 153
-5.700219 -13.945077 1.386 153 153 153
-5.705111 -13.941463 1.276 153 153 153
-5.769701 -13.90743 1.284 153 153 153
-5.685055 -13.950559 1.135 153 153 153
-5.748333 -13.920561 1.564 153 153 153
-5.888205 -13.847049 1.343 153 153 153
-5.915826 -13.832975 1.378 153 153 153
-5.691292 -13.947381 1.105 153 153 153
-5.827162 -13.877029 1.192 153 153 153
-5.751444 -13.917854 1.378 153 153 153
-5.709112 -13.938301 1.234 153 153 153
-5.69262 -13.945582 1.05 153 153 153
-5.698857 -13.942404 1.044 153 153 153
-5.828507 -13.877466 1.241 153 153 153
-5.658342 -13.966414 1.388 153 153 153
-5.742096 -13.923739 1.443 153 153 153
-5.804013 -13.891069 1.348 153 153 153
-5.719368 -13.934198 1.27 153 153 153
-5.832071 -13.87565 1.347 153 153 153
-5.74566 -13.921923 1.473 153 153 153
-5.86682 -13.857944 1.341 153 153 153
-5.77461 -13.906051 1.389 153 153 153
-5.735842 -13.924681 1.212 153 153 153
-5.753663 -13.915602 1.252 153 153 153
-5.884203 -13.85021 1.443 153 153 153
-5.780847 -13.902873 1.436 153 153 153
-5.781284 -13.901527 1.215 153 153 153
-5.881076 -13.85068 1.293 153 153 153
-5.89355 -13.844325 1.28 153 153 153
-5.968395 -13.80619 1.357 153 153 153
-5.768826 -13.910119 1.443 153 153 153
-5.705128 -13.943698 1.551 153 153 153
-5.920718 -13.829361 1.29 153 153 153
-5.722477 -13.931491 1.218 153 153 153
-5.727369 -13.927876 1.067 153 153 153
-5.741642 -13.922849 1.296 153 153 153
-5.691292 -13.947381 1.163 153 153 153
-5.912261 -13.834791 1.307 153 153 153
-5.788412 -13.897896 1.19 153 153 153
-5.803122 -13.891523 1.421 153 153 153
-5.756336 -13.914239 1.177 153 153 153
-5.839199 -13.872018 1.274 153 153 153
-5.804013 -13.891069 1.388 153 153 153
-5.77192 -13.905177 1.131 153 153 153
-5.849454 -13.867916 1.433 153 153 153
-5.701984 -13.941933 1.159 153 153 153
-5.694402 -13.944674 1.053 153 153 153
-5.795103 -13.895609 1.437 153 153 153
-5.705565 -13.942352 1.524 153 153 153
-5.74788 -13.919671 1.324 153 153 153
-5.760808 -13.914206 1.448 153 153 153
-5.715804 -13.936014 1.378 153 153 153
-5.747426 -13.918779 1.166 153 153 153
-5.733186 -13.928279 1.484 153 153 153
-5.736297 -13.925572 1.379 153 153 153
-5.815159 -13.886512 1.499 153 153 153
-5.6806 -13.952828 1.154 153 153 153
-5.849454 -13.867916 1.422 153 153 153
-5.808451 -13.886563 1.171 153 153 153
-5.745643 -13.919687 1.244 153 153 153
-5.828507 -13.877466 1.275 153 153 153
-5.775938 -13.904252 1.258 153 153 153
-5.823615 -13.881082 1.414 153 153 153
-5.795086 -13.893373 1.162 153 153 153
-5.898005 -13.842055 1.376 153 153 153
-5.826725 -13.878374 1.232 153 153 153
-5.835198 -13.875179 1.416 153 153 153
-5.710003 -13.937847 1.164 153 153 153
-5.918499 -13.831614 1.306 153 153 153
-5.804467 -13.89196 1.498 153 153 153
-5.732278 -13.926497 1.115 153 153 153
-5.75679 -13.915131 1.403 153 153 153
-5.735859 -13.926917 1.507 153 153 153
-5.770155 -13.90832 1.433 153 153 153
-5.857019 -13.862939 1.356 153 153 153
-5.792867 -13.895626 1.259 153 153 153
-5.703312 -13.940134 1.042 153 153 153
-5.672161 -13.960496 1.5 153 153 153
-5.699749 -13.94195 1.072 153 153 153
-5.915826 -13.832975 1.41 153 153 153
-5.721149 -13.93329 1.328 153 153 153
-5.67438 -13.958242 1.426 153 153 153
-5.836089 -13.874725 1.402 153 153 153
-5.889095 -13.846595 1.406 153 153 153
-5.766591 -13.910137 1.402 153 153 153
-5.672144 -13.95826 1.231 153 153 153
-5.718022 -13.933761 1.242 153 153 153
-5.898005 -13.842055 1.384 153 153 153
-5.801777 -13.891086 1.204 153 153 153
-5.71313 -13.937376 1.24 153 153 153
-5.885986 -13.849302 1.455 153 153 153
-5.80714 -13.890597 1.489 153 153 153
-5.873949 -13.854313 1.322 153 153 153
-5.74297 -13.921049 1.145 153 153 153
-5.704657 -13.940571 1.1 153 153 153
-5.68329 -13.953703 1.414 153 153 153
-5.676145 -13.955098 1.111 153 153 153
-5.766153 -13.911481 1.49 153 153 153
-5.795977 -13.89292 1.17 153 153 153
-5.775046 -13.904706 1.178 153 153 153
-5.793321 -13.896517 1.359 153 153 153
-5.734514 -13.92648 1.337 153 153 153
-5.713584 -13.938267 1.49 153 153 153
-5.681054 -13.95372 1.239 153 153 153
-5.766137 -13.909245 1.189 153 153 153
-5.816033 -13.883822 1.283 153 153 153
-5.828507 -13.877466 1.286 153 153 153
-5.657014 -13.968213 1.479 153 153 153
-5.782629 -13.901965 1.365 153 153 153
-5.794212 -13.896063 1.385 153 153 153
-5.744316 -13.921487 1.382 153 153 153
-5.844108 -13.87064 1.412 153 153 153
-5.754553 -13.915148 1.165 153 153 153
-5.802668 -13.890632 1.279 153 153 153
-5.74788 -13.919671 1.311 153 153 153
-5.835181 -13.872944 1.212 153 153 153
-5.747442 -13.921015 1.473 153 153 153
-5.760808 -13.914206 1.489 153 153 153
-5.685963 -13.95234 1.39 153 153 153
-5.869493 -13.856583 1.34 153 153 153
-5.681491 -13.952374 1.126 153 153 153
-5.754553 -13.915148 1.234 153 153 153
-5.902461 -13.839785 1.359 153 153 153
-5.830289 -13.876558 1.248 153 153 153
-5.850782 -13.866117 1.329 153 153 153
-5.675271 -13.957788 1.371 153 153 153
-5.754553 -13.915148 1.206 153 153 153
-5.903352 -13.839331 1.408 153 153 153
-5.758134 -13.915567 1.46 153 153 153
-5.827179 -13.879266 1.45 153 153 153
-5.818706 -13.88246 1.327 153 153 153
-5.6748 -13.954662 1.05 153 153 153
-5.826725 -13.878374 1.279 153 153 153
-5.685072 -13.952794 1.46 153 153 153
-5.687291 -13.950542 1.232 153 153 153
-5.669017 -13.958731 1.194 153 153 153
-5.675708 -13.956444 1.22 153 153 153
-5.685055 -13.950559 1.076 153 153 153
-5.721132 -13.931054 1.066 153 153 153
-5.712676 -13.936485 1.099 153 153 153
-5.688199 -13.952324 1.51 153 153 153
-5.696655 -13.946893 1.506 153 153 153
-5.811141 -13.887437 1.436 153 153 153
-5.763918 -13.911499 1.398 153 153 153
-5.830289 -13.876558 1.292 153 153 153
-5.925173 -13.82709 1.297 153 153 153
-5.766137 -13.909245 1.151 153 153 153
-5.705094 -13.939226 1.01 153 153 153
-5.725167 -13.932364 1.417 153 153 153
-5.846327 -13.868386 1.232 153 153 153
-5.730042 -13.926515 1.103 153 153 153
-5.755008 -13.916039 1.325 153 153 153
-5.815579 -13.882932 1.18 153 153 153
-5.753226 -13.916946 1.423 153 153 153
-5.714458 -13.935577 1.209 153 153 153
-5.749224 -13.920107 1.56 153 153 153
-5.779502 -13.902435 1.201 153 153 153
-5.687728 -13.949197 1.125 153 153 153
-5.711349 -13.938284 1.369 153 153 153
-5.720712 -13.934635 1.398 153 153 153
-5.766137 -13.909245 1.145 153 153 153
-5.887313 -13.847503 1.375 153 153 153
-5.849 -13.867024 1.239 153 153 153
-5.712693 -13.938721 1.513 153 153 153
-5.903352 -13.839331 1.408 153 153 153
-5.846781 -13.869278 1.383 153 153 153
-5.701984 -13.941933 1.113 153 153 153
-5.708675 -13.939646 1.249 153 153 153
-5.772374 -13.906068 1.292 153 153 153
-5.762136 -13.912407 1.347 153 153 153
-5.683273 -13.951467 1.15 153 153 153
-5.803105 -13.889287 1.149 153 153 153
-5.934083 -13.822551 1.302 153 153 153
-5.775501 -13.905597 1.439 153 153 153
-5.703766 -13.941025 1.178 153 153 153
-5.763463 -13.910607 1.196 153 153 153
-5.699311 -13.943295 1.124 153 153 153
-5.843217 -13.871094 1.472 153 153 153
-5.791976 -13.89608 1.183 153 153 153
-5.846327 -13.868386 1.245 153 153 153
-5.759008 -13.912877 1.235 153 153 153
-5.74788 -13.919671 1.417 153 153 153
-5.71935 -13.931962 1.076 153 153 153
-5.718476 -13.934652 1.391 153 153 153
-5.734968 -13.927371 1.428 153 153 153
-5.669908 -13.958277 1.171 153 153 153
-5.791993 -13.898315 1.507 153 153 153
-5.842326 -13.871548 1.475 153 153 153
-5.790194 -13.896988 1.234 153 153 153
-5.662814 -13.966381 1.639 153 153 153
-5.713584 -13.938267 1.392 153 153 153
-5.690418 -13.95007 1.466 153 153 153
-5.857019 -13.862939 1.365 153 153 153
-5.708658 -13.93741 1.053 153 153 153
-5.828507 -13.877466 1.287 153 153 153
-5.791085 -13.896534 1.187 153 153 153
-5.796868 -13.892466 1.128 153 153 153
-5.791522 -13.895189 1.139 153 153 153
-5.922063 -13.829797 1.334 153 153 153
-5.763463 -13.910607 1.281 153 153 153
-5.785302 -13.900603 1.437 153 153 153
-5.763918 -13.911499 1.375 153 153 153
-5.681962 -13.955502 1.61 153 153 153
-5.923845 -13.828889 1.329 153 153 153
-5.865492 -13.859744 1.47 153 153 153
-5.851673 -13.865663 1.33 153 153 153
-5.696201 -13.946002 1.323 153 153 153
-5.762589 -13.913298 1.517 153 153 153
-5.837871 -13.873817 1.487 153 153 153
-5.945229 -13.817993 1.379 153 153 153
-5.683273 -13.951467 1.152 153 153 153
-5.754991 -13.913803 1.13 153 153 153
-5.688619 -13.948743 1.087 153 153 153
-5.848547 -13.866134 1.197 153 153 153
-5.701547 -13.943278 1.279 153 153 153
-5.704237 -13.944152 1.546 153 153 153
-5.726933 -13.929221 1.13 153 153 153
-5.769247 -13.906539 1.122 153 153 153
-5.834744 -13.874289 1.262 153 153 153
-5.656123 -13.968668 1.516 153 153 153
-5.677473 -13.9533 1.043 153 153 153
-5.968395 -13.80619 1.36 153 153 153
-5.676162 -13.957335 1.473 153 153 153
-5.654795 -13.970467 1.633 153 153 153
-5.849454 -13.867916 1.388 153 153 153
-5.852128 -13.866553 1.447 153 153 153
-5.778174 -13.904235 1.43 153 153 153
-5.707767 -13.937864 1.073 153 153 153
-5.711802 -13.939175 1.417 153 153 153
-5.713567 -13.936031 1.095 153 153 153
-5.702892 -13.943715 1.394 153 153 153
-5.900679 -13.840693 1.413 153 153 153
-5.899351 -13.842492 1.432 153 153 153
-5.748754 -13.916981 1.101 153 153 153
-5.749224 -13.920107 1.481 153 153 153
-5.882405 -13.848882 1.257 153 153 153
-5.853002 -13.863864 1.226 153 153 153
-5.805341 -13.88927 1.321 153 153 153
-5.888205 -13.847049 1.402 153 153 153
-5.684164 -13.951013 1.135 153 153 153
-5.67749 -13.955536 1.204 153 153 153
-5.815159 -13.886512 1.51 153 153 153
-5.752789 -13.918291 1.547 153 153 153
-5.766153 -13.911481 1.478 153 153 153
-5.843654 -13.869748 1.28 153 153 153
-5.797322 -13.893355 1.273 153 153 153
-5.746098 -13.920579 1.335 153 153 153
-5.906916 -13.837515 1.405 153 153 153
-5.796431 -13.893809 1.192 153 153 153
-5.66547 -13.962782 1.472 153 153 153
-5.728731 -13.930549 1.522 153 153 153
-5.967504 -13.806643 1.367 153 153 153
-5.72784 -13.931003 1.425 153 153 153
-5.694436 -13.949146 1.553 153 153 153
-5.71313 -13.937376 1.387 153 153 153
-5.737187 -13.925118 1.359 153 153 153
-5.905134 -13.838423 1.293 153 153 153
-5.810687 -13.886546 1.331 153 153 153
-5.790648 -13.897879 1.362 153 153 153
-5.695764 -13.947347 1.404 153 153 153
-5.700656 -13.943732 1.247 153 153 153
-5.661015 -13.965053 1.339 153 153 153
-5.696218 -13.948238 1.617 153 153 153
-5.737641 -13.926009 1.508 153 153 153
-5.872166 -13.855221 1.257 153 153 153
-5.762573 -13.911061 1.198 153 153 153
-5.679272 -13.954628 1.322 153 153 153
-5.738062 -13.922429 1.056 153 153 153
-5.7599 -13.912423 1.155 153 153 153
-5.679726 -13.955519 1.398 153 153 153
-5.939883 -13.820717 1.407 153 153 153
-5.708221 -13.938755 1.206 153 153 153
-5.706002 -13.941009 1.276 153 153 153
-5.865929 -13.858398 1.334 153 153 153
-5.834307 -13.875633 1.379 153 153 153
-5.934537 -13.823442 1.358 153 153 153
-5.738953 -13.921975 1.112 153 153 153
-5.836963 -13.872036 1.192 153 153 153
-5.881076 -13.85068 1.3 153 153 153
-5.88464 -13.848865 1.301 153 153 153
-5.807123 -13.888362 1.219 153 153 153
-5.753679 -13.917837 1.527 153 153 153
-5.760808 -13.914206 1.437 153 153 153
-5.71313 -13.937376 1.28 153 153 153
-5.815596 -13.885167 1.442 153 153 153
-5.778611 -13.902889 1.253 153 153 153
-5.803122 -13.891523 1.35 153 153 153
-5.772828 -13.906959 1.401 153 153 153
-5.694856 -13.945564 1.101 153 153 153
-5.811141 -13.887437 1.446 153 153 153
-5.792884 -13.897861 1.497 153 153 153
-5.684618 -13.951904 1.333 153 153 153
-5.723385 -13.933273 1.428 153 153 153
-5.789757 -13.898334 1.397 153 153 153
-5.778157 -13.901999 1.144 153 153 153
-5.710911 -13.939629 1.411 153 153 153
-5.693982 -13.948255 1.395 153 153 153
-5.81025 -13.887892 1.483 153 153 153
-5.725605 -13.931021 1.32 153 153 153
-5.784848 -13.899712 1.174 153 153 153
-5.655232 -13.969122 1.619 153 153 153
-5.718493 -13.936888 1.56 153 153 153
-5.865929 -13.858398 1.359 153 153 153
-5.921609 -13.828907 1.299 153 153 153
-5.918499 -13.831614 1.372 153 153 153
-5.970177 -13.805282 1.354 153 153 153
-5.742517 -13.920158 1.055 153 153 153
-5.708692 -13.941882 1.584 153 153 153
-5.781738 -13.902419 1.405 153 153 153
-5.891768 -13.845233 1.274 153 153 153
-5.678381 -13.955082 1.28 153 153 153
-5.945229 -13.817993 1.402 153 153 153
-5.70111 -13.944623 1.432 153 153 153
-5.728714 -13.928313 1.202 153 153 153
-5.835635 -13.873835 1.325 153 153 153
-5.792884 -13.897861 1.49 153 153 153
-5.712223 -13.935595 1.04 153 153 153
-5.828961 -13.878358 1.364 153 153 153
-5.730042 -13.926515 1.076 153 153 153
-5.672598 -13.95915 1.379 153 153 153
-5.86682 -13.857944 1.351 153 153 153
-5.842309 -13.869311 1.197 153 153 153
-5.727386 -13.930113 1.353 153 153 153
-5.676162 -13.957335 1.392 153 153 153
-5.735405 -13.926026 1.359 153 153 153
-5.840981 -13.87111 1.359 153 153 153
-5.770608 -13.909211 1.489 153 153 153
-5.86371 -13.860652 1.423 153 153 153
-5.80134 -13.892431 1.437 153 153 153
-5.706876 -13.938318 1.039 153 153 153
-5.905571 -13.837078 1.279 153 153 153
-5.767027 -13.908792 1.291 153 153 153
-5.791976 -13.89608 1.18 153 153 153
-5.79554 -13.894264 1.299 153 153 153
-5.679289 -13.956863 1.611 153 153 153
-5.753226 -13.916946 1.325 153 153 153
-5.748316 -13.918325 1.177 153 153 153
-5.892223 -13.846125 1.44 153 153 153
-5.67438 -13.958242 1.408 153 153 153
-5.869056 -13.857928 1.45 153 153 153
-5.868602 -13.857037 1.354 153 153 153
-5.680617 -13.955065 1.462 153 153 153
-5.724697 -13.929238 1.063 153 153 153
-5.691309 -13.949616 1.501 153 153 153
-5.674363 -13.956006 1.068 153 153 153
-5.814251 -13.88473 1.281 153 153 153
-5.704657 -13.940571 1.132 153 153 153
-5.737624 -13.923773 1.12 153 153 153
-5.695747 -13.94511 1.16 153 153 153
-5.787067 -13.897459 1.109 153 153 153
-5.710457 -13.938738 1.347 153 153 153
