ply
format ascii 1.0
element vertex 1267
property double x
property double y
property double z
property uchar red
property uchar green
property uchar blue
element face 0
property list uchar int vertex_indices
end_header
-1.250382 -14.601844 0.458 84 255 127
-1.167416 -14.63065 0.455 84 255 127
-1.173845 -14.711548 0.45 84 255 127
-1.223007 -14.766184 0.448 84 255 127
-1.111139 -14.522401 0.461 84 255 127
-1.17799 -14.60955 0.456 84 255 127
-1.263684 -14.645572 0.455 84 255 127
-1.212183 -14.577537 0.459 84 255 127
-1.266895 -14.656281 0.455 84 255 127
-1.202323 -14.692549 0.452 84 255 127
-1.289595 -14.70083 0.452 84 255 127
-1.125255 -14.673456 0.452 84 255 127
-1.275254 -14.696915 0.452 84 255 127
-1.087026 -14.46847 0.464 84 255 127
-1.278109 -14.660667 0.455 84 255 127
-1.175118 -14.64356 0.454 84 255 127
-1.082941 -14.46045 0.464 84 255 127
-1.247263 -14.721277 0.451 84 255 127
-1.219944 -14.716118 0.451 84 255 127
-1.133516 -14.524467 0.461 84 255 127
-1.282433 -14.699991 0.452 84 255 127
-1.217538 -14.693775 0.452 84 255 127
-1.109582 -14.611857 0.455 84 255 127
-1.300491 -14.722215 0.451 84 255 127
-1.210062 -14.769413 0.447 84 255 127
-1.143809 -14.584317 0.458 84 255 127
-1.204513 -14.745305 0.449 84 255 127
-1.110036 -14.612749 0.455 84 255 127
-1.152176 -14.743913 0.448 84 255 127
-1.190604 -14.680563 0.452 84 255 127
-1.095589 -14.535935 0.46 84 255 127
-1.210329 -14.745708 0.449 84 255 127
-1.101838 -14.475513 0.464 84 255 127
-1.080556 -14.499824 0.462 84 255 127
-1.21405 -14.587809 0.458 84 255 127
-1.180264 -14.673485 0.453 84 255 127
-1.137093 -14.701094 0.451 84 255 127
-1.291411 -14.704394 0.452 84 255 127
-1.347158 -14.683846 0.454 84 255 127
-1.356624 -14.693614 0.453 84 255 127
-1.117732 -14.566178 0.458 84 255 127
-1.117172 -14.492391 0.463 84 255 127
-1.086997 -14.523479 0.46 84 255 127
-1.188932 -14.57816 0.458 84 255 127
-1.259665 -14.646496 0.455 84 255 127
-1.183773 -14.60548 0.457 84 255 127
-1.147946 -14.599044 0.457 84 255 127
-1.214996 -14.653543 0.454 84 255 127
-1.209442 -14.569955 0.459 84 255 127
-1.134225 -14.558898 0.459 84 255 127
-1.309282 -14.702024 0.452 84 255 127
-1.279166 -14.623093 0.457 84 255 127
-1.081226 -14.470302 0.464 84 255 127
-1.088847 -14.531514 0.46 84 255 127
-1.306728 -14.719037 0.451 84 255 127
-1.196841 -14.677385 0.453 84 255 127
-1.163624 -14.720123 0.45 84 255 127
-1.14369 -14.568665 0.458 84 255 127
-1.131505 -14.613033 0.456 84 255 127
-1.257578 -14.607157 0.457 84 255 127
-1.22473 -14.639606 0.455 84 255 127
-1.187927 -14.622443 0.456 84 255 127
-1.215221 -14.742093 0.449 84 255 127
-1.235489 -14.643102 0.455 84 255 127
-1.117694 -14.502225 0.462 84 255 127
-1.106968 -14.503201 0.462 84 255 127
-1.211153 -14.73631 0.449 84 255 127
-1.166738 -14.541209 0.46 84 255 127
-1.149927 -14.565487 0.459 84 255 127
-1.095198 -14.484508 0.463 84 255 127
-1.307148 -14.715456 0.452 84 255 127
-1.253297 -14.691268 0.452 84 255 127
-1.137971 -14.522197 0.461 84 255 127
-1.229252 -14.646279 0.455 84 255 127
-1.24588 -14.656887 0.454 84 255 127
-1.13991 -14.600894 0.456 84 255 127
-1.225863 -14.729937 0.45 84 255 127
-1.147844 -14.585629 0.457 84 255 127
-1.15543 -14.642368 0.454 84 255 127
-1.236758 -14.751321 0.449 84 255 127
-1.149117 -14.51764 0.462 84 255 127
-1.264592 -14.647353 0.455 84 255 127
-1.238065 -14.687805 0.452 84 255 127
-1.187723 -14.595612 0.457 84 255 127
-1.314963 -14.684538 0.454 84 255 127
-1.130109 -14.605888 0.456 84 255 127
-1.134339 -14.515069 0.462 84 255 127
-1.260624 -14.654986 0.455 84 255 127
-1.269641 -14.723343 0.451 84 255 127
-1.270205 -14.620925 0.457 84 255 127
-1.330598 -14.682183 0.454 84 255 127
-1.178435 -14.727166 0.449 84 255 127
-1.281372 -14.678084 0.454 84 255 127
-1.176517 -14.710186 0.45 84 255 127
-1.228684 -14.689218 0.452 84 255 127
-1.233924 -14.613597 0.457 84 255 127
-1.27312 -14.710348 0.452 84 255 127
-1.210414 -14.756887 0.448 84 255 127
-1.198101 -14.666642 0.453 84 255 127
-1.060427 -14.440495 0.465 84 255 127
-1.167378 -14.566696 0.459 84 255 127
-1.142142 -14.541396 0.46 84 255 127
-1.249058 -14.663124 0.454 84 255 127
-1.158384 -14.795744 0.445 84 255 127
-1.208059 -14.741253 0.449 84 255 127
-1.179687 -14.597462 0.457 84 255 127
-1.185945 -14.656001 0.454 84 255 127
-1.297258 -14.649789 0.455 84 255 127
-1.152333 -14.58783 0.457 84 255 127
-1.206099 -14.600839 0.457 84 255 127
-1.155574 -14.54353 0.46 84 255 127
-1.17028 -14.713365 0.45 84 255 127
-1.300134 -14.67526 0.454 84 255 127
-1.109497 -14.600677 0.456 84 255 127
-1.219269 -14.686159 0.452 84 255 127
-1.255682 -14.651894 0.455 84 255 127
-1.322562 -14.684033 0.454 84 255 127
-1.219015 -14.652619 0.454 84 255 127
-1.263841 -14.725177 0.451 84 255 127
-1.151387 -14.757783 0.447 84 255 127
-1.158668 -14.774275 0.446 84 255 127
-1.207775 -14.762722 0.448 84 255 127
-1.142731 -14.560175 0.459 84 255 127
-1.109136 -14.494241 0.462 84 255 127
-1.210834 -14.753306 0.448 84 255 127
-1.243679 -14.661376 0.454 84 255 127
-1.212667 -14.759108 0.448 84 255 127
-1.229282 -14.59127 0.458 84 255 127
-1.188373 -14.740061 0.449 84 255 127
-1.091095 -14.474253 0.463 84 255 127
-1.309265 -14.699787 0.453 84 255 127
-1.086759 -14.492174 0.462 84 255 127
-1.168189 -14.614543 0.456 84 255 127
-1.241799 -14.708349 0.451 84 255 127
-1.30128 -14.708345 0.452 84 255 127
-1.283438 -14.655707 0.455 84 255 127
-1.186429 -14.601882 0.457 84 255 127
-1.239473 -14.637705 0.455 84 255 127
-1.232112 -14.669514 0.453 84 255 127
-1.137958 -14.579442 0.458 84 255 127
-1.180693 -14.788867 0.446 84 255 127
-1.233873 -14.606889 0.457 84 255 127
-1.158519 -14.577945 0.458 84 255 127
-1.237429 -14.721799 0.45 84 255 127
-1.17524 -14.718694 0.45 84 255 127
-1.12217 -14.561673 0.459 84 255 127
-1.111796 -14.550123 0.459 84 255 127
-1.162168 -14.587308 0.458 84 255 127
-1.160887 -14.772022 0.447 84 255 127
-1.090226 -14.536423 0.46 84 255 127
-1.149092 -14.63213 0.455 84 255 127
-1.214623 -14.604352 0.457 84 255 127
-1.189191 -14.671182 0.453 84 255 127
-1.120143 -14.648004 0.453 84 255 127
-1.199879 -14.606253 0.457 84 255 127
-1.209701 -14.662976 0.454 84 255 127
-1.147759 -14.574448 0.458 84 255 127
-1.182942 -14.731605 0.449 84 255 127
-1.222863 -14.629334 0.456 84 255 127
-1.173391 -14.710658 0.45 84 255 127
-1.143813 -14.643799 0.454 84 255 127
-1.083921 -14.530658 0.46 84 255 127
-1.114317 -14.528638 0.46 84 255 127
-1.218187 -14.602536 0.457 84 255 127
-1.175716 -14.545613 0.46 84 255 127
-1.0895 -14.499756 0.462 84 255 127
-1.13635 -14.662191 0.453 84 255 127
-1.256017 -14.637133 0.456 84 255 127
-1.203367 -14.712218 0.451 84 255 127
-1.20581 -14.562826 0.459 84 255 127
-1.225552 -14.630208 0.456 84 255 127
-1.086555 -14.465343 0.464 84 255 127
-1.2203 -14.763074 0.448 84 255 127
-1.1707 -14.709784 0.45 84 255 127
-1.121411 -14.520534 0.461 84 255 127
-1.278076 -14.656196 0.455 84 255 127
-1.126248 -14.686418 0.451 84 255 127
-1.187214 -14.76422 0.447 84 255 127
-1.120185 -14.535748 0.46 84 255 127
-1.191071 -14.624208 0.456 84 255 127
-1.222697 -14.666455 0.454 84 255 127
-1.266548 -14.728287 0.45 84 255 127
-1.301297 -14.710581 0.452 84 255 127
-1.232855 -14.708417 0.451 84 255 127
-1.190252 -14.693088 0.452 84 255 127
-1.212867 -14.726458 0.45 84 255 127
-1.253564 -14.667562 0.454 84 255 127
-1.104486 -14.58864 0.457 84 255 127
-1.191966 -14.683235 0.452 84 255 127
-1.2122 -14.579773 0.459 84 255 127
-1.110532 -14.501386 0.462 84 255 127
-1.139265 -14.515926 0.462 84 255 127
-1.187206 -14.645258 0.454 84 255 127
-1.335694 -14.7054 0.453 84 255 127
-1.104117 -14.598929 0.456 84 255 127
-1.191911 -14.617046 0.456 84 255 127
-1.101894 -14.541701 0.46 84 255 127
-1.209888 -14.687572 0.452 84 255 127
-1.229214 -14.582327 0.459 84 255 127
-1.213401 -14.679049 0.453 84 255 127
-1.242253 -14.70924 0.451 84 255 127
-1.240653 -14.675263 0.453 84 255 127
-1.289243 -14.713356 0.452 84 255 127
-1.162885 -14.740701 0.448 84 255 127
-1.136129 -14.633122 0.455 84 255 127
-1.093573 -14.565021 0.458 84 255 127
-1.15543 -14.642368 0.454 84 255 127
-1.158035 -14.632062 0.455 84 255 127
-1.151204 -14.55698 0.459 84 255 127
-1.174235 -14.762977 0.447 84 255 127
-1.252703 -14.613007 0.457 84 255 127
-1.165262 -14.582365 0.458 84 255 127
-1.165359 -14.771989 0.447 84 255 127
-1.174311 -14.655194 0.454 84 255 127
-1.302557 -14.699838 0.452 84 255 127
-1.117732 -14.566178 0.458 84 255 127
-1.273239 -14.726 0.451 84 255 127
-1.204542 -14.690295 0.452 84 255 127
-1.214441 -14.639237 0.455 84 255 127
-1.248961 -14.709189 0.451 84 255 127
-1.247361 -14.675213 0.453 84 255 127
-1.101168 -14.505034 0.462 84 255 127
-1.154968 -14.522514 0.461 84 255 127
-1.18965 -14.731554 0.449 84 255 127
-1.162758 -14.606087 0.456 84 255 127
-1.158366 -14.55782 0.459 84 255 127
-1.091146 -14.48096 0.463 84 255 127
-1.26118 -14.669293 0.454 84 255 127
-1.156554 -14.613737 0.456 84 255 127
-1.22537 -14.665093 0.454 84 255 127
-1.125887 -14.579981 0.458 84 255 127
-1.240819 -14.638142 0.455 84 255 127
-1.188635 -14.656875 0.454 84 255 127
-1.178707 -14.762942 0.447 84 255 127
-1.249147 -14.733786 0.45 84 255 127
-1.264774 -14.612468 0.457 84 255 127
-1.085618 -14.518569 0.461 84 255 127
-1.174422 -14.787572 0.446 84 255 127
-1.289697 -14.714247 0.451 84 255 127
-1.298602 -14.650226 0.455 84 255 127
-1.152091 -14.732733 0.449 84 255 127
-1.246572 -14.689082 0.452 84 255 127
-1.166619 -14.761246 0.447 84 255 127
-1.153661 -14.586031 0.458 84 255 127
-1.332482 -14.694692 0.453 84 255 127
-1.264867 -14.742611 0.45 84 255 127
-1.202544 -14.721617 0.45 84 255 127
-1.240356 -14.753977 0.449 84 255 127
-1.186247 -14.636767 0.455 84 255 127
-1.119446 -14.556326 0.459 84 255 127
-1.196395 -14.559768 0.46 84 255 127
-1.119922 -14.618935 0.455 84 255 127
-1.13571 -14.636704 0.454 84 255 127
-1.179445 -14.742364 0.449 84 255 127
-1.213914 -14.569921 0.459 84 255 127
-1.075108 -14.489132 0.462 84 255 127
-1.176658 -14.787556 0.446 84 255 127
-1.125675 -14.669875 0.452 84 255 127
-1.237323 -14.648902 0.455 84 255 127
-1.314895 -14.675594 0.454 84 255 127
-1.094464 -14.564567 0.458 84 255 127
-1.272581 -14.698277 0.452 84 255 127
-1.143818 -14.703279 0.45 84 255 127
-1.151064 -14.7153 0.45 84 255 127
-1.272678 -14.652212 0.455 84 255 127
-1.234683 -14.654737 0.454 84 255 127
-1.103794 -14.556445 0.459 84 255 127
-1.146669 -14.607552 0.456 84 255 127
-1.230403 -14.738847 0.449 84 255 127
-1.28105 -14.6356 0.456 84 255 127
-1.349059 -14.69859 0.453 84 255 127
-1.120745 -14.609537 0.456 84 255 127
-1.22862 -14.739756 0.449 84 255 127
-1.195903 -14.730612 0.449 84 255 127
-1.213889 -14.684411 0.452 84 255 127
-1.142651 -14.608476 0.456 84 255 127
-1.242507 -14.74278 0.449 84 255 127
-1.181134 -14.611315 0.456 84 255 127
-1.109293 -14.573846 0.458 84 255 127
-1.1303 -14.689965 0.451 84 255 127
-1.140487 -14.676918 0.452 84 255 127
-1.213978 -14.755072 0.448 84 255 127
-1.281542 -14.700445 0.452 84 255 127
-1.23252 -14.723179 0.45 84 255 127
-1.150657 -14.661635 0.453 84 255 127
-1.195695 -14.644299 0.455 84 255 127
-1.228981 -14.610504 0.457 84 255 127
-1.163696 -14.788548 0.446 84 255 127
-1.152902 -14.780581 0.446 84 255 127
-1.306758 -14.664028 0.455 84 255 127
-1.142473 -14.702843 0.451 84 255 127
-1.102513 -14.505471 0.462 84 255 127
-1.209383 -14.679973 0.453 84 255 127
-1.103608 -14.53185 0.46 84 255 127
-1.195352 -14.775786 0.447 84 255 127
-1.196497 -14.573183 0.459 84 255 127
-1.292701 -14.638643 0.456 84 255 127
-1.308 -14.651049 0.455 84 255 127
-1.264948 -14.694309 0.452 84 255 127
-1.155707 -14.737625 0.449 84 255 127
-1.223919 -14.591759 0.458 84 255 127
-1.350353 -14.69232 0.453 84 255 127
-1.158099 -14.581525 0.458 84 255 127
-1.114639 -14.571122 0.458 84 255 127
-1.20133 -14.679586 0.453 84 255 127
-1.081091 -14.688103 0.454 84 255 127
-1.087761 -14.624099 0.456 84 255 127
-1.111724 -14.717387 0.451 84 255 127
-1.058001 -14.592124 0.46 84 255 127
-1.047614 -14.637819 0.459 84 255 127
-1.127275 -14.703852 0.45 84 255 127
-1.041275 -14.627582 0.46 84 255 127
-1.011953 -14.594263 0.463 84 255 127
-0.994327 -14.511211 0.467 84 255 127
-1.02654 -14.512756 0.465 84 255 127
-1.078732 -14.612987 0.457 84 255 127
-1.090031 -14.628553 0.456 84 255 127
-1.076241 -14.579463 0.459 84 255 127
-1.006415 -14.512909 0.466 84 255 127
-1.077297 -14.541888 0.46 84 255 127
-1.048297 -14.551053 0.462 84 255 127
-1.0392 -14.530996 0.463 84 255 127
-0.958085 -14.567838 0.468 84 255 127
-1.027079 -14.524827 0.464 84 255 127
-1.045556 -14.54347 0.462 84 255 127
-1.043087 -14.571665 0.461 84 255 127
-0.982647 -14.563179 0.466 84 255 127
-0.976393 -14.564121 0.467 84 255 127
-1.04918 -14.667325 0.457 84 255 127
-1.099513 -14.640556 0.455 84 255 127
-1.058272 -14.6279 0.458 84 255 127
-1.078053 -14.523546 0.46 84 255 127
-1.059978 -14.499085 0.463 84 255 127
-0.941911 -14.558122 0.469 84 255 127
-1.027775 -14.616504 0.461 84 255 127
-1.018359 -14.613444 0.462 84 255 127
-1.017583 -14.570069 0.463 84 255 127
-1.132909 -14.739141 0.449 84 255 127
-1.058311 -14.691854 0.456 84 255 127
-1.093187 -14.573073 0.458 84 255 127
-1.062333 -14.514721 0.462 84 255 127
-0.992584 -14.576073 0.465 84 255 127
-0.972664 -14.603058 0.465 84 255 127
-0.980649 -14.594501 0.465 84 255 127
-1.002266 -14.555428 0.465 84 255 127
-1.020341 -14.579888 0.463 84 255 127
-1.009449 -14.617984 0.462 84 255 127
-1.000263 -14.527267 0.466 84 255 127
-1.084438 -14.7167 0.453 84 255 127
-1.113417 -14.645818 0.454 84 255 127
-0.941037 -14.560812 0.469 84 255 127
-0.931134 -14.552389 0.47 84 255 127
-0.96918 -14.556573 0.467 84 255 127
-0.93068 -14.551498 0.47 84 255 127
-1.066911 -14.587584 0.459 84 255 127
-1.053083 -14.474541 0.464 84 255 127
-1.068774 -14.538375 0.461 84 255 127
-1.097905 -14.723306 0.452 84 255 127
-1.009904 -14.618876 0.462 84 255 127
-1.107753 -14.665539 0.453 84 255 127
-1.106175 -14.693278 0.452 84 255 127
-1.029798 -14.470693 0.466 84 255 127
-1.08311 -14.718498 0.453 84 255 127
-1.053491 -14.528205 0.462 84 255 127
-0.997799 -14.614943 0.463 84 255 127
-1.009428 -14.556268 0.464 84 255 127
-1.10281 -14.662445 0.454 84 255 127
-1.035747 -14.665191 0.459 84 255 127
-1.00659 -14.59475 0.463 84 255 127
-1.02735 -14.560603 0.463 84 255 127
-1.052524 -14.636441 0.458 84 255 127
-1.077955 -14.569611 0.459 84 255 127
-1.111962 -14.748691 0.45 84 255 127
-1.030286 -14.476055 0.466 84 255 127
-1.005694 -14.535724 0.465 84 255 127
-1.131445 -14.723051 0.449 84 255 127
-1.012924 -14.545507 0.464 84 255 127
-0.976172 -14.535053 0.468 84 255 127
-1.133732 -14.729742 0.449 84 255 127
-1.061764 -14.557659 0.46 84 255 127
-1.107622 -14.707132 0.452 84 255 127
-1.027677 -14.662569 0.459 84 255 127
-1.107498 -14.631999 0.454 84 255 127
-1.103387 -14.73847 0.451 84 255 127
-1.046375 -14.474591 0.465 84 255 127
-1.127211 -14.754389 0.449 84 255 127
-1.102543 -14.686151 0.453 84 255 127
-1.098406 -14.671424 0.454 84 255 127
-0.960877 -14.582128 0.467 84 255 127
-1.064378 -14.666315 0.456 84 255 127
-1.119272 -14.710174 0.451 84 255 127
-1.084561 -14.556144 0.459 84 255 127
-1.034533 -14.62316 0.46 84 255 127
-1.101749 -14.640539 0.455 84 255 127
-1.093904 -14.726466 0.452 84 255 127
-1.049129 -14.660617 0.458 84 255 127
-1.06526 -14.546899 0.461 84 255 127
-1.03909 -14.634307 0.459 84 255 127
-0.97725 -14.559196 0.467 84 255 127
-1.06826 -14.647502 0.457 84 255 127
-1.076691 -14.520873 0.461 84 255 127
-1.080149 -14.681848 0.455 84 255 127
-1.007799 -14.577299 0.464 84 255 127
-1.060004 -14.620284 0.458 84 255 127
-0.989504 -14.523771 0.467 84 255 127
-1.093803 -14.713051 0.453 84 255 127
-1.069219 -14.655992 0.456 84 255 127
-1.044347 -14.560922 0.462 84 255 127
-1.069732 -14.546865 0.46 84 255 127
-1.034512 -14.561444 0.462 84 255 127
-1.134526 -14.775353 0.447 84 255 127
-1.10693 -14.674937 0.453 84 255 127
-0.98465 -14.591339 0.465 84 255 127
-1.048255 -14.663307 0.458 84 255 127
-0.984879 -14.503681 0.468 84 255 127
-1.131195 -14.748992 0.449 84 255 127
-0.960639 -14.550824 0.468 84 255 127
-1.081681 -14.706882 0.454 84 255 127
-1.061221 -14.486107 0.463 84 255 127
-1.029812 -14.649136 0.46 84 255 127
-1.005173 -14.525888 0.466 84 255 127
-1.076114 -14.680537 0.455 84 255 127
-1.029064 -14.550752 0.463 84 255 127
-1.099293 -14.611488 0.456 84 255 127
-1.030261 -14.590546 0.462 84 255 127
-0.98846 -14.504101 0.468 84 255 127
-1.05599 -14.680691 0.457 84 255 127
-1.034495 -14.559208 0.462 84 255 127
-1.044801 -14.561813 0.462 84 255 127
-1.09225 -14.6263 0.456 84 255 127
-1.0721 -14.505256 0.462 84 255 127
-1.013548 -14.568758 0.464 84 255 127
-1.021533 -14.560201 0.463 84 255 127
-1.050512 -14.489319 0.464 84 255 127
-1.036587 -14.658029 0.459 84 255 127
-1.093734 -14.704106 0.453 84 255 127
-1.007056 -14.538397 0.465 84 255 127
-1.004404 -14.601475 0.463 84 255 127
-1.072911 -14.553102 0.46 84 255 127
-1.013149 -14.634056 0.461 84 255 127
-1.129192 -14.720832 0.45 84 255 127
-1.049434 -14.465177 0.465 84 255 127
-1.003412 -14.588513 0.464 84 255 127
-1.05677 -14.547858 0.461 84 255 127
-1.016149 -14.498972 0.466 84 255 127
-0.987998 -14.619937 0.464 84 255 127
-0.985889 -14.518879 0.467 84 255 127
-0.973113 -14.544468 0.467 84 255 127
-1.00533 -14.605494 0.463 84 255 127
-1.118297 -14.699448 0.451 84 255 127
-1.031271 -14.605744 0.461 84 255 127
-0.940515 -14.550977 0.47 84 255 127
-1.106692 -14.643633 0.454 84 255 127
-1.000365 -14.540683 0.466 84 255 127
-1.049702 -14.441471 0.465 84 255 127
-1.019598 -14.540984 0.464 84 255 127
-1.087069 -14.591904 0.457 84 255 127
-1.003662 -14.562572 0.465 84 255 127
-1.051624 -14.517933 0.463 84 255 127
-1.034737 -14.649993 0.459 84 255 127
-1.026608 -14.5217 0.464 84 255 127
-1.133261 -14.726615 0.449 84 255 127
-1.098007 -14.736721 0.451 84 255 127
-1.077874 -14.617912 0.457 84 255 127
-1.010255 -14.60635 0.463 84 255 127
-1.017651 -14.579013 0.463 84 255 127
-1.077336 -14.605842 0.458 84 255 127
-1.082958 -14.698375 0.454 84 255 127
-0.983551 -14.505481 0.468 84 255 127
-0.974373 -14.533725 0.468 84 255 127
-1.043189 -14.585081 0.461 84 255 127
-0.948267 -14.570596 0.468 84 255 127
-1.064386 -14.549588 0.461 84 255 127
-0.991761 -14.585471 0.465 84 255 127
-1.00412 -14.622944 0.462 84 255 127
-0.996301 -14.594381 0.464 84 255 127
-1.078197 -14.660397 0.456 84 255 127
-1.045306 -14.569412 0.461 84 255 127
-1.015024 -14.527602 0.465 84 255 127
-1.008741 -14.583553 0.463 84 255 127
-1.000467 -14.554099 0.465 84 255 127
-1.054628 -14.678018 0.457 84 255 127
-1.124572 -14.760222 0.449 84 255 127
-1.107669 -14.654359 0.454 84 255 127
-1.019747 -14.501627 0.466 84 255 127
-1.116515 -14.700356 0.451 84 255 127
-0.966995 -14.563298 0.467 84 255 127
-0.998872 -14.579603 0.464 84 255 127
-1.040945 -14.466136 0.465 84 255 127
-1.050275 -14.458014 0.465 84 255 127
-1.085291 -14.652292 0.455 84 255 127
-1.006233 -14.547794 0.465 84 255 127
-1.05467 -14.565763 0.461 84 255 127
-0.935606 -14.552355 0.47 84 255 127
-1.006271 -14.611747 0.463 84 255 127
-1.153021 -14.796232 0.445 84 255 127
-1.030778 -14.540899 0.463 84 255 127
-1.030863 -14.55208 0.463 84 255 127
-0.949056 -14.556726 0.469 84 255 127
-1.045272 -14.564939 0.461 84 255 127
-1.106833 -14.721003 0.451 84 255 127
-1.002262 -14.495947 0.467 84 255 127
-0.999559 -14.552318 0.465 84 255 127
-1.093208 -14.63479 0.455 84 255 127
-1.104227 -14.731308 0.451 84 255 127
-1.000858 -14.605528 0.463 84 255 127
-1.050945 -14.664182 0.457 84 255 127
-1.017066 -14.619716 0.462 84 255 127
-0.969163 -14.554337 0.467 84 255 127
-1.054997 -14.667728 0.457 84 255 127
-0.985574 -14.595357 0.465 84 255 127
-1.059847 -14.540679 0.461 84 255 127
-1.030634 -14.639738 0.46 84 255 127
-1.154819 -14.79756 0.445 84 255 127
-1.042442 -14.486696 0.464 84 255 127
-1.023867 -14.514119 0.465 84 255 127
-0.99132 -14.527335 0.467 84 255 127
-0.999814 -14.585857 0.464 84 255 127
-1.093429 -14.663858 0.454 84 255 127
-1.137216 -14.776227 0.447 84 255 127
-1.099598 -14.651736 0.454 84 255 127
-1.027817 -14.50425 0.465 84 255 127
-1.050784 -14.525094 0.462 84 255 127
-0.946451 -14.567032 0.469 84 255 127
-0.987925 -14.551511 0.466 84 255 127
-1.084837 -14.651402 0.455 84 255 127
-1.092593 -14.730502 0.452 84 255 127
-1.081914 -14.678704 0.455 84 255 127
-0.958823 -14.54726 0.468 84 255 127
-1.034962 -14.502853 0.464 84 255 127
-1.069529 -14.520033 0.461 84 255 127
-0.998605 -14.603309 0.463 84 255 127
-1.054399 -14.529987 0.462 84 255 127
-1.10138 -14.650828 0.454 84 255 127
-1.065965 -14.52185 0.461 84 255 127
-1.048615 -14.534056 0.462 84 255 127
-1.023918 -14.520826 0.465 84 255 127
-1.007196 -14.615765 0.462 84 255 127
-1.002856 -14.574206 0.464 84 255 127
-1.061569 -14.649789 0.457 84 255 127
-1.024189 -14.556603 0.463 84 255 127
-1.094197 -14.588271 0.457 84 255 127
-1.06425 -14.531701 0.461 84 255 127
-1.012946 -14.607224 0.462 84 255 127
-1.05386 -14.517916 0.462 84 255 127
-1.125544 -14.711469 0.45 84 255 127
-1.016637 -14.504334 0.466 84 255 127
-0.973601 -14.549831 0.467 84 255 127
-1.016336 -14.523568 0.465 84 255 127
-1.060402 -14.554986 0.461 84 255 127
-1.06619 -14.610398 0.458 84 255 127
-1.02738 -14.505594 0.465 84 255 127
-0.992143 -14.517937 0.467 84 255 127
-0.950804 -14.551346 0.469 84 255 127
-1.101919 -14.662899 0.454 84 255 127
-0.966757 -14.531994 0.468 84 255 127
-1.047113 -14.454014 0.465 84 255 127
-1.032136 -14.484091 0.465 84 255 127
-1.046541 -14.673159 0.457 84 255 127
-1.092963 -14.720213 0.452 84 255 127
-1.047262 -14.650345 0.458 84 255 127
-1.061119 -14.472691 0.464 84 255 127
-1.063949 -14.550934 0.461 84 255 127
-1.140343 -14.775756 0.447 84 255 127
-1.100235 -14.617743 0.455 84 255 127
-1.060177 -14.466437 0.464 84 255 127
-1.07737 -14.610313 0.457 84 255 127
-1.057559 -14.533988 0.462 84 255 127
-1.065783 -14.556734 0.46 84 255 127
-0.952285 -14.569671 0.468 84 255 127
-1.030999 -14.569967 0.462 84 255 127
-1.058561 -14.665913 0.457 84 255 127
-0.992007 -14.500049 0.468 84 255 127
-1.043095 -14.454938 0.466 84 255 127
-1.118967 -14.669927 0.452 84 255 127
-1.016743 -14.577231 0.463 84 255 127
-1.000102 -14.62387 0.463 84 255 127
-1.030354 -14.484999 0.465 84 255 127
-1.031419 -14.566386 0.462 84 255 127
-1.037351 -14.522961 0.464 84 255 127
-1.042947 -14.494295 0.464 84 255 127
-1.120839 -14.739679 0.45 84 255 127
-1.058747 -14.45482 0.464 84 255 127
-0.97271 -14.550285 0.467 84 255 127
-1.11088 -14.665068 0.453 84 255 127
-0.976325 -14.555177 0.467 84 255 127
-1.050775 -14.641821 0.458 84 255 127
-0.961848 -14.533373 0.469 84 255 127
-1.124169 -14.76604 0.448 84 255 127
-1.080459 -14.545889 0.46 84 255 127
-0.953193 -14.571453 0.468 84 255 127
-1.059583 -14.623865 0.458 84 255 127
-1.088554 -14.669709 0.455 84 255 127
-1.055294 -14.589014 0.46 84 255 127
-0.989101 -14.529589 0.467 84 255 127
-1.009373 -14.490079 0.467 84 255 127
-1.078753 -14.674703 0.455 84 255 127
-1.062176 -14.670804 0.456 84 255 127
-1.051128 -14.629296 0.459 84 255 127
-1.131331 -14.76688 0.448 84 255 127
-1.036651 -14.607491 0.46 84 255 127
-1.040003 -14.69557 0.462 84 255 127
-0.959773 -14.672476 0.482 84 255 127
-0.970093 -14.617836 0.469 84 255 127
-1.077781 -14.723458 0.455 84 255 127
-0.981527 -14.651291 0.471 84 255 127
-0.973894 -14.647325 0.473 84 255 127
-1.057555 -14.710196 0.459 84 255 127
-1.059087 -14.735228 0.463 84 255 127
-1.005351 -14.667211 0.467 84 255 127
-0.993836 -14.682056 0.473 84 255 127
-1.033447 -14.715745 0.467 84 255 127
-1.083246 -14.736386 0.455 84 255 127
-1.087769 -14.743061 0.455 84 255 127
-0.996559 -14.687402 0.473 84 255 127
-1.024805 -14.69658 0.466 84 255 127
-1.027308 -14.672857 0.461 84 255 127
-1.01144 -14.70339 0.472 84 255 127
-0.956893 -14.587525 0.467 84 255 127
-0.940906 -14.602405 0.475 84 255 127
-1.083246 -14.736386 0.455 84 255 127
-0.943749 -14.623403 0.478 84 255 127
-1.006429 -14.691353 0.471 84 255 127
-0.927859 -14.592217 0.477 84 255 127
-0.967742 -14.661682 0.477 84 255 127
-1.075227 -14.740472 0.459 84 255 127
-1.095771 -14.736739 0.452 84 255 127
-0.931461 -14.654354 0.487 84 255 127
-1.077548 -14.751636 0.46 84 255 127
-1.040003 -14.69557 0.461 84 255 127
-1.013608 -14.694429 0.469 84 255 127
-1.016412 -14.651473 0.461 84 255 127
-0.970114 -14.679554 0.48 84 255 127
-0.991379 -14.653005 0.469 84 255 127
-1.072384 -14.719475 0.456 84 255 127
-1.031075 -14.697874 0.464 84 255 127
-1.025882 -14.720721 0.47 84 255 127
-0.937914 -14.620764 0.479 84 255 127
-0.928075 -14.561805 0.472 84 255 127
-1.018233 -14.714519 0.472 84 255 127
-0.934974 -14.64583 0.485 84 255 127
-0.918363 -14.637459 0.488 84 255 127
-0.946926 -14.62964 0.478 84 255 127
-0.99 -14.648097 0.468 84 255 127
-0.981289 -14.619987 0.466 84 255 127
-0.972299 -14.672829 0.478 84 255 127
-1.100765 -14.74654 0.452 84 255 127
-0.946324 -14.668105 0.485 84 255 127
-0.926327 -14.567184 0.473 84 255 127
-1.023057 -14.70196 0.468 84 255 127
-1.062884 -14.705235 0.456 84 255 127
-1.027058 -14.698798 0.466 84 255 127
-1.062027 -14.710161 0.457 84 255 127
-1.020668 -14.681852 0.465 84 255 127
-0.950134 -14.580868 0.468 84 255 127
-0.933493 -14.627505 0.482 84 255 127
-1.013103 -14.68683 0.468 84 255 127
-1.046897 -14.720115 0.464 84 255 127
-0.913488 -14.643311 0.491 84 255 127
-0.919169 -14.625826 0.486 84 255 127
-0.97134 -14.664338 0.477 84 255 127
-1.030889 -14.673278 0.46 84 255 127
-1.057708 -14.730319 0.462 84 255 127
-0.922495 -14.592705 0.479 84 255 127
-0.968383 -14.687169 0.482 84 255 127
-1.012853 -14.71277 0.473 84 255 127
-0.94368 -14.614459 0.476 84 255 127
-1.035111 -14.699185 0.464 84 255 127
-1.139991 -14.788281 0.448 84 255 127
-1.072487 -14.73289 0.458 84 255 127
-1.007167 -14.670774 0.467 84 255 127
-1.097133 -14.739411 0.452 84 255 127
-0.92914 -14.643191 0.486 84 255 127
-1.016179 -14.679651 0.466 84 255 127
-0.921808 -14.619991 0.484 84 255 127
-0.952675 -14.621099 0.475 84 255 127
-0.939981 -14.598387 0.474 84 255 127
-0.950359 -14.669416 0.484 84 255 127
-1.090107 -14.756459 0.457 84 255 127
-0.951954 -14.643912 0.479 84 255 127
-1.122908 -14.776783 0.451 84 255 127
-0.941042 -14.620293 0.478 84 255 127
-1.044072 -14.701353 0.461 84 255 127
-0.965807 -14.642466 0.474 84 255 127
-0.958963 -14.624628 0.473 84 255 127
-1.025543 -14.676002 0.462 84 255 127
-0.935509 -14.598421 0.476 84 255 127
-0.946825 -14.616223 0.476 84 255 127
-0.923705 -14.575254 0.475 84 255 127
-0.955586 -14.651041 0.479 84 255 127
-1.113897 -14.767906 0.452 84 255 127
-1.031194 -14.713526 0.467 84 255 127
-1.073496 -14.748089 0.461 84 255 127
-0.932483 -14.612308 0.479 84 255 127
-0.92984 -14.558661 0.47 84 255 127
-0.956744 -14.626882 0.474 84 255 127
-1.039145 -14.700496 0.463 84 255 127
-0.937495 -14.624345 0.48 84 255 127
-0.974081 -14.671921 0.477 84 255 127
-1.091736 -14.735428 0.453 84 255 127
-0.938402 -14.626127 0.48 84 255 127
-0.962901 -14.672006 0.481 84 255 127
-0.971102 -14.633034 0.471 84 255 127
-0.968264 -14.671517 0.479 84 255 127
-1.062584 -14.724468 0.46 84 255 127
-0.939548 -14.659212 0.486 84 255 127
-1.054548 -14.726318 0.462 84 255 127
-0.942255 -14.662322 0.485 84 255 127
-0.965625 -14.677351 0.481 84 255 127
-1.064314 -14.716852 0.458 84 255 127
-1.045853 -14.700445 0.46 84 255 127
-0.975574 -14.633 0.47 84 255 127
-0.940269 -14.636399 0.481 84 255 127
-0.977696 -14.676812 0.477 84 255 127
-0.967351 -14.610253 0.468 84 255 127
-1.024147 -14.668857 0.462 84 255 127
-0.929908 -14.567605 0.472 84 255 127
-0.923442 -14.65844 0.49 84 255 127
-1.008762 -14.64527 0.462 84 255 127
-0.980887 -14.625804 0.467 84 255 127
-0.96305 -14.632648 0.474 84 255 127
-0.954088 -14.63048 0.476 84 255 127
-1.008767 -14.704752 0.473 84 255 127
-0.93813 -14.59035 0.474 84 255 127
-0.942556 -14.64309 0.482 84 255 127
-1.000106 -14.683351 0.471 84 255 127
-1.01682 -14.705138 0.47 84 255 127
-1.040711 -14.730001 0.468 84 255 127
-0.953028 -14.608574 0.472 84 255 127
-0.925525 -14.6383 0.486 84 255 127
-0.979643 -14.638783 0.469 84 255 127
-1.062584 -14.724468 0.46 84 255 127
-0.999483 -14.660099 0.467 84 255 127
-0.953702 -14.638533 0.477 84 255 127
-0.937609 -14.580516 0.472 84 255 127
-0.99042 -14.644515 0.467 84 255 127
-0.982049 -14.661126 0.473 84 255 127
-0.989813 -14.6235 0.464 84 255 127
-0.957402 -14.654605 0.479 84 255 127
-0.966461 -14.610707 0.469 84 255 127
-1.122875 -14.772311 0.45 84 255 127
-1.068349 -14.718163 0.457 84 255 127
-0.997116 -14.70171 0.476 84 255 127
-1.048395 -14.740676 0.465 84 255 127
-0.894459 -14.669842 0.491 84 255 127
-1.073229 -14.771793 0.457 84 255 127
-0.975884 -14.732729 0.472 84 255 127
-0.898948 -14.672043 0.49 84 255 127
-1.001405 -14.736561 0.469 84 255 127
-0.928622 -14.692837 0.484 84 255 127
-1.064603 -14.754865 0.461 84 255 127
-1.118034 -14.782634 0.451 84 255 127
-1.050682 -14.747367 0.464 84 255 127
-1.009021 -14.738292 0.469 84 255 127
-0.949757 -14.707883 0.479 84 255 127
-0.921143 -14.708995 0.481 84 255 127
-1.10186 -14.772918 0.455 84 255 127
-0.88565 -14.687798 0.488 84 255 127
-0.970368 -14.713094 0.476 84 255 127
-1.109476 -14.774649 0.454 84 255 127
-0.945955 -14.678395 0.485 84 255 127
-0.991871 -14.71785 0.474 84 255 127
-0.882523 -14.688268 0.488 84 255 127
-0.946596 -14.703882 0.48 84 255 127
-0.909084 -14.652288 0.493 84 255 127
-0.890258 -14.705651 0.484 84 255 127
-1.00729 -14.745908 0.467 84 255 127
-0.887988 -14.701196 0.485 84 255 127
-0.893687 -14.685947 0.488 84 255 127
-0.959961 -14.697072 0.48 84 255 127
-0.905134 -14.662158 0.492 84 255 127
-1.083047 -14.769035 0.457 84 255 127
-0.946294 -14.723115 0.476 84 255 127
-0.942259 -14.721804 0.477 84 255 127
-0.873563 -14.6861 0.489 84 255 127
-1.07311 -14.756142 0.46 84 255 127
-0.984777 -14.725953 0.473 84 255 127
-0.882018 -14.680669 0.489 84 255 127
-0.893385 -14.705181 0.484 84 255 127
-1.080374 -14.770397 0.457 84 255 127
-0.90258 -14.679172 0.488 84 255 127
-0.96307 -14.694365 0.481 84 255 127
-1.054212 -14.741079 0.465 84 255 127
-0.946579 -14.701646 0.481 84 255 127
-1.082088 -14.760545 0.459 84 255 127
-0.96946 -14.711311 0.477 84 255 127
-1.146313 -14.796284 0.447 84 255 127
-0.951657 -14.722627 0.476 84 255 127
-0.878926 -14.685612 0.489 84 255 127
-0.88977 -14.700288 0.485 84 255 127
-1.053389 -14.750478 0.463 84 255 127
-1.050682 -14.747367 0.464 84 255 127
-0.961861 -14.711816 0.477 84 255 127
-0.921596 -14.709886 0.48 84 255 127
-0.990442 -14.706233 0.476 84 255 127
-0.986878 -14.708049 0.476 84 255 127
-1.021898 -14.726119 0.47 84 255 127
-0.940995 -14.673066 0.487 84 255 127
-1.07538 -14.760596 0.459 84 255 127
-1.019815 -14.74626 0.466 84 255 127
-1.119832 -14.783962 0.451 84 255 127
-0.923344 -14.704506 0.482 84 255 127
-0.952277 -14.686397 0.483 84 255 127
-0.981179 -14.723297 0.473 84 255 127
-0.929917 -14.686567 0.485 84 255 127
-1.068235 -14.761992 0.459 84 255 127
-0.946948 -14.691358 0.483 84 255 127
-1.02923 -14.749319 0.465 84 255 127
-0.934507 -14.702185 0.481 84 255 127
-0.929229 -14.713853 0.479 84 255 127
-1.00749 -14.713259 0.474 84 255 127
-0.912279 -14.660762 0.492 84 255 127
-1.009021 -14.738292 0.468 84 255 127
-0.989283 -14.730392 0.471 84 255 127
-0.892274 -14.676566 0.49 84 255 127
-0.986474 -14.713865 0.475 84 255 127
-0.96798 -14.692986 0.481 84 255 127
-0.895435 -14.680568 0.489 84 255 127
-1.047657 -14.761254 0.461 84 255 127
-1.043015 -14.738928 0.466 84 255 127
-0.942408 -14.682447 0.485 84 255 127
-1.047504 -14.74113 0.465 84 255 127
-0.946748 -14.724006 0.476 84 255 127
-1.110434 -14.783138 0.452 84 255 127
-0.93777 -14.719603 0.477 84 255 127
-0.922522 -14.713903 0.48 84 255 127
-0.882506 -14.686032 0.488 84 255 127
-0.907489 -14.677793 0.488 84 255 127
-0.969864 -14.705494 0.478 84 255 127
-1.107745 -14.782265 0.452 84 255 127
-0.920235 -14.707212 0.481 84 255 127
-1.078155 -14.772651 0.456 84 255 127
-0.959676 -14.718541 0.476 84 255 127
-1.092865 -14.766277 0.457 84 255 127
-1.050665 -14.745131 0.464 84 255 127
-0.964131 -14.716271 0.476 84 255 127
-1.121398 -14.342091 0.657 84 255 127
-1.057593 -14.302772 0.688 84 255 127
-1.136783 -14.365677 0.661 84 255 127
-1.077081 -14.336613 0.695 84 255 127
-1.063614 -14.330007 0.703 84 255 127
-1.109127 -14.375278 0.694 84 255 127
-1.040562 -14.297981 0.7 84 255 127
-1.146011 -14.344139 0.634 84 255 127
-1.127317 -14.355909 0.662 84 255 127
-1.069634 -14.357242 0.718 84 255 127
-1.073886 -14.328139 0.691 84 255 127
-1.093272 -14.348565 0.689 84 255 127
-1.114808 -14.357793 0.676 84 255 127
-1.074709 -14.318742 0.683 84 255 127
-1.067802 -14.351442 0.716 84 255 127
-1.058603 -14.317969 0.699 84 255 127
-1.104537 -14.359659 0.686 84 255 127
-1.064424 -14.377853 0.74 84 255 127
-1.099611 -14.358804 0.691 84 255 127
-1.117295 -14.331836 0.652 84 255 127
-1.08485 -14.358468 0.705 84 255 127
-1.037032 -14.304269 0.708 84 255 127
-1.115666 -14.352867 0.67 84 255 127
-1.099072 -14.346732 0.681 84 255 127
-1.166775 -14.369474 0.634 84 255 127
-1.053681 -14.376594 0.749 84 255 127
-1.152922 -14.370921 0.648 84 255 127
-1.091808 -14.332476 0.677 84 255 127
-1.082779 -14.321363 0.678 84 255 127
-1.040227 -14.312743 0.713 84 255 127
-1.11511 -14.33856 0.66 84 255 127
-1.157327 -14.361942 0.637 84 255 127
-1.126931 -14.363963 0.669 84 255 127
-1.183739 -14.36532 0.615 84 255 127
-1.068591 -14.337572 0.704 84 255 127
-1.080831 -14.359393 0.709 84 255 127
-1.11491 -14.371209 0.686 84 255 127
-1.152486 -14.372266 0.65 84 255 127
-1.080865 -14.363865 0.713 84 255 127
-1.06434 -14.366674 0.731 84 255 127
-1.130779 -14.340677 0.646 84 255 127
-1.068387 -14.31074 0.683 84 255 127
-1.061212 -14.367145 0.734 84 255 127
-1.101092 -14.377129 0.704 84 255 127
-1.093204 -14.339621 0.682 84 255 127
-1.05156 -14.332782 0.717 84 255 127
-1.053932 -14.350653 0.729 84 255 127
-1.092618 -14.380323 0.715 84 255 127
-1.143996 -14.373225 0.66 84 255 127
-1.117095 -14.364484 0.679 84 255 127
-1.112959 -14.349757 0.671 84 255 127
-1.098822 -14.372673 0.702 84 255 127
-1.064789 -14.308084 0.685 84 255 127
-1.099123 -14.35344 0.687 84 255 127
-1.054488 -14.36496 0.74 84 255 127
-1.125433 -14.343402 0.654 84 255 127
-1.039637 -14.293963 0.699 84 255 127
-1.125602 -14.365762 0.671 84 255 127
-1.111546 -14.340376 0.665 84 255 127
-1.049778 -14.33369 0.72 84 255 127
-1.181503 -14.365337 0.616 84 255 127
-1.099712 -14.372219 0.701 84 255 127
-1.119247 -14.353288 0.667 84 255 127
-1.041941 -14.302891 0.703 84 255 127
-1.048802 -14.322964 0.712 84 255 127
-1.155914 -14.352562 0.631 84 255 127
-1.084544 -14.31822 0.674 84 255 127
-1.063932 -14.31301 0.69 84 255 127
-1.07431 -14.38404 0.735 84 255 127
-1.080123 -14.324962 0.683 84 255 127
-1.05985 -14.364471 0.733 84 255 127
-1.080526 -14.319144 0.679 84 255 127
-1.133235 -14.369728 0.668 84 255 127
-1.117567 -14.367611 0.68 84 255 127
-1.106569 -14.332811 0.664 84 255 127
-1.121181 -14.372503 0.681 84 255 127
-1.148451 -14.370955 0.653 84 255 127
-1.081939 -14.328526 0.684 84 255 127
-1.113446 -14.35512 0.675 84 255 127
-1.099356 -14.325263 0.665 84 255 127
-1.096938 -14.360166 0.694 84 255 127
-1.066605 -14.311647 0.686 84 255 127
-1.043405 -14.31898 0.714 84 255 127
-1.180646 -14.370263 0.622 84 255 127
-1.106857 -14.370824 0.694 84 255 127
-1.063194 -14.333588 0.706 84 255 127
-1.051072 -14.327418 0.714 84 255 127
-1.051458 -14.319366 0.706 84 255 127
-1.124474 -14.334911 0.648 84 255 127
-1.059566 -14.385941 0.751 84 255 127
-1.132396 -14.376891 0.673 84 255 127
-1.037974 -14.310523 0.712 84 255 127
-1.130931 -14.360802 0.661 84 255 127
-1.069719 -14.368422 0.727 84 255 127
-1.18552 -14.364412 0.612 84 255 127
-1.066525 -14.359949 0.724 84 255 127
-1.057513 -14.351072 0.726 84 255 127
-1.103158 -14.354752 0.684 84 255 127
-1.072257 -14.349172 0.71 84 255 127
-1.054954 -14.308605 0.695 84 255 127
-1.064068 -14.330897 0.703 84 255 127
-1.058807 -14.344802 0.719 84 255 127
-1.08678 -14.318203 0.671 84 255 127
-1.127788 -14.359036 0.664 84 255 127
-1.135404 -14.360767 0.658 84 255 127
-1.097981 -14.379835 0.709 84 255 127
-1.054954 -14.308605 0.695 84 255 127
-1.09174 -14.323532 0.671 84 255 127
-1.096263 -14.330206 0.671 84 255 127
-1.069465 -14.334882 0.701 84 255 127
-1.072541 -14.327703 0.693 84 255 127
-1.174778 -14.363153 0.622 84 255 127
-1.074475 -14.346919 0.706 84 255 127
-1.067649 -14.331317 0.7 84 255 127
-1.041118 -14.312289 0.711 84 255 127
-1.151056 -14.360648 0.643 84 255 127
-1.028882 -14.349949 0.751 84 255 127
-0.956133 -14.310698 0.783 84 255 127
-1.041576 -14.372661 0.757 84 255 127
-1.026306 -14.305245 0.719 84 255 127
-1.020256 -14.333019 0.745 84 255 127
-0.952989 -14.308932 0.785 84 255 127
-1.017752 -14.356741 0.765 84 255 127
-1.003628 -14.322412 0.752 84 255 127
-1.00773 -14.332666 0.755 84 255 127
-0.962875 -14.315119 0.782 84 255 127
-0.996652 -14.346168 0.776 84 255 127
-0.984798 -14.316294 0.763 84 255 127
-0.980729 -14.310511 0.762 84 255 127
-0.992278 -14.300138 0.745 84 255 127
-0.972171 -14.302526 0.764 84 255 127
-1.018758 -14.312458 0.731 84 255 127
-0.991926 -14.312662 0.755 84 255 127
-1.041003 -14.356117 0.745 84 255 127
-1.017731 -14.295025 0.718 84 255 127
-1.034397 -14.369584 0.761 84 255 127
-1.036901 -14.345862 0.741 84 255 127
-1.023162 -14.30348 0.72 84 255 127
-1.012873 -14.303111 0.729 84 255 127
-0.988816 -14.31537 0.759 84 255 127
-1.039994 -14.340919 0.734 84 255 127
-1.006653 -14.308525 0.738 84 255 127
-1.006976 -14.351009 0.771 84 255 127
-1.004184 -14.336719 0.762 84 255 127
-0.986749 -14.337746 0.777 84 255 127
-1.036413 -14.3405 0.737 84 255 127
-1.002164 -14.306323 0.74 84 255 127
-0.984259 -14.304223 0.754 84 255 127
-1.00978 -14.308054 0.735 84 255 127
-0.988396 -14.31895 0.762 84 255 127
-1.017816 -14.306204 0.727 84 255 127
-1.001074 -14.339426 0.767 84 255 127
-1.016925 -14.306658 0.728 84 255 127
-0.980292 -14.311855 0.764 84 255 127
-1.009598 -14.342939 0.762 84 255 127
-0.994094 -14.3037 0.745 84 255 127
-1.02096 -14.307969 0.726 84 255 127
-1.030714 -14.355748 0.754 84 255 127
-0.992834 -14.314444 0.755 84 255 127
-1.033421 -14.358858 0.753 84 255 127
-1.033892 -14.361985 0.756 84 255 127
-1.050974 -14.373484 0.749 84 255 127
-1.015482 -14.352285 0.764 84 255 127
-0.965026 -14.303921 0.771 84 255 127
-0.981302 -14.327054 0.775 84 255 127
-1.01205 -14.312509 0.737 84 255 127
-0.999928 -14.30634 0.743 84 255 127
-1.000602 -14.336299 0.765 84 255 127
-1.020188 -14.324075 0.739 84 255 127
-0.981824 -14.336889 0.782 84 255 127
-0.993963 -14.345294 0.778 84 255 127
-0.984293 -14.308695 0.758 84 255 127
-1.006454 -14.341173 0.764 84 255 127
-1.017333 -14.360322 0.769 84 255 127
-1.040265 -14.376695 0.761 84 255 127
-1.022156 -14.347763 0.755 84 255 127
-1.022997 -14.340601 0.749 84 255 127
-1.001999 -14.343444 0.769 84 255 127
-1.046553 -14.380226 0.758 84 255 127
-1.032225 -14.319064 0.724 84 255 127
-1.023298 -14.321368 0.733 84 255 127
-1.021953 -14.320931 0.734 84 255 127
-0.985337 -14.328364 0.772 84 255 127
-1.037036 -14.36375 0.754 84 255 127
-1.039676 -14.357917 0.747 84 255 127
-1.016607 -14.323655 0.742 84 255 127
-0.993509 -14.344403 0.778 84 255 127
-1.044483 -14.343122 0.732 84 255 127
-1.015682 -14.319637 0.739 84 255 127
-1.035908 -14.332901 0.731 84 255 127
-0.940163 -14.327813 0.795 84 255 127
-0.959061 -14.342875 0.788 84 255 127
-0.926916 -14.350275 0.795 84 255 127
-0.852581 -14.455491 0.801 84 255 127
-0.98092 -14.394588 0.775 84 255 127
-0.909169 -14.427779 0.79 84 255 127
-0.920684 -14.412934 0.789 84 255 127
-1.032246 -14.380781 0.763 84 255 127
-0.994705 -14.384196 0.773 84 255 127
-1.015266 -14.382699 0.767 84 255 127
-0.950503 -14.33489 0.791 84 255 127
-1.023637 -14.366089 0.767 84 255 127
-0.899283 -14.421595 0.793 84 255 127
-0.862836 -14.451387 0.799 84 255 127
-0.916314 -14.426384 0.788 84 255 127
-0.91653 -14.395971 0.792 84 255 127
-0.892222 -14.43417 0.794 84 255 127
-0.869493 -14.444629 0.798 84 255 127
-1.025135 -14.38665 0.764 84 255 127
-0.917625 -14.422349 0.788 84 255 127
-0.98882 -14.37485 0.775 84 255 127
-0.969269 -14.391545 0.778 84 255 127
-1.007935 -14.359499 0.772 84 255 127
-0.966948 -14.380383 0.781 84 255 127
-1.01513 -14.364811 0.77 84 255 127
-0.937766 -14.424432 0.783 84 255 127
-0.917217 -14.368685 0.796 84 255 127
-0.93995 -14.417707 0.783 84 255 127
-0.974598 -14.386585 0.778 84 255 127
-1.00311 -14.372058 0.772 84 255 127
-0.887733 -14.431968 0.795 84 255 127
-0.875747 -14.443686 0.797 84 255 127
-0.942382 -14.325561 0.795 84 255 127
-0.955951 -14.345582 0.788 84 255 127
-1.013989 -14.391206 0.767 84 255 127
-0.910895 -14.360682 0.798 84 255 127
-0.917238 -14.430403 0.787 84 255 127
-0.980143 -14.351213 0.781 84 255 127
-0.932805 -14.419104 0.785 84 255 127
-0.977021 -14.411165 0.774 84 255 127
-0.911184 -14.398695 0.793 84 255 127
-0.951114 -14.415386 0.78 84 255 127
-0.879697 -14.433818 0.797 84 255 127
-0.968917 -14.404071 0.777 84 255 127
-0.958085 -14.33215 0.789 84 255 127
-0.902439 -14.366114 0.8 84 255 127
-0.917489 -14.404462 0.791 84 255 127
-1.012054 -14.37199 0.77 84 255 127
-0.921082 -14.347635 0.797 84 255 127
-1.036701 -14.378511 0.762 84 255 127
-0.876167 -14.440105 0.797 84 255 127
-0.934651 -14.367658 0.791 84 255 127
-0.966609 -14.335663 0.787 84 255 127
-1.015686 -14.379118 0.768 84 255 127
-1.009097 -14.394821 0.767 84 255 127
-0.930684 -14.375291 0.791 84 255 127
-0.96027 -14.325424 0.79 84 255 127
-0.986754 -14.397227 0.773 84 255 127
-0.868602 -14.445083 0.798 84 255 127
-0.851236 -14.455053 0.802 84 255 127
-0.952807 -14.343818 0.789 84 255 127
-0.932551 -14.385563 0.789 84 255 127
-0.9193 -14.348544 0.798 84 255 127
-0.879277 -14.437398 0.797 84 255 127
-0.928533 -14.386488 0.79 84 255 127
-0.871577 -14.424488 0.801 84 255 127
-0.888807 -14.396628 0.8 84 255 127
-0.948407 -14.412276 0.781 84 255 127
-0.96809 -14.353988 0.784 84 255 127
-0.961903 -14.363873 0.784 84 255 127
-1.042081 -14.38026 0.76 84 255 127
-0.877933 -14.436962 0.797 84 255 127
-0.916678 -14.356614 0.797 84 255 127
-1.015181 -14.371519 0.769 84 255 127
-0.923692 -14.396811 0.79 84 255 127
-1.013348 -14.365719 0.77 84 255 127
-0.955535 -14.408645 0.78 84 255 127
-0.954627 -14.406863 0.78 84 255 127
-0.936565 -14.325157 0.796 84 255 127
-0.935831 -14.405216 0.786 84 255 127
-0.938203 -14.423088 0.783 84 255 127
-0.929021 -14.391851 0.789 84 255 127
-0.934502 -14.407015 0.786 84 255 127
-0.873359 -14.42358 0.8 84 255 127
-0.913789 -14.388389 0.794 84 255 127
-1.006475 -14.402891 0.767 84 255 127
-1.011384 -14.401512 0.766 84 255 127
-0.942051 -14.399802 0.785 84 255 127
-0.879596 -14.420402 0.799 84 255 127
-0.93169 -14.331009 0.797 84 255 127
-0.995193 -14.38956 0.772 84 255 127
-0.892188 -14.429698 0.794 84 255 127
-0.927914 -14.422719 0.785 84 255 127
-0.913755 -14.383917 0.795 84 255 127
-0.917841 -14.391936 0.792 84 255 127
-0.949141 -14.332217 0.792 84 255 127
-0.911876 -14.43089 0.789 84 255 127
-0.936264 -14.344391 0.794 84 255 127
-0.966329 -14.416613 0.776 84 255 127
-1.03085 -14.373636 0.764 84 255 127
-0.903165 -14.402781 0.795 84 255 127
-0.956494 -14.417134 0.778 84 255 127
-0.890975 -14.387668 0.8 84 255 127
-1.025169 -14.391121 0.763 84 255 127
-0.945746 -14.356393 0.789 84 255 127
-0.888841 -14.4011 0.799 84 255 127
-0.898392 -14.422049 0.793 84 255 127
-0.926166 -14.428099 0.785 84 255 127
-0.87652 -14.427581 0.799 84 255 127
-1.025539 -14.380833 0.765 84 255 127
-0.952641 -14.380939 0.784 84 255 127
-0.878437 -14.444561 0.796 84 255 127
-0.909805 -14.393785 0.794 84 255 127
-1.0153 -14.387171 0.767 84 255 127
-0.99731 -14.373891 0.773 84 255 127
-0.951377 -14.3322 0.791 84 255 127
-0.952217 -14.325039 0.792 84 255 127
-1.001481 -14.39309 0.769 84 255 127
-0.947257 -14.31971 0.794 84 255 127
-0.924248 -14.411119 0.788 84 255 127
-0.935037 -14.359605 0.792 84 255 127
-0.988634 -14.350253 0.779 84 255 127
-0.996907 -14.379708 0.773 84 255 127
-0.91048 -14.423745 0.79 84 255 127
-0.925995 -14.405738 0.788 84 255 127
-0.94738 -14.394842 0.784 84 255 127
-0.941228 -14.409201 0.784 84 255 127
-1.012911 -14.367064 0.77 84 255 127
-0.948203 -14.385445 0.785 84 255 127
-0.982566 -14.375792 0.777 84 255 127
-0.886444 -14.49772 0.69 84 255 127
-0.946913 -14.451197 0.726 84 255 127
-0.870978 -14.522435 0.658 84 255 127
-0.97097 -14.438938 0.729 84 255 127
-0.854117 -14.540005 0.638 84 255 127
-0.827268 -14.537972 0.665 84 255 127
-0.859077 -14.545334 0.624 84 255 127
-0.971844 -14.436249 0.734 84 255 127
-0.855343 -14.52479 0.667 84 255 127
-0.836984 -14.521799 0.687 84 255 127
-0.857664 -14.535953 0.642 84 255 127
-0.839509 -14.559793 0.612 84 255 127
-0.933213 -14.472768 0.697 84 255 127
-0.875888 -14.521056 0.655 84 255 127
-0.825571 -14.55006 0.644 84 255 127
-0.833743 -14.566098 0.606 84 255 127
-0.891454 -14.509757 0.663 84 255 127
-0.919916 -14.488521 0.679 84 255 127
-0.828698 -14.549589 0.643 84 255 127
-0.889656 -14.50843 0.667 84 255 127
-1.030651 -14.406285 0.74 84 255 127
-0.827722 -14.538863 0.664 84 255 127
-0.88103 -14.4915 0.707 84 255 127
-0.874861 -14.503621 0.689 84 255 127
-0.814692 -14.530912 0.689 84 255 127
-0.841575 -14.537416 0.653 84 255 127
-0.956328 -14.454255 0.712 84 255 127
-0.878493 -14.51075 0.673 84 255 127
-0.931533 -14.487092 0.672 84 255 127
-0.878947 -14.511642 0.67 84 255 127
-0.905087 -14.479242 0.709 84 255 127
-0.824663 -14.548278 0.647 84 255 127
-0.987513 -14.438366 0.715 84 255 127
-0.930574 -14.478601 0.689 84 255 127
-0.842012 -14.536071 0.656 84 255 127
-0.849879 -14.511862 0.695 84 255 127
-0.922101 -14.481795 0.691 84 255 127
-0.913963 -14.47023 0.718 84 255 127
-0.880644 -14.499553 0.692 84 255 127
-0.831184 -14.523631 0.688 84 255 127
-0.840162 -14.528035 0.674 84 255 127
-0.817802 -14.528205 0.691 84 255 127
-0.976821 -14.443813 0.715 84 255 127
-0.959926 -14.456912 0.704 84 255 127
-0.932237 -14.462042 0.719 84 255 127
-0.858118 -14.536843 0.641 84 255 127
-0.960783 -14.451985 0.712 84 255 127
-0.825401 -14.5277 0.685 84 255 127
-0.882477 -14.505353 0.68 84 255 127
-0.848584 -14.518132 0.685 84 255 127
-0.964852 -14.457768 0.699 84 255 127
-0.823738 -14.54426 0.655 84 255 127
-0.890377 -14.485615 0.711 84 255 127
-0.985312 -14.442855 0.71 84 255 127
-0.939081 -14.479878 0.679 84 255 127
-0.883033 -14.51966 0.653 84 255 127
-0.892681 -14.494541 0.69 84 255 127
-0.831405 -14.552699 0.634 84 255 127
-0.899474 -14.505672 0.665 84 255 127
-0.901659 -14.498946 0.676 84 255 127
-0.882947 -14.50848 0.674 84 255 127
-0.850082 -14.538693 0.644 84 255 127
-0.869146 -14.516635 0.67 84 255 127
-0.914905 -14.476484 0.707 84 255 127
-0.838113 -14.552649 0.628 84 255 127
-0.912215 -14.475611 0.71 84 255 127
-0.924842 -14.489378 0.674 84 255 127
-0.882056 -14.508934 0.673 84 255 127
-0.838902 -14.538778 0.654 84 255 127
-0.983025 -14.436164 0.725 84 255 127
-0.946124 -14.465066 0.701 84 255 127
-0.965306 -14.45866 0.696 84 255 127
-0.840786 -14.551287 0.629 84 255 127
-0.837875 -14.521345 0.687 84 255 127
-0.872341 -14.525108 0.651 84 255 127
-0.845071 -14.526656 0.671 84 255 127
-1.024414 -14.409463 0.739 84 255 127
-0.916738 -14.482284 0.694 84 255 127
-0.874526 -14.518383 0.662 84 255 127
-1.007501 -14.420325 0.733 84 255 127
-0.997297 -14.431136 0.72 84 255 127
-0.932271 -14.466513 0.71 84 255 127
-0.844838 -14.554833 0.617 84 255 127
-0.892312 -14.504831 0.671 84 255 127
-0.853595 -14.530169 0.658 84 255 127
-0.856285 -14.531044 0.654 84 255 127
-0.944376 -14.470447 0.692 84 255 127
-0.932339 -14.475457 0.692 84 255 127
-0.861109 -14.518484 0.672 84 255 127
-0.855479 -14.542678 0.632 84 255 127
-0.983899 -14.433475 0.728 84 255 127
-0.868827 -14.533631 0.638 84 255 127
-0.822711 -14.526827 0.69 84 255 127
-0.88436 -14.51786 0.654 84 255 127
-0.825487 -14.53888 0.666 84 255 127
-0.958598 -14.458711 0.703 84 255 127
-0.924337 -14.481779 0.687 84 255 127
-0.995062 -14.431153 0.722 84 255 127
-0.824612 -14.541571 0.661 84 255 127
-0.961288 -14.459584 0.698 84 255 127
-0.972769 -14.440267 0.725 84 255 127
-0.86864 -14.509035 0.684 84 255 127
-0.824697 -14.55275 0.639 84 255 127
-0.860388 -14.541299 0.63 84 255 127
-0.817433 -14.538494 0.673 84 255 127
-0.926624 -14.48847 0.674 84 255 127
-0.97719 -14.433525 0.733 84 255 127
-0.904837 -14.505183 0.66 84 255 127
-0.987463 -14.431658 0.728 84 255 127
-0.84393 -14.553052 0.621 84 255 127
-0.919462 -14.487631 0.681 84 255 127
