ply
format ascii 1.0
element vertex 1304
property double x
property double y
property double z
property uchar red
property uchar green
property uchar blue
element face 0
property list uchar int vertex_indices
end_header
-1.984877 -13.796628 0.617 170 170 0
-1.889751 -13.75531 0.538 170 170 0
-1.928234 -13.758148 0.647 170 170 0
-1.920499 -13.740766 0.719 170 170 0
-1.919154 -13.740329 0.715 170 170 0
-1.931225 -13.73979 0.761 170 170 0
-1.91643 -13.734982 0.741 170 170 0
-1.98491 -13.8011 0.593 170 170 0
-1.898627 -13.746298 0.62 170 170 0
-1.901249 -13.738229 0.669 170 170 0
-1.884286 -13.742382 0.596 170 170 0
-1.853805 -13.733222 0.542 170 170 0
-1.825055 -13.716446 0.54 170 170 0
-1.924585 -13.748784 0.685 170 170 0
-1.964162 -13.778002 0.657 170 170 0
-1.985801 -13.800645 0.597 170 170 0
-1.9818 -13.803806 0.569 170 170 0
-1.956228 -13.793267 0.545 170 170 0
-1.896493 -13.759731 0.538 170 170 0
-1.994813 -13.809522 0.576 170 170 0
-1.885648 -13.745055 0.583 170 170 0
-1.906697 -13.74892 0.628 170 170 0
-1.866262 -13.72463 0.634 170 170 0
-1.900324 -13.734211 0.692 170 170 0
-1.894036 -13.73068 0.688 170 170 0
-1.932133 -13.741572 0.754 170 170 0
-1.977782 -13.804731 0.551 170 170 0
-1.916061 -13.745271 0.681 170 170 0
-1.844793 -13.724345 0.563 170 170 0
-1.903485 -13.738211 0.678 170 170 0
-1.881562 -13.737036 0.612 170 170 0
-1.90357 -13.749392 0.613 170 170 0
-1.916583 -13.755107 0.63 170 170 0
-1.907168 -13.752048 0.615 170 170 0
-1.8839 -13.750436 0.549 170 170 0
-1.855604 -13.73455 0.54 170 170 0
-1.906141 -13.734613 0.708 170 170 0
-1.979581 -13.806059 0.552 170 170 0
-1.911271 -13.762302 0.573 170 170 0
-1.912212 -13.768557 0.538 170 170 0
-1.873475 -13.732179 0.613 170 170 0
-1.961892 -13.773546 0.673 170 170 0
-1.892725 -13.734715 0.664 170 170 0
-1.906345 -13.761445 0.559 170 170 0
-1.933109 -13.752297 0.696 170 170 0
-1.944072 -13.782626 0.563 170 170 0
-1.89718 -13.732446 0.687 170 170 0
-1.899013 -13.738245 0.663 170 170 0
-1.881545 -13.7348 0.626 170 170 0
-1.884336 -13.74909 0.554 170 170 0
-1.921356 -13.73584 0.747 170 170 0
-1.907957 -13.738178 0.692 170 170 0
-2.006549 -13.823744 0.538 170 170 0
-1.940054 -13.78355 0.545 170 170 0
-1.896323 -13.737371 0.658 170 170 0
-1.899416 -13.732428 0.696 170 170 0
-1.873509 -13.73665 0.591 170 170 0
-1.882419 -13.73211 0.647 170 170 0
-1.858748 -13.736315 0.541 170 170 0
-1.978219 -13.803386 0.557 170 170 0
-1.91021 -13.740396 0.688 170 170 0
-1.936672 -13.750482 0.715 170 170 0
-1.885092 -13.730748 0.659 170 170 0
-1.943164 -13.780844 0.568 170 170 0
-1.925175 -13.767564 0.586 170 170 0
-1.910176 -13.735925 0.713 170 170 0
-1.874467 -13.74514 0.545 170 170 0
-1.896306 -13.735135 0.671 170 170 0
-1.817477 -13.778667 0.426 170 170 0
-1.793823 -13.785109 0.426 170 170 0
-1.792262 -13.815084 0.429 170 170 0
-1.817142 -13.793428 0.427 170 170 0
-1.768154 -13.820634 0.43 170 170 0
-1.782745 -13.798609 0.428 170 170 0
-1.844678 -13.768174 0.424 170 170 0
-1.839298 -13.766426 0.424 170 170 0
-1.77557 -13.855014 0.434 170 170 0
-1.80208 -13.812326 0.429 170 170 0
-1.827079 -13.806322 0.429 170 170 0
-1.854178 -13.782413 0.426 170 170 0
-1.83049 -13.784383 0.426 170 170 0
-1.747126 -13.878486 0.437 170 170 0
-1.83935 -13.773135 0.425 170 170 0
-1.776037 -13.79866 0.428 170 170 0
-1.820066 -13.766126 0.424 170 170 0
-1.761917 -13.823812 0.43 170 170 0
-1.788863 -13.779779 0.426 170 170 0
-1.802165 -13.823506 0.431 170 170 0
-1.850648 -13.788702 0.427 170 170 0
-1.798987 -13.817269 0.43 170 170 0
-1.813175 -13.801062 0.428 170 170 0
-1.752438 -13.871289 0.436 170 170 0
-1.841216 -13.783406 0.426 170 170 0
-1.776071 -13.803132 0.428 170 170 0
-1.818589 -13.807281 0.429 170 170 0
-1.783857 -13.827224 0.431 170 170 0
-1.876386 -13.76212 0.424 170 170 0
-1.870654 -13.772898 0.425 170 170 0
-1.774225 -13.854577 0.434 170 170 0
-1.771752 -13.82329 0.43 170 170 0
-1.818788 -13.774632 0.425 170 170 0
-1.848276 -13.770831 0.425 170 170 0
-1.768658 -13.828233 0.431 170 170 0
-1.825009 -13.769218 0.424 170 170 0
-1.852749 -13.770797 0.425 170 170 0
-1.809713 -13.816294 0.43 170 170 0
-1.803726 -13.79353 0.427 170 170 0
-1.87731 -13.766138 0.424 170 170 0
-1.723574 -13.898343 0.439 170 170 0
-1.777738 -13.846053 0.433 170 170 0
-1.838628 -13.795949 0.428 170 170 0
-1.829701 -13.798252 0.428 170 170 0
-1.750622 -13.867726 0.435 170 170 0
-1.791973 -13.777072 0.425 170 170 0
-1.834071 -13.784802 0.426 170 170 0
-1.810837 -13.787663 0.426 170 170 0
-1.804651 -13.797548 0.428 170 170 0
-1.807914 -13.814965 0.43 170 170 0
-1.796802 -13.823995 0.431 170 170 0
-1.786105 -13.769961 0.424 170 170 0
-1.833044 -13.767368 0.424 170 170 0
-1.832272 -13.783475 0.426 170 170 0
-1.770305 -13.809437 0.429 170 170 0
-1.783755 -13.813807 0.429 170 170 0
-1.800094 -13.786402 0.426 170 170 0
-1.849133 -13.765904 0.424 170 170 0
-1.756842 -13.862312 0.435 170 170 0
-1.78263 -13.842438 0.433 170 170 0
-1.87373 -13.765718 0.424 170 170 0
-1.746434 -13.846291 0.433 170 170 0
-1.807443 -13.811838 0.429 170 170 0
-1.819243 -13.775524 0.425 170 170 0
-1.828305 -13.791107 0.427 170 170 0
-1.797756 -13.773004 0.425 170 170 0
-1.762404 -13.829175 0.431 170 170 0
-1.762002 -13.834991 0.432 170 170 0
-1.794222 -13.71981 0.627 170 170 0
-1.852409 -13.726077 0.697 170 170 0
-1.801804 -13.71707 0.577 170 170 0
-1.798694 -13.719776 0.626 170 170 0
-1.812581 -13.722801 0.66 170 170 0
-1.821037 -13.71737 0.567 170 170 0
-1.800493 -13.721105 0.648 170 170 0
-1.817053 -13.722768 0.66 170 170 0
-1.801838 -13.72154 0.657 170 170 0
-1.897163 -13.730209 0.737 170 170 0
-1.798257 -13.721121 0.654 170 170 0
-1.840775 -13.72527 0.697 170 170 0
-1.783496 -13.720786 0.652 170 170 0
-1.870751 -13.726832 0.695 170 170 0
-1.798223 -13.716649 0.563 170 170 0
-1.824652 -13.722262 0.657 170 170 0
-1.786623 -13.720315 0.65 170 170 0
-1.865842 -13.728211 0.728 170 170 0
-1.8148 -13.720548 0.626 170 170 0
-1.852392 -13.723841 0.648 170 170 0
-1.885529 -13.729403 0.723 170 170 0
-1.84254 -13.722126 0.634 170 170 0
-1.773627 -13.716836 0.597 170 170 0
-1.862261 -13.727791 0.71 170 170 0
-1.821071 -13.721843 0.638 170 170 0
-1.855973 -13.724261 0.658 170 170 0
-1.894036 -13.73068 0.748 170 170 0
-1.877459 -13.726781 0.687 170 170 0
-1.858192 -13.722008 0.624 170 170 0
-1.817473 -13.719186 0.605 170 170 0
-1.82018 -13.722297 0.658 170 170 0
-1.772753 -13.719526 0.639 170 170 0
-1.818835 -13.72186 0.642 170 170 0
-1.825543 -13.721808 0.643 170 170 0
-1.812984 -13.716985 0.555 170 170 0
-1.865842 -13.728211 0.72 170 170 0
-1.805873 -13.722852 0.674 170 170 0
-1.860882 -13.722881 0.635 170 170 0
-1.852863 -13.726967 0.717 170 170 0
-1.818398 -13.723205 0.667 170 170 0
-1.798694 -13.719776 0.631 170 170 0
-1.831377 -13.724448 0.688 170 170 0
-1.850627 -13.726985 0.707 170 170 0
-1.758883 -13.718737 0.632 170 170 0
-1.886874 -13.72984 0.728 170 170 0
-1.80135 -13.716178 0.56 170 170 0
-1.867624 -13.727304 0.708 170 170 0
-1.905216 -13.730596 0.733 170 170 0
-1.851955 -13.725185 0.677 170 170 0
-1.879695 -13.726764 0.686 170 170 0
-1.886857 -13.727605 0.702 170 170 0
-1.823778 -13.724953 0.695 170 170 0
-1.75352 -13.719225 0.654 170 170 0
-1.823744 -13.720481 0.615 170 170 0
-1.868078 -13.728194 0.721 170 170 0
-1.762901 -13.717812 0.614 170 170 0
-1.858646 -13.722898 0.639 170 170 0
-1.814329 -13.717421 0.569 170 170 0
-1.909251 -13.731907 0.754 170 170 0
-1.765608 -13.720922 0.663 170 170 0
-1.793751 -13.716683 0.577 170 170 0
-1.778553 -13.717692 0.601 170 170 0
-1.816162 -13.723222 0.679 170 170 0
-1.816128 -13.71875 0.596 170 170 0
-1.847449 -13.720748 0.61 170 170 0
-1.741886 -13.718418 0.636 170 170 0
-1.799568 -13.717086 0.579 170 170 0
-1.827779 -13.721791 0.636 170 170 0
-1.794659 -13.718465 0.608 170 170 0
-1.809437 -13.721036 0.631 170 170 0
-1.783479 -13.71855 0.605 170 170 0
-1.819255 -13.718278 0.591 170 170 0
-1.835849 -13.724414 0.684 170 170 0
-1.838505 -13.720816 0.612 170 170 0
-1.79782 -13.722466 0.679 170 170 0
-1.834941 -13.722631 0.644 170 170 0
-1.828636 -13.716866 0.556 170 170 0
-1.827813 -13.726264 0.707 170 170 0
-1.853737 -13.724277 0.663 170 170 0
-1.79555 -13.718011 0.593 170 170 0
-1.887311 -13.728495 0.704 170 170 0
-1.766028 -13.71734 0.607 170 170 0
-1.860899 -13.725118 0.672 170 170 0
-1.798257 -13.721121 0.645 170 170 0
-1.854645 -13.726059 0.69 170 170 0
-1.830469 -13.722665 0.654 170 170 0
-1.809437 -13.721036 0.638 170 170 0
-1.864917 -13.724193 0.658 170 170 0
-1.74814 -13.717477 0.621 170 170 0
-1.809874 -13.719691 0.622 170 170 0
-1.748594 -13.718368 0.638 170 170 0
-1.909251 -13.731907 0.752 170 170 0
-1.846575 -13.723437 0.656 170 170 0
-1.875677 -13.727689 0.707 170 170 0
-1.848391 -13.727001 0.709 170 170 0
-1.776754 -13.716365 0.588 170 170 0
-1.81749 -13.721422 0.633 170 170 0
-1.85372 -13.722042 0.626 170 170 0
-1.844339 -13.723454 0.658 170 170 0
-1.815708 -13.72233 0.658 170 170 0
-1.807218 -13.723289 0.689 170 170 0
-1.810765 -13.719236 0.603 170 170 0
-1.885983 -13.730294 0.742 170 170 0
-1.810345 -13.722818 0.669 170 170 0
-1.894036 -13.73068 0.743 170 170 0
-1.821054 -13.719606 0.604 170 170 0
-1.889564 -13.730714 0.746 170 170 0
-1.842977 -13.720782 0.61 170 170 0
-1.806764 -13.722398 0.668 170 170 0
-1.740087 -13.717091 0.63 170 170 0
-1.885983 -13.730294 0.741 170 170 0
-1.780369 -13.721257 0.673 170 170 0
-1.810345 -13.722818 0.67 170 170 0
-1.789279 -13.716718 0.573 170 170 0
-1.77588 -13.719054 0.632 170 170 0
-1.822382 -13.717808 0.576 170 170 0
-1.883747 -13.73031 0.74 170 170 0
-1.838522 -13.723052 0.66 170 170 0
-1.833613 -13.72443 0.673 170 170 0
-1.817473 -13.719186 0.59 170 170 0
-1.817927 -13.720078 0.619 170 170 0
-1.796929 -13.72292 0.673 170 170 0
-1.819272 -13.720514 0.62 170 170 0
-1.816111 -13.716513 0.557 170 170 0
-1.826417 -13.719119 0.596 170 170 0
-1.793768 -13.718919 0.611 170 170 0
-1.796475 -13.722029 0.654 170 170 0
-1.913723 -13.731873 0.747 170 170 0
-1.791112 -13.722517 0.676 170 170 0
-1.917304 -13.732292 0.762 170 170 0
-1.857318 -13.724697 0.665 170 170 0
-1.815725 -13.724566 0.695 170 170 0
-1.81438 -13.72413 0.687 170 170 0
-1.772736 -13.71729 0.595 170 170 0
-1.798711 -13.722013 0.661 170 170 0
-1.901635 -13.730175 0.724 170 170 0
-1.874769 -13.725907 0.68 170 170 0
-1.880603 -13.728546 0.714 170 170 0
-1.822853 -13.720935 0.626 170 170 0
-1.836286 -13.723068 0.643 170 170 0
-1.903434 -13.731503 0.757 170 170 0
-1.779461 -13.719475 0.631 170 170 0
-1.771408 -13.719089 0.638 170 170 0
-1.850627 -13.726985 0.715 170 170 0
-1.828216 -13.720447 0.611 170 170 0
-1.833159 -13.72354 0.657 170 170 0
-1.759337 -13.719627 0.647 170 170 0
-1.821525 -13.722733 0.669 170 170 0
-1.864917 -13.724193 0.641 170 170 0
-1.868498 -13.724612 0.648 170 170 0
-1.82287 -13.72317 0.658 170 170 0
-1.839884 -13.725724 0.701 170 170 0
-1.892691 -13.730244 0.734 170 170 0
-1.83178 -13.718631 0.58 170 170 0
-1.824669 -13.724499 0.679 170 170 0
-1.745013 -13.717948 0.628 170 170 0
-1.829998 -13.719539 0.597 170 170 0
-1.772753 -13.719526 0.633 170 170 0
-1.791078 -13.718045 0.609 170 170 0
-1.820617 -13.720951 0.636 170 170 0
-1.877476 -13.729017 0.729 170 170 0
-1.850139 -13.721622 0.621 170 170 0
-1.817019 -13.718296 0.588 170 170 0
-1.827342 -13.723137 0.652 170 170 0
-1.80673 -13.717926 0.582 170 170 0
-1.783462 -13.716314 0.578 170 170 0
-1.988479 -14.094453 0.462 170 170 0
-2.034887 -13.963063 0.465 170 170 0
-1.959122 -14.056662 0.463 170 170 0
-1.886858 -14.198981 0.459 170 170 0
-1.7969 -14.249306 0.458 170 170 0
-2.056734 -14.072021 0.463 170 170 0
-1.962492 -14.146976 0.461 170 170 0
-2.055584 -13.979453 0.464 170 170 0
-1.95121 -14.133644 0.461 170 170 0
-2.04266 -14.044399 0.463 170 170 0
-1.989591 -14.123067 0.461 170 170 0
-2.002408 -13.985224 0.464 170 170 0
-1.928225 -14.110563 0.461 170 170 0
-2.00652 -14.114442 0.462 170 170 0
-1.977923 -14.117789 0.461 170 170 0
-2.055389 -14.071584 0.463 170 170 0
-1.910643 -14.150947 0.461 170 170 0
-1.985046 -14.054675 0.463 170 170 0
-2.017572 -13.979742 0.464 170 170 0
-2.028035 -14.061953 0.463 170 170 0
-1.981113 -14.06678 0.462 170 170 0
-1.914526 -14.132134 0.461 170 170 0
-1.976285 -14.019858 0.463 170 170 0
-1.975636 -14.111098 0.462 170 170 0
-2.017322 -14.005683 0.464 170 170 0
-2.056582 -14.051897 0.463 170 170 0
-1.85636 -14.187585 0.46 170 170 0
-1.969309 -14.043614 0.463 170 170 0
-1.874226 -14.125731 0.461 170 170 0
-2.054477 -14.010321 0.464 170 170 0
-2.01859 -14.113902 0.462 170 170 0
-1.95185 -14.159131 0.461 170 170 0
-1.951693 -14.079526 0.462 170 170 0
-1.964197 -14.018162 0.463 170 170 0
-2.009744 -14.067904 0.463 170 170 0
-1.857887 -14.153137 0.46 170 170 0
-1.971677 -14.002005 0.464 170 170 0
-2.013906 -13.968142 0.465 170 170 0
-1.858863 -14.163862 0.46 170 170 0
-1.960607 -14.134468 0.461 170 170 0
-2.054677 -13.977672 0.464 170 170 0
-1.791418 -14.234142 0.458 170 170 0
-2.04398 -13.923638 0.466 170 170 0
-2.024183 -14.025757 0.463 170 170 0
-1.852744 -14.182693 0.46 170 170 0
-2.024187 -14.085238 0.462 170 170 0
-1.851383 -14.180019 0.46 170 170 0
-2.058037 -13.949023 0.465 170 170 0
-2.05897 -14.072003 0.463 170 170 0
-1.854998 -14.184912 0.46 170 170 0
-2.030717 -13.943864 0.465 170 170 0
-1.894753 -14.119761 0.461 170 170 0
-2.028909 -14.059262 0.463 170 170 0
-1.78799 -14.253846 0.458 170 170 0
-1.902119 -14.147434 0.461 170 170 0
-2.058966 -14.012523 0.464 170 170 0
-1.859839 -14.174588 0.46 170 170 0
-1.849584 -14.178691 0.46 170 170 0
-1.913804 -14.154948 0.46 170 170 0
-1.99276 -14.010342 0.464 170 170 0
-2.02591 -13.958659 0.465 170 170 0
-1.971385 -14.140201 0.461 170 170 0
-2.070753 -14.033453 0.463 170 170 0
-1.954952 -14.037463 0.463 170 170 0
-1.874685 -14.186104 0.46 170 170 0
-1.997555 -14.052793 0.463 170 170 0
-1.845735 -14.201976 0.459 170 170 0
-1.959547 -14.112561 0.461 170 170 0
-1.822268 -14.233013 0.459 170 170 0
-1.862728 -14.142813 0.46 170 170 0
-1.845651 -14.190797 0.459 170 170 0
-1.916609 -14.111993 0.461 170 170 0
-1.918879 -14.116448 0.461 170 170 0
-1.997763 -14.139105 0.461 170 170 0
-2.047421 -14.082377 0.462 170 170 0
-1.781231 -14.247189 0.458 170 170 0
-2.054583 -14.083218 0.462 170 170 0
-1.917347 -14.091414 0.462 170 170 0
-2.055708 -14.054586 0.463 170 170 0
-2.049135 -14.072525 0.463 170 170 0
-2.043798 -13.958523 0.465 170 170 0
-1.87964 -14.131951 0.461 170 170 0
-2.037871 -14.061431 0.463 170 170 0
-1.791571 -14.254266 0.458 170 170 0
-2.044837 -13.918713 0.466 170 170 0
-1.84955 -14.174219 0.46 170 170 0
-1.987851 -14.011721 0.464 170 170 0
-2.018387 -14.08707 0.462 170 170 0
-2.021111 -14.092416 0.462 170 170 0
-2.037404 -14.117785 0.462 170 170 0
-1.873238 -14.172251 0.46 170 170 0
-1.90503 -14.177376 0.46 170 170 0
-2.075866 -14.058906 0.463 170 170 0
-1.81556 -14.233064 0.459 170 170 0
-1.815038 -14.223228 0.459 170 170 0
-1.859487 -14.187113 0.46 170 170 0
-1.875979 -14.179832 0.46 170 170 0
-1.999319 -14.049647 0.463 170 170 0
-2.039954 -14.041289 0.463 170 170 0
-1.951591 -14.06611 0.462 170 170 0
-1.917517 -14.113775 0.461 170 170 0
-2.049114 -14.010808 0.464 170 170 0
-2.062343 -13.986111 0.464 170 170 0
-2.046424 -14.009934 0.464 170 170 0
-1.965835 -14.116092 0.461 170 170 0
-1.936347 -14.119893 0.461 170 170 0
-2.016125 -13.965889 0.465 170 170 0
-1.855133 -14.202799 0.459 170 170 0
-2.01974 -13.970781 0.464 170 170 0
-1.982072 -14.075271 0.462 170 170 0
-1.840054 -14.219461 0.459 170 170 0
-1.904168 -14.122821 0.461 170 170 0
-2.004916 -14.020983 0.463 170 170 0
-2.056798 -14.021483 0.464 170 170 0
-1.971885 -14.088318 0.462 170 170 0
-1.858579 -14.185331 0.46 170 170 0
-1.932515 -14.145414 0.461 170 170 0
-1.966675 -14.10893 0.462 170 170 0
-1.813205 -14.217429 0.459 170 170 0
-2.01913 -14.125974 0.461 170 170 0
-2.027119 -13.941208 0.465 170 170 0
-1.908407 -14.150965 0.461 170 170 0
-1.979132 -14.100338 0.462 170 170 0
-1.964617 -14.01458 0.463 170 170 0
-2.027008 -14.044518 0.463 170 170 0
-2.035053 -13.925941 0.465 170 170 0
-2.048469 -13.92584 0.465 170 170 0
-2.015044 -14.117954 0.462 170 170 0
-2.053942 -14.057731 0.463 170 170 0
-2.053145 -13.952639 0.465 170 170 0
-1.831632 -14.229364 0.459 170 170 0
-2.069764 -14.079971 0.463 170 170 0
-2.026283 -14.007852 0.464 170 170 0
-2.009439 -14.027658 0.463 170 170 0
-2.045664 -13.968796 0.465 170 170 0
-2.001976 -14.04605 0.463 170 170 0
-1.839447 -14.198446 0.459 170 170 0
-2.026822 -14.019922 0.464 170 170 0
-1.871239 -14.203572 0.459 170 170 0
-1.949457 -14.079544 0.462 170 170 0
-1.849465 -14.163039 0.46 170 170 0
-2.036385 -13.983624 0.464 170 170 0
-2.037395 -13.998822 0.464 170 170 0
-1.967782 -14.078063 0.462 170 170 0
-2.042355 -14.004151 0.464 170 170 0
-1.872835 -14.178067 0.46 170 170 0
-2.05855 -14.075584 0.463 170 170 0
-2.003906 -14.005785 0.464 170 170 0
-2.043089 -13.924092 0.466 170 170 0
-1.921785 -14.086909 0.462 170 170 0
-1.969021 -14.005603 0.464 170 170 0
-2.048261 -14.075215 0.463 170 170 0
-2.000397 -14.07379 0.462 170 170 0
-2.02655 -13.984146 0.464 170 170 0
-2.032257 -14.08786 0.462 170 170 0
-2.005904 -13.974464 0.464 170 170 0
-1.888936 -14.119359 0.461 170 170 0
-1.896892 -14.16581 0.46 170 170 0
-1.817575 -14.203979 0.459 170 170 0
-2.054914 -14.008975 0.464 170 170 0
-2.034349 -13.950993 0.465 170 170 0
-1.791855 -14.232797 0.458 170 170 0
-2.051651 -13.991558 0.464 170 170 0
-1.91604 -14.154931 0.46 170 170 0
-1.904155 -14.180066 0.46 170 170 0
-1.952487 -14.125137 0.461 170 170 0
-1.967952 -14.100422 0.462 170 170 0
-2.031863 -13.976951 0.464 170 170 0
-2.028506 -14.06508 0.463 170 170 0
-1.862211 -14.19246 0.46 170 170 0
-1.969191 -14.027962 0.463 170 170 0
-2.010695 -13.957433 0.465 170 170 0
-2.068937 -14.029888 0.464 170 170 0
-2.040454 -13.989408 0.464 170 170 0
-2.030641 -14.051646 0.463 170 170 0
-2.027442 -13.983692 0.464 170 170 0
-2.029601 -14.091457 0.462 170 170 0
-2.071949 -14.073246 0.463 170 170 0
-1.986659 -14.031408 0.463 170 170 0
-2.054829 -13.997795 0.464 170 170 0
-1.836303 -14.196681 0.459 170 170 0
-1.80085 -14.239437 0.458 170 170 0
-1.966828 -14.129054 0.461 170 170 0
-1.902085 -14.142962 0.461 170 170 0
-1.80396 -14.23673 0.458 170 170 0
-2.048961 -13.990685 0.464 170 170 0
-1.995649 -13.978567 0.464 170 170 0
-1.819862 -14.21067 0.459 170 170 0
-1.863721 -14.155775 0.46 170 170 0
-2.012162 -14.033003 0.463 170 170 0
-2.004822 -14.126529 0.461 170 170 0
-1.943839 -14.046491 0.463 170 170 0
-1.963963 -14.046338 0.463 170 170 0
-2.037259 -13.980934 0.464 170 170 0
-2.011369 -13.987392 0.464 170 170 0
-2.033105 -13.963971 0.465 170 170 0
-1.935069 -14.128401 0.461 170 170 0
-2.018756 -14.076781 0.462 170 170 0
-1.955405 -14.038353 0.463 170 170 0
-1.923389 -14.180367 0.46 170 170 0
-1.805725 -14.233586 0.458 170 170 0
-1.924042 -14.148609 0.461 170 170 0
-2.067074 -14.079098 0.463 170 170 0
-1.933996 -14.163739 0.46 170 170 0
-1.977426 -13.993464 0.464 170 170 0
-1.844289 -14.188124 0.46 170 170 0
-2.014335 -14.083524 0.462 170 170 0
-1.966658 -14.106693 0.462 170 170 0
-2.053696 -13.907465 0.466 170 170 0
-1.948227 -14.035277 0.463 170 170 0
-1.980859 -14.03324 0.463 170 170 0
-2.07943 -14.05709 0.463 170 170 0
-1.811928 -14.225936 0.459 170 170 0
-1.824301 -14.206164 0.459 170 170 0
-2.040811 -14.036363 0.463 170 170 0
-1.835294 -14.181483 0.46 170 170 0
-2.040183 -13.953631 0.465 170 170 0
-1.999773 -14.050539 0.463 170 170 0
-2.023389 -13.980145 0.464 170 170 0
-2.012863 -13.948472 0.465 170 170 0
-1.899947 -14.096914 0.462 170 170 0
-1.934785 -14.149869 0.461 170 170 0
-2.019117 -13.94753 0.465 170 170 0
-2.034582 -13.922815 0.465 170 170 0
-1.981614 -14.014899 0.463 170 170 0
-1.787552 -14.255191 0.458 170 170 0
-1.836825 -14.206516 0.459 170 170 0
-2.013762 -14.06698 0.463 170 170 0
-2.044888 -13.925421 0.465 170 170 0
-1.997962 -14.106456 0.462 170 170 0
-1.883607 -14.124318 0.461 170 170 0
-1.934917 -14.108276 0.461 170 170 0
-2.056564 -14.049661 0.463 170 170 0
-2.068924 -14.087134 0.462 170 170 0
-1.914712 -14.15673 0.46 170 170 0
-2.024467 -14.004288 0.464 170 170 0
-2.041014 -14.063195 0.463 170 170 0
-1.919235 -14.163404 0.46 170 170 0
-1.969734 -14.099514 0.462 170 170 0
-2.036886 -13.931743 0.465 170 170 0
-1.923856 -14.124013 0.461 170 170 0
-1.835179 -14.225312 0.459 170 170 0
-1.882568 -14.16413 0.46 170 170 0
-2.000283 -14.11762 0.462 170 170 0
-1.909765 -14.094156 0.462 170 170 0
-1.930411 -14.103838 0.462 170 170 0
-2.056662 -14.003595 0.464 170 170 0
-1.894822 -14.128706 0.461 170 170 0
-2.056751 -14.074257 0.463 170 170 0
-1.930466 -14.170027 0.46 170 170 0
-2.060761 -13.95437 0.465 170 170 0
-2.071559 -14.021819 0.464 170 170 0
-2.02392 -14.108942 0.462 170 170 0
-2.048346 -14.086395 0.462 170 170 0
-1.816451 -14.23261 0.459 170 170 0
-1.880026 -14.123899 0.461 170 170 0
-1.935922 -14.063993 0.462 170 170 0
-2.009404 -14.023185 0.463 170 170 0
-1.94381 -14.1015 0.462 170 170 0
-1.99046 -14.060896 0.463 170 170 0
-1.939847 -14.168614 0.46 170 170 0
-1.894652 -14.106346 0.461 170 170 0
-1.93655 -14.146726 0.461 170 170 0
-1.87544 -14.167762 0.46 170 170 0
-1.846945 -14.184525 0.46 170 170 0
-2.042979 -14.027402 0.463 170 170 0
-2.007916 -14.121587 0.462 170 170 0
-2.069964 -14.047323 0.463 170 170 0
-2.042843 -14.009514 0.464 170 170 0
-2.016775 -14.110338 0.462 170 170 0
-1.828874 -14.219546 0.459 170 170 0
-2.028824 -14.048082 0.463 170 170 0
-1.855231 -14.156734 0.46 170 170 0
-1.953844 -14.068329 0.462 170 170 0
-2.023321 -13.971201 0.465 170 170 0
-1.878295 -14.131515 0.461 170 170 0
-2.04289 -13.956741 0.465 170 170 0
-2.04373 -13.949579 0.465 170 170 0
-2.042491 -14.022039 0.464 170 170 0
-2.068614 -13.987405 0.464 170 170 0
-1.901886 -14.175611 0.46 170 170 0
-2.024093 -13.955094 0.465 170 170 0
-2.010258 -13.958778 0.465 170 170 0
-2.040412 -14.101662 0.462 170 170 0
-1.949084 -14.030351 0.463 170 170 0
-1.776423 -14.261984 0.458 170 170 0
-1.811088 -14.233098 0.459 170 170 0
-1.956632 -14.023139 0.463 170 170 0
-1.983842 -14.131607 0.461 170 170 0
-1.916745 -14.129881 0.461 170 170 0
-1.938281 -14.139109 0.461 170 170 0
-2.06732 -13.993675 0.464 170 170 0
-2.009888 -13.969068 0.464 170 170 0
-1.997686 -14.011199 0.464 170 170 0
-1.997071 -14.10691 0.462 170 170 0
-1.992102 -13.982618 0.464 170 170 0
-2.033674 -13.921033 0.466 170 170 0
-1.999591 -14.085424 0.462 170 170 0
-1.866314 -14.202714 0.459 170 170 0
-2.059806 -14.00536 0.464 170 170 0
-1.839278 -14.176085 0.46 170 170 0
-2.015124 -14.069654 0.463 170 170 0
-2.013864 -14.080397 0.462 170 170 0
-1.868011 -14.190626 0.46 170 170 0
-1.860344 -14.182187 0.46 170 170 0
-1.880048 -14.185616 0.46 170 170 0
-1.853704 -14.191182 0.46 170 170 0
-2.072166 -14.042833 0.463 170 170 0
-2.012379 -14.00259 0.464 170 170 0
-1.808029 -14.242513 0.458 170 170 0
-1.77328 -14.260219 0.458 170 170 0
-2.03412 -14.038651 0.463 170 170 0
-1.82346 -14.213326 0.459 170 170 0
-1.806684 -14.242076 0.458 170 170 0
-2.056 -13.916391 0.466 170 170 0
-2.011098 -13.951615 0.465 170 170 0
-2.025659 -13.9846 0.464 170 170 0
-1.93591 -14.121239 0.461 170 170 0
-1.865372 -14.196461 0.459 170 170 0
-2.034358 -14.069954 0.463 170 170 0
-1.862159 -14.185751 0.46 170 170 0
-2.0286 -13.959534 0.465 170 170 0
-1.92128 -14.079309 0.462 170 170 0
-1.964222 -14.139359 0.461 170 170 0
-1.882262 -14.123882 0.461 170 170 0
-1.982547 -14.137878 0.461 170 170 0
-1.957811 -14.060697 0.462 170 170 0
-2.019083 -13.943058 0.465 170 170 0
-1.919167 -14.15446 0.461 170 170 0
-1.991839 -14.065805 0.463 170 170 0
-2.045715 -13.975503 0.465 170 170 0
-1.998021 -13.996438 0.464 170 170 0
-1.95689 -14.116159 0.461 170 170 0
-1.979064 -14.091394 0.462 170 170 0
-1.96387 -14.151885 0.461 170 170 0
-1.937687 -14.060849 0.462 170 170 0
-1.900452 -14.104513 0.461 170 170 0
-1.949661 -14.106376 0.462 170 170 0
-1.97612 -14.056979 0.463 170 170 0
-1.848187 -14.171546 0.46 170 170 0
-2.021841 -13.952876 0.465 170 170 0
-2.063357 -14.06079 0.463 170 170 0
-2.027068 -13.934501 0.465 170 170 0
-2.064838 -14.079115 0.463 170 170 0
-1.969645 -14.028853 0.463 170 170 0
-1.833715 -14.209223 0.459 170 170 0
-2.048092 -14.052855 0.463 170 170 0
-1.914475 -14.125426 0.461 170 170 0
-1.908004 -14.156781 0.46 170 170 0
-1.94504 -14.145767 0.461 170 170 0
-2.051753 -14.004974 0.464 170 170 0
-1.663469 -14.110785 0.46 170 170 0
-1.773021 -14.167198 0.46 170 170 0
-1.733316 -14.239056 0.458 170 170 0
-1.853092 -14.110686 0.461 170 170 0
-2.032312 -13.918361 0.466 170 170 0
-1.634168 -14.139182 0.46 170 170 0
-1.898882 -14.015527 0.463 170 170 0
-1.834967 -14.079518 0.462 170 170 0
-1.592859 -14.117581 0.46 170 170 0
-1.650673 -14.074656 0.461 170 170 0
-1.821479 -14.011194 0.463 170 170 0
-1.862122 -14.121799 0.461 170 170 0
-1.991915 -13.958022 0.465 170 170 0
-1.896748 -14.028959 0.463 170 170 0
-1.948944 -13.952983 0.465 170 170 0
-1.738178 -14.054761 0.462 170 170 0
-1.878206 -14.060853 0.462 170 170 0
-1.69726 -14.084588 0.461 170 170 0
-1.604625 -14.076795 0.461 170 170 0
-1.843695 -14.109863 0.461 170 170 0
-1.950658 -13.94313 0.465 170 170 0
-1.677594 -14.145113 0.46 170 170 0
-1.953755 -13.997668 0.464 170 170 0
-1.694752 -14.048829 0.462 170 170 0
-1.915221 -13.988122 0.464 170 170 0
-1.763372 -14.192316 0.459 170 170 0
-1.856504 -14.088746 0.462 170 170 0
-1.687713 -14.123123 0.46 170 170 0
-1.959618 -13.945298 0.465 170 170 0
-1.781002 -14.099159 0.461 170 170 0
-1.685023 -14.122248 0.46 170 170 0
-1.652773 -14.05675 0.461 170 170 0
-1.859381 -14.114217 0.461 170 170 0
-1.757186 -14.202201 0.459 170 170 0
-1.751798 -14.081491 0.461 170 170 0
-1.698053 -14.130199 0.46 170 170 0
-1.886373 -14.01741 0.463 170 170 0
-1.734024 -14.037798 0.462 170 170 0
-1.837963 -14.120641 0.461 170 170 0
-1.630871 -14.117293 0.46 170 170 0
-1.764305 -14.079607 0.461 170 170 0
-1.721924 -14.093346 0.461 170 170 0
-1.85033 -14.041387 0.462 170 170 0
-1.877566 -14.035366 0.463 170 170 0
-1.758811 -14.121688 0.461 170 170 0
-1.821186 -14.14939 0.46 170 170 0
-1.999396 -13.941866 0.465 170 170 0
-1.98186 -13.929477 0.465 170 170 0
-1.780115 -14.159094 0.46 170 170 0
-1.809463 -14.077923 0.462 170 170 0
-1.801126 -14.099006 0.461 170 170 0
-1.961333 -13.935447 0.465 170 170 0
-1.685078 -14.188437 0.459 170 170 0
-1.654912 -14.102799 0.461 170 170 0
-1.596809 -14.107713 0.46 170 170 0
-1.825692 -14.153828 0.46 170 170 0
-1.761047 -14.121672 0.461 170 170 0
-1.871494 -14.001423 0.463 170 170 0
-1.59748 -14.078191 0.461 170 170 0
-1.786806 -14.156807 0.46 170 170 0
-1.702373 -14.110042 0.461 170 170 0
-1.678128 -14.097703 0.461 170 170 0
-2.020695 -13.919789 0.466 170 170 0
-1.758786 -14.236178 0.458 170 170 0
-1.707969 -14.081376 0.461 170 170 0
-1.826727 -14.054536 0.462 170 170 0
-1.782508 -14.002994 0.463 170 170 0
-1.825705 -14.096582 0.461 170 170 0
-1.631745 -14.114603 0.46 170 170 0
-1.702428 -14.176231 0.459 170 170 0
-1.952461 -14.00394 0.464 170 170 0
-1.678969 -14.090542 0.461 170 170 0
-1.72836 -14.057519 0.462 170 170 0
-1.760725 -14.079187 0.461 170 170 0
-1.809993 -14.206719 0.459 170 170 0
-1.906667 -14.039618 0.463 170 170 0
-1.628618 -14.115073 0.46 170 170 0
-1.843996 -14.090631 0.461 170 170 0
-1.826146 -14.154719 0.46 170 170 0
-1.789152 -14.053479 0.462 170 170 0
-1.913596 -14.068635 0.462 170 170 0
-1.703208 -14.043399 0.462 170 170 0
-1.789848 -14.145156 0.46 170 170 0
-1.714248 -14.201633 0.459 170 170 0
-1.757738 -14.157027 0.46 170 170 0
-1.908008 -13.980574 0.464 170 170 0
-1.856682 -13.99438 0.463 170 170 0
-2.009668 -13.939999 0.465 170 170 0
-1.754012 -14.019757 0.463 170 170 0
-1.706624 -14.08094 0.461 170 170 0
-1.916396 -13.966199 0.464 170 170 0
-1.644173 -14.16102 0.459 170 170 0
-1.989896 -13.927627 0.465 170 170 0
-1.827169 -14.112672 0.461 170 170 0
-1.859173 -14.027904 0.463 170 170 0
-1.997749 -13.960662 0.465 170 170 0
-1.732701 -14.099078 0.461 170 170 0
-1.644826 -14.129262 0.46 170 170 0
-1.756703 -14.256319 0.458 170 170 0
-1.843283 -13.996717 0.463 170 170 0
-1.754789 -14.063132 0.462 170 170 0
-1.739659 -14.073087 0.461 170 170 0
-1.742858 -14.14104 0.46 170 170 0
-1.72099 -14.206054 0.459 170 170 0
-1.780904 -14.145224 0.46 170 170 0
-1.655785 -14.100109 0.461 170 170 0
-1.672345 -14.101772 0.461 170 170 0
-1.78107 -14.108102 0.461 170 170 0
-2.008272 -13.932854 0.465 170 170 0
-1.624362 -14.084695 0.461 170 170 0
-1.764119 -14.055012 0.462 170 170 0
-1.713654 -14.123373 0.46 170 170 0
-1.792788 -14.12009 0.461 170 170 0
-1.741046 -14.196957 0.459 170 170 0
-1.825857 -14.116707 0.461 170 170 0
-1.676915 -14.055674 0.462 170 170 0
-1.948388 -13.938675 0.465 170 170 0
-1.684942 -14.170549 0.459 170 170 0
-1.748467 -14.05513 0.462 170 170 0
-1.666647 -14.117022 0.46 170 170 0
-1.912328 -13.960416 0.464 170 170 0
-1.895657 -14.062063 0.462 170 170 0
-1.787515 -14.191238 0.459 170 170 0
-1.743091 -14.112864 0.461 170 170 0
-1.701816 -14.095735 0.461 170 170 0
-1.794668 -14.073115 0.462 170 170 0
-1.948205 -13.97356 0.464 170 170 0
-1.756512 -14.172242 0.46 170 170 0
-1.777336 -14.087559 0.461 170 170 0
-1.756902 -14.22367 0.458 170 170 0
-1.893633 -13.972186 0.464 170 170 0
-1.622886 -14.125851 0.46 170 170 0
-1.967371 -13.964918 0.464 170 170 0
-1.700081 -14.043869 0.462 170 170 0
-1.722251 -14.195312 0.459 170 170 0
-1.854802 -14.041353 0.463 170 170 0
-1.745467 -14.190215 0.459 170 170 0
-1.845807 -14.034714 0.463 170 170 0
-1.799895 -14.05474 0.462 170 170 0
-1.713145 -14.056293 0.462 170 170 0
-1.955113 -13.94086 0.465 170 170 0
-1.975793 -13.955015 0.465 170 170 0
-1.765816 -14.042923 0.462 170 170 0
-1.794307 -14.202367 0.459 170 170 0
-1.70967 -14.12877 0.46 170 170 0
-1.769406 -14.162306 0.46 170 170 0
-1.589579 -14.097928 0.46 170 170 0
-1.797736 -14.182663 0.459 170 170 0
-1.78751 -14.131757 0.46 170 170 0
-1.717787 -14.078619 0.461 170 170 0
-1.808831 -14.171398 0.46 170 170 0
-1.641915 -14.099319 0.461 170 170 0
-1.693535 -14.183006 0.459 170 170 0
-1.740155 -14.197411 0.459 170 170 0
-1.889517 -14.019176 0.463 170 170 0
-1.866037 -14.107457 0.461 170 170 0
-1.778592 -14.017334 0.463 170 170 0
-1.806773 -14.077048 0.462 170 170 0
-1.760526 -14.111836 0.461 170 170 0
-1.890557 -13.979364 0.464 170 170 0
-1.760194 -14.186079 0.459 170 170 0
-1.727821 -14.045447 0.462 170 170 0
-1.712237 -14.054511 0.462 170 170 0
-1.863144 -14.079751 0.462 170 170 0
-1.731551 -14.242199 0.458 170 170 0
-1.848455 -14.147841 0.46 170 170 0
-1.66806 -14.126402 0.46 170 170 0
-1.795452 -13.999764 0.463 170 170 0
-1.909307 -14.033784 0.463 170 170 0
-1.829018 -14.120708 0.461 170 170 0
-1.777001 -14.102319 0.461 170 170 0
-1.999816 -13.938285 0.465 170 170 0
-1.636315 -14.068503 0.461 170 170 0
-1.809688 -14.166472 0.46 170 170 0
-1.734847 -14.028399 0.462 170 170 0
-1.792521 -14.143794 0.46 170 170 0
-1.947666 -13.96149 0.464 170 170 0
-1.85033 -14.041387 0.462 170 170 0
-1.643227 -14.095285 0.461 170 170 0
-1.834343 -14.056268 0.462 170 170 0
-1.734589 -14.171066 0.459 170 170 0
-1.678115 -14.154948 0.46 170 170 0
-1.978885 -13.950071 0.465 170 170 0
-1.642301 -14.091267 0.461 170 170 0
-1.698571 -14.080554 0.461 170 170 0
-1.919312 -14.055622 0.462 170 170 0
-1.828424 -14.042448 0.462 170 170 0
-1.738526 -14.218444 0.459 170 170 0
-1.950963 -13.983378 0.464 170 170 0
-1.796492 -14.195642 0.459 170 170 0
-1.779525 -14.140314 0.46 170 170 0
-1.973811 -13.988571 0.464 170 170 0
-1.883098 -14.057239 0.462 170 170 0
-1.695698 -14.114564 0.46 170 170 0
-1.862656 -14.074389 0.462 170 170 0
-1.78213 -14.130009 0.46 170 170 0
-1.923779 -13.996107 0.464 170 170 0
-1.819646 -14.005395 0.463 170 170 0
-1.786806 -14.156807 0.46 170 170 0
-1.642658 -14.138224 0.46 170 170 0
-1.77678 -14.073252 0.462 170 170 0
-1.902191 -13.98017 0.464 170 170 0
-1.96219 -13.930521 0.465 170 170 0
-1.943835 -13.98701 0.464 170 170 0
-1.88651 -14.035299 0.463 170 170 0
-1.862944 -14.112401 0.461 170 170 0
-1.932655 -13.987095 0.464 170 170 0
-1.752443 -14.166459 0.46 170 170 0
-1.765684 -14.084517 0.461 170 170 0
-1.660414 -14.17968 0.459 170 170 0
-1.755532 -14.102036 0.461 170 170 0
-1.71362 -14.1189 0.46 170 170 0
-1.719573 -14.137192 0.46 170 170 0
-1.9226 -13.958549 0.464 170 170 0
-1.86765 -14.084189 0.462 170 170 0
-1.793234 -14.002017 0.463 170 170 0
-1.885983 -13.965982 0.464 170 170 0
-1.809323 -14.000553 0.463 170 170 0
-1.797804 -14.191607 0.459 170 170 0
-1.939312 -13.980336 0.464 170 170 0
-1.779185 -14.095594 0.461 170 170 0
-1.723812 -14.165336 0.46 170 170 0
-1.67061 -14.049908 0.462 170 170 0
-1.737537 -14.029274 0.462 170 170 0
-1.678841 -14.191615 0.459 170 170 0
-1.777815 -14.209648 0.459 170 170 0
-1.725284 -14.064697 0.462 170 170 0
-1.71883 -14.098289 0.461 170 170 0
-1.981308 -13.97465 0.464 170 170 0
-1.595328 -14.089387 0.461 170 170 0
-1.709581 -14.058108 0.462 170 170 0
-1.861642 -13.999709 0.463 170 170 0
-1.679631 -14.177746 0.459 170 170 0
-1.852918 -14.028845 0.463 170 170 0
-1.740724 -14.154473 0.46 170 170 0
-1.651212 -14.086726 0.461 170 170 0
-1.609033 -14.127297 0.46 170 170 0
-1.664984 -14.133581 0.46 170 170 0
-1.602677 -14.114823 0.46 170 170 0
-1.618448 -14.130357 0.46 170 170 0
-1.756473 -14.10829 0.461 170 170 0
-1.678905 -14.141079 0.46 170 170 0
-1.691583 -14.161554 0.46 170 170 0
-1.594942 -14.097441 0.46 170 170 0
-1.826498 -14.142195 0.46 170 170 0
-1.758646 -14.158809 0.46 170 170 0
-1.862792 -14.092277 0.462 170 170 0
-1.746138 -14.160693 0.46 170 170 0
-1.841225 -14.138057 0.46 170 170 0
-1.890858 -13.960132 0.464 170 170 0
-1.727889 -14.054392 0.462 170 170 0
-1.732582 -14.083426 0.461 170 170 0
-1.820104 -14.065767 0.462 170 170 0
-1.969874 -13.941195 0.465 170 170 0
-1.766809 -14.055885 0.462 170 170 0
-1.914385 -14.054765 0.462 170 170 0
-1.721465 -14.032973 0.462 170 170 0
-1.871833 -14.046144 0.462 170 170 0
-1.78664 -14.193928 0.459 170 170 0
-1.684705 -14.139245 0.46 170 170 0
-1.893943 -14.071915 0.462 170 170 0
-1.748951 -14.2367 0.458 170 170 0
-1.989442 -13.926736 0.465 170 170 0
-1.689733 -14.153519 0.46 170 170 0
-1.87446 -14.097554 0.461 170 170 0
-1.754246 -14.227268 0.458 170 170 0
-1.833711 -14.149742 0.46 170 170 0
-1.849337 -14.028425 0.463 170 170 0
-1.768604 -14.23342 0.458 170 170 0
-1.842918 -14.066488 0.462 170 170 0
-1.863933 -14.065881 0.462 170 170 0
-1.837122 -14.127802 0.461 170 170 0
-1.686962 -14.200945 0.459 170 170 0
-1.739557 -14.05967 0.462 170 170 0
-2.033657 -13.918797 0.466 170 170 0
-1.826982 -14.088076 0.461 170 170 0
-1.783794 -14.113449 0.461 170 170 0
-1.596202 -14.086698 0.461 170 170 0
-1.629946 -14.113275 0.46 170 170 0
-1.762753 -14.228545 0.458 170 170 0
-1.683008 -14.151334 0.46 170 170 0
-1.714316 -14.210576 0.459 170 170 0
-1.863365 -14.108819 0.461 170 170 0
-1.836257 -14.013765 0.463 170 170 0
-1.944391 -14.001317 0.464 170 170 0
-1.631864 -14.130255 0.46 170 170 0
-1.677759 -14.107992 0.461 170 170 0
-1.863894 -14.001928 0.463 170 170 0
-1.623841 -14.07486 0.461 170 170 0
-1.633391 -14.095806 0.461 170 170 0
-1.94585 -13.957925 0.464 170 170 0
-1.746833 -14.016681 0.463 170 170 0
-1.657538 -14.15421 0.46 170 170 0
-1.616246 -14.134846 0.46 170 170 0
-1.722912 -14.046827 0.462 170 170 0
-1.844954 -14.09912 0.461 170 170 0
-1.827368 -14.080023 0.462 170 170 0
-1.946763 -14.019188 0.463 170 170 0
-1.848183 -14.112065 0.461 170 170 0
-1.762218 -14.040268 0.462 170 170 0
-1.788015 -14.139356 0.46 170 170 0
-1.880659 -14.030423 0.463 170 170 0
-1.681798 -14.168784 0.459 170 170 0
-1.676983 -14.064617 0.461 170 170 0
-1.895131 -13.992746 0.464 170 170 0
-1.638033 -14.118133 0.46 170 170 0
-1.804083 -14.076175 0.462 170 170 0
-1.688286 -14.139666 0.46 170 170 0
-1.794829 -14.212202 0.459 170 170 0
-1.634957 -14.125312 0.46 170 170 0
-1.754157 -14.156607 0.46 170 170 0
-1.80407 -14.13342 0.46 170 170 0
-1.669337 -14.117895 0.46 170 170 0
-1.671527 -14.170651 0.459 170 170 0
-1.870556 -14.05465 0.462 170 170 0
-1.760716 -14.195913 0.459 170 170 0
-1.907889 -13.964922 0.464 170 170 0
-1.73803 -14.094118 0.461 170 170 0
-1.788719 -14.114305 0.461 170 170 0
-1.947183 -14.015607 0.463 170 170 0
-1.899608 -14.052194 0.462 170 170 0
-1.717838 -14.085326 0.461 170 170 0
-1.662273 -14.07099 0.461 170 170 0
-1.633345 -14.14858 0.46 170 170 0
-1.610997 -14.091504 0.461 170 170 0
-1.820189 -14.076947 0.462 170 170 0
-1.629747 -14.145924 0.46 170 170 0
-1.763585 -14.102422 0.461 170 170 0
-1.645683 -14.124336 0.46 170 170 0
-1.681663 -14.150896 0.46 170 170 0
-1.94409 -14.02055 0.463 170 170 0
-1.693212 -14.140523 0.46 170 170 0
-1.860416 -14.014924 0.463 170 170 0
-1.707044 -14.077358 0.461 170 170 0
-1.956542 -13.952477 0.465 170 170 0
-1.860518 -14.02834 0.463 170 170 0
-1.794218 -14.131706 0.46 170 170 0
-1.909235 -13.965359 0.464 170 170 0
-1.88101 -14.017899 0.463 170 170 0
-1.934454 -13.988423 0.464 170 170 0
-1.78692 -14.112977 0.461 170 170 0
-1.692291 -14.195986 0.459 170 170 0
-1.801041 -14.087826 0.461 170 170 0
-1.711418 -14.12339 0.46 170 170 0
-1.849117 -13.999357 0.463 170 170 0
-1.813379 -14.063581 0.462 170 170 0
-1.664678 -14.093333 0.461 170 170 0
-1.770661 -14.092081 0.461 170 170 0
-1.771565 -14.034383 0.462 170 170 0
-1.657588 -14.160918 0.459 170 170 0
-1.75983 -14.255849 0.458 170 170 0
-1.717863 -14.206525 0.459 170 170 0
-1.956072 -13.94935 0.465 170 170 0
-1.935141 -13.961137 0.464 170 170 0
-1.722687 -14.193966 0.459 170 170 0
-1.666987 -14.161741 0.459 170 170 0
-1.80925 -14.167817 0.46 170 170 0
-1.732336 -14.168848 0.46 170 170 0
-1.880659 -14.030423 0.463 170 170 0
-1.952558 -13.957874 0.465 170 170 0
-1.908381 -14.029765 0.463 170 170 0
-1.924755 -14.006833 0.463 170 170 0
-1.780976 -14.213649 0.459 170 170 0
-1.767594 -14.218223 0.459 170 170 0
-1.813473 -14.193725 0.459 170 170 0
-1.724792 -14.235542 0.458 170 170 0
-1.72441 -14.067389 0.462 170 170 0
-1.754484 -14.258573 0.458 170 170 0
-2.034026 -13.908508 0.466 170 170 0
-1.868218 -14.041251 0.463 170 170 0
-1.991126 -13.971892 0.464 170 170 0
-1.657886 -14.082204 0.461 170 170 0
-1.817266 -14.10425 0.461 170 170 0
-1.802356 -14.143271 0.46 170 170 0
-1.805356 -14.008186 0.463 170 170 0
-1.651568 -14.133683 0.46 170 170 0
-1.89449 -13.967259 0.464 170 170 0
-1.818398 -14.194581 0.459 170 170 0
-1.846304 -14.159039 0.46 170 170 0
-1.937331 -14.013893 0.463 170 170 0
-1.851799 -14.116957 0.461 170 170 0
-1.982921 -13.951383 0.465 170 170 0
-1.763008 -14.262086 0.458 170 170 0
-1.843983 -14.147875 0.46 170 170 0
-1.854641 -14.137956 0.461 170 170 0
-1.64595 -14.100631 0.461 170 170 0
-1.837067 -14.061613 0.462 170 170 0
-1.735454 -14.049415 0.462 170 170 0
-1.768943 -14.042452 0.462 170 170 0
-1.789207 -14.119668 0.461 170 170 0
-1.833898 -14.174338 0.46 170 170 0
-1.920431 -13.96751 0.464 170 170 0
-1.944544 -14.021441 0.463 170 170 0
-1.998908 -13.936502 0.465 170 170 0
-1.786666 -14.079437 0.461 170 170 0
-1.784425 -14.019974 0.463 170 170 0
-1.838599 -14.086646 0.462 170 170 0
-1.771463 -14.020967 0.463 170 170 0
-1.76448 -14.161448 0.46 170 170 0
-1.912836 -14.027495 0.463 170 170 0
-1.80864 -14.087321 0.461 170 170 0
-1.819697 -14.012102 0.463 170 170 0
-1.756855 -14.040755 0.462 170 170 0
-1.678234 -14.1706 0.459 170 170 0
-1.795181 -14.199677 0.459 170 170 0
-1.770013 -14.18332 0.459 170 170 0
-1.785347 -14.200199 0.459 170 170 0
-1.773649 -14.249929 0.458 170 170 0
-1.723269 -14.093783 0.461 170 170 0
-1.951633 -13.953856 0.465 170 170 0
-1.832137 -14.001275 0.463 170 170 0
-1.78384 -14.060676 0.462 170 170 0
-1.75742 -14.174025 0.459 170 170 0
-1.712042 -14.146641 0.46 170 170 0
-1.951082 -13.99903 0.464 170 170 0
-1.744046 -14.061872 0.462 170 170 0
-1.888444 -14.054515 0.462 170 170 0
-1.853275 -14.075802 0.462 170 170 0
-1.740834 -14.051164 0.462 170 170 0
-1.702343 -14.165051 0.459 170 170 0
-1.779682 -14.219919 0.459 170 170 0
-1.919222 -13.984961 0.464 170 170 0
-1.774353 -14.224879 0.459 170 170 0
-1.888237 -13.968202 0.464 170 170 0
-1.766041 -14.131472 0.46 170 170 0
-1.689245 -14.148156 0.46 170 170 0
-1.716878 -14.076837 0.461 170 170 0
-1.738284 -14.127658 0.46 170 170 0
-1.848094 -14.041405 0.462 170 170 0
-1.771361 -14.00755 0.463 170 170 0
-1.784727 -14.236428 0.458 170 170 0
-1.858659 -14.13703 0.461 170 170 0
-1.857153 -13.997507 0.463 170 170 0
-1.671251 -14.075395 0.461 170 170 0
-1.951315 -13.970853 0.464 170 170 0
-1.875974 -14.120351 0.461 170 170 0
-1.843758 -14.059326 0.462 170 170 0
-1.730511 -14.046322 0.462 170 170 0
-1.743813 -14.090049 0.461 170 170 0
-1.772427 -14.088937 0.461 170 170 0
-1.823698 -14.008943 0.463 170 170 0
-1.71264 -14.048694 0.462 170 170 0
-1.799076 -14.123619 0.461 170 170 0
-1.770424 -14.060778 0.462 170 170 0
-1.651682 -14.089854 0.461 170 170 0
-1.742247 -14.060544 0.462 170 170 0
-1.679176 -14.176854 0.459 170 170 0
-1.769516 -14.058995 0.462 170 170 0
-2.011734 -13.917622 0.466 170 170 0
-1.69034 -14.174534 0.459 170 170 0
-1.872401 -14.003205 0.463 170 170 0
-1.72001 -14.135847 0.46 170 170 0
-1.794167 -14.124997 0.461 170 170 0
-1.638958 -14.12215 0.46 170 170 0
-1.761353 -14.16192 0.46 170 170 0
-1.683818 -14.199181 0.459 170 170 0
-1.724601 -14.151465 0.46 170 170 0
-1.820766 -14.152971 0.46 170 170 0
-1.867896 -13.998768 0.463 170 170 0
-1.83114 -14.164519 0.46 170 170 0
-1.828339 -14.031268 0.463 170 170 0
-1.691646 -14.111017 0.461 170 170 0
-1.725318 -14.06917 0.461 170 170 0
-1.652272 -14.108633 0.46 170 170 0
-1.762808 -14.059046 0.462 170 170 0
-1.743825 -14.032804 0.462 170 170 0
-1.826685 -14.16679 0.46 170 170 0
-1.731237 -14.082989 0.461 170 170 0
-1.840334 -14.138511 0.461 170 170 0
-1.811614 -14.066726 0.462 170 170 0
-1.673907 -14.071796 0.461 170 170 0
-1.755001 -14.208926 0.459 170 170 0
-1.730176 -14.061083 0.462 170 170 0
-1.726875 -14.215401 0.459 170 170 0
-1.832641 -14.008874 0.463 170 170 0
-1.620332 -14.142865 0.46 170 170 0
-1.807164 -14.128477 0.461 170 170 0
-1.942944 -13.987464 0.464 170 170 0
-1.781977 -14.109884 0.461 170 170 0
-1.851841 -14.004704 0.463 170 170 0
-1.737177 -14.158525 0.46 170 170 0
-1.780285 -14.181454 0.459 170 170 0
-1.820791 -14.038481 0.462 170 170 0
-1.726094 -14.112545 0.461 170 170 0
-1.940136 -13.970939 0.464 170 170 0
-1.928501 -13.970132 0.464 170 170 0
-1.751819 -14.143209 0.46 170 170 0
-1.77252 -14.21908 0.459 170 170 0
-1.690318 -14.112817 0.46 170 170 0
-1.723073 -14.185913 0.459 170 170 0
-1.73923 -14.193393 0.459 170 170 0
-1.922956 -14.005506 0.463 170 170 0
-1.684654 -14.132538 0.46 170 170 0
-1.71365 -14.063891 0.462 170 170 0
-1.704277 -14.184266 0.459 170 170 0
-1.916044 -13.978724 0.464 170 170 0
-1.727889 -14.054392 0.462 170 170 0
-1.84759 -14.033806 0.463 170 170 0
-1.696903 -14.037632 0.462 170 170 0
-1.693479 -14.116817 0.46 170 170 0
-1.871681 -14.026019 0.463 170 170 0
-1.983964 -13.971052 0.464 170 170 0
-1.817346 -14.055949 0.462 170 170 0
-1.962275 -13.9417 0.465 170 170 0
-1.988704 -13.947313 0.465 170 170 0
-2.011972 -13.948926 0.465 170 170 0
-1.756546 -14.176714 0.459 170 170 0
-1.794252 -14.136177 0.46 170 170 0
-1.782084 -14.182781 0.459 170 170 0
-1.985577 -13.947785 0.465 170 170 0
-1.836545 -14.051778 0.462 170 170 0
-1.827283 -14.068843 0.462 170 170 0
-1.910028 -14.01097 0.463 170 170 0
-1.723655 -14.085731 0.461 170 170 0
-1.674429 -14.081632 0.461 170 170 0
-1.979692 -13.938437 0.465 170 170 0
-1.820855 -13.987944 0.463 170 170 0
-1.758065 -14.258993 0.458 170 170 0
-1.751526 -14.045715 0.462 170 170 0
-2.005701 -13.947632 0.465 170 170 0
-1.843712 -14.1121 0.461 170 170 0
-1.960832 -13.987329 0.464 170 170 0
-1.633345 -14.14858 0.46 170 170 0
-1.843779 -14.121043 0.461 170 170 0
-1.890947 -14.030792 0.463 170 170 0
-1.839519 -14.031183 0.463 170 170 0
-1.884825 -13.990142 0.464 170 170 0
-1.774951 -14.126932 0.46 170 170 0
-1.879148 -14.067107 0.462 170 170 0
-1.774446 -14.119333 0.461 170 170 0
-1.779623 -14.09425 0.461 170 170 0
-1.717961 -14.16046 0.46 170 170 0
-1.659549 -14.065644 0.461 170 170 0
-1.818764 -14.124811 0.461 170 170 0
-1.759491 -14.211129 0.459 170 170 0
-1.888389 -13.988326 0.464 170 170 0
-1.622966 -14.07755 0.461 170 170 0
-1.633362 -14.150816 0.46 170 170 0
-1.920329 -13.954094 0.464 170 170 0
-1.80169 -13.996586 0.463 170 170 0
-1.801724 -14.001059 0.463 170 170 0
-1.857111 -14.109761 0.461 170 170 0
-1.698974 -14.074737 0.461 170 170 0
-1.765646 -14.256251 0.458 170 170 0
-1.831509 -14.154231 0.46 170 170 0
-1.652408 -14.126521 0.46 170 170 0
-1.629658 -14.075263 0.461 170 170 0
-1.887184 -14.065258 0.462 170 170 0
-1.779758 -14.112138 0.461 170 170 0
-1.745577 -14.086905 0.461 170 170 0
-1.901567 -13.95692 0.464 170 170 0
-1.62749 -14.084224 0.461 170 170 0
-1.675943 -14.104428 0.461 170 170 0
-1.755303 -14.189692 0.459 170 170 0
-2.036716 -13.909382 0.466 170 170 0
-1.788087 -14.207781 0.459 170 170 0
-1.628351 -14.138779 0.46 170 170 0
-1.706445 -14.175305 0.459 170 170 0
-1.775354 -14.121115 0.461 170 170 0
-1.686245 -14.047552 0.462 170 170 0
-1.607535 -14.106736 0.46 170 170 0
-1.647317 -14.162785 0.459 170 170 0
-1.673037 -14.133967 0.46 170 170 0
-1.777319 -14.085322 0.461 170 170 0
-1.709547 -14.053637 0.462 170 170 0
-1.806191 -14.177232 0.46 170 170 0
-1.732438 -14.182264 0.459 170 170 0
-1.897163 -13.965898 0.464 170 170 0
-1.703883 -14.073358 0.461 170 170 0
-1.675646 -14.183143 0.459 170 170 0
-1.749027 -14.128919 0.46 170 170 0
-1.765651 -14.080045 0.461 170 170 0
-1.810082 -14.041693 0.462 170 170 0
-1.837135 -14.070558 0.462 170 170 0
-1.736905 -14.122748 0.46 170 170 0
-1.938489 -13.989735 0.464 170 170 0
-1.756214 -14.250957 0.458 170 170 0
-1.640299 -14.063107 0.461 170 170 0
-1.850805 -14.103995 0.461 170 170 0
-1.714652 -14.195816 0.459 170 170 0
-1.770683 -14.153798 0.46 170 170 0
-1.849749 -14.14157 0.46 170 170 0
-1.872033 -14.013494 0.463 170 170 0
-1.680347 -14.095449 0.461 170 170 0
-1.723604 -14.079021 0.461 170 170 0
-1.98951 -13.935679 0.465 170 170 0
-1.895873 -14.03165 0.463 170 170 0
-1.992064 -13.918666 0.465 170 170 0
-1.862639 -14.072152 0.462 170 170 0
-1.726027 -14.103601 0.461 170 170 0
-1.795767 -14.158975 0.46 170 170 0
-1.794604 -14.123652 0.461 170 170 0
-1.923087 -13.963911 0.464 170 170 0
-1.794083 -14.113818 0.461 170 170 0
-1.800667 -14.038634 0.462 170 170 0
-1.667475 -14.167105 0.459 170 170 0
-1.620281 -14.136157 0.46 170 170 0
-1.775532 -14.02675 0.463 170 170 0
-1.75719 -14.025994 0.462 170 170 0
-1.955198 -13.952041 0.465 170 170 0
-1.808211 -14.207627 0.459 170 170 0
-1.648657 -14.103741 0.461 170 170 0
-1.994236 -13.969186 0.464 170 170 0
-1.822425 -14.07693 0.462 170 170 0
-1.690556 -14.14412 0.46 170 170 0
-1.764518 -14.225402 0.458 170 170 0
-1.765638 -14.137289 0.46 170 170 0
-2.01086 -13.920312 0.465 170 170 0
-1.776199 -14.173435 0.46 170 170 0
-1.901805 -13.988223 0.464 170 170 0
-1.825213 -14.031739 0.463 170 170 0
-1.847721 -13.992211 0.463 170 170 0
-1.66142 -14.135397 0.46 170 170 0
-1.712801 -14.187779 0.459 170 170 0
-1.674076 -14.094156 0.461 170 170 0
-1.653634 -14.111306 0.46 170 170 0
-1.682304 -14.176384 0.459 170 170 0
-1.802954 -14.045325 0.462 170 170 0
-1.933028 -14.036287 0.463 170 170 0
-1.81847 -14.027318 0.463 170 170 0
-1.646069 -14.116282 0.46 170 170 0
-1.903069 -14.036963 0.463 170 170 0
-1.918234 -14.03148 0.463 170 170 0
-1.791252 -14.035575 0.462 170 170 0
-1.715114 -14.079981 0.461 170 170 0
-1.814881 -14.143623 0.46 170 170 0
-1.77182 -14.067923 0.462 170 170 0
-1.651199 -14.143972 0.46 170 170 0
-1.8136 -14.09265 0.461 170 170 0
-1.779737 -14.05042 0.462 170 170 0
-1.789225 -14.121905 0.461 170 170 0
-1.898665 -14.045939 0.463 170 170 0
-1.635509 -14.080138 0.461 170 170 0
-1.936626 -14.038942 0.463 170 170 0
-1.730002 -14.214931 0.459 170 170 0
-1.846728 -13.97925 0.464 170 170 0
-1.676402 -14.164801 0.459 170 170 0
-1.761951 -14.063972 0.462 170 170 0
-1.719276 -14.215905 0.459 170 170 0
-2.007874 -14.23384 0.456 170 170 0
-1.887668 -14.246827 0.457 170 170 0
-2.017823 -14.189489 0.458 170 170 0
-2.001165 -14.233891 0.456 170 170 0
-2.005718 -14.185556 0.459 170 170 0
-1.981792 -14.15622 0.461 170 170 0
-1.988067 -14.216996 0.457 170 170 0
-1.764421 -14.271467 0.458 170 170 0
-1.949971 -14.206104 0.458 170 170 0
-1.94182 -14.251783 0.456 170 170 0
-1.78135 -14.262841 0.458 170 170 0
-1.87398 -14.211153 0.459 170 170 0
