ply
format ascii 1.0
element vertex 1339
property double x
property double y
property double z
property uchar red
property uchar green
property uchar blue
element face 0
property list uchar int vertex_indices
end_header
3.217392 -13.190325 0.45 0 255 255
3.154733 -13.196558 0.458 0 255 255
3.233528 -13.244562 0.466 0 255 255
3.25187 -13.243807 0.464 0 255 255
3.205601 -13.270737 0.477 0 255 255
3.356878 -13.255784 0.458 0 255 255
3.178689 -13.222232 0.464 0 255 255
3.261892 -13.219733 0.455 0 255 255
3.11317 -13.251698 0.48 0 255 255
3.153894 -13.189396 0.456 0 255 255
3.062043 -13.270541 0.491 0 255 255
3.34067 -13.269973 0.464 0 255 255
3.144661 -13.22734 0.469 0 255 255
3.187599 -13.226771 0.465 0 255 255
3.225288 -13.269545 0.475 0 255 255
3.262897 -13.264015 0.47 0 255 255
3.053973 -13.273163 0.493 0 255 255
3.168485 -13.211421 0.461 0 255 255
3.257658 -13.188395 0.445 0 255 255
3.31974 -13.258185 0.462 0 255 255
3.039649 -13.274843 0.495 0 255 255
2.967418 -13.363741 0.49 0 255 255
2.988467 -13.359875 0.489 0 255 255
3.297023 -13.304972 0.472 0 255 255
3.135594 -13.302405 0.485 0 255 255
3.033947 -13.319075 0.491 0 255 255
3.376679 -13.298421 0.467 0 255 255
3.167552 -13.334401 0.478 0 255 255
3.038266 -13.339232 0.488 0 255 255
3.151819 -13.28598 0.486 0 255 255
3.054945 -13.321918 0.489 0 255 255
3.297863 -13.312135 0.471 0 255 255
3.218865 -13.290962 0.48 0 255 255
3.272427 -13.304786 0.474 0 255 255
3.241662 -13.292477 0.478 0 255 255
3.016462 -13.324757 0.491 0 255 255
3.088065 -13.318592 0.487 0 255 255
3.106237 -13.340197 0.483 0 255 255
3.151835 -13.283745 0.486 0 255 255
3.220595 -13.298578 0.479 0 255 255
3.123658 -13.283978 0.488 0 255 255
3.097145 -13.300772 0.488 0 255 255
3.055768 -13.331316 0.487 0 255 255
3.320342 -13.296652 0.471 0 255 255
3.29931 -13.298282 0.473 0 255 255
3.180263 -13.309453 0.481 0 255 255
2.966527 -13.363287 0.491 0 255 255
3.036365 -13.353977 0.486 0 255 255
3.19869 -13.297518 0.481 0 255 255
3.150507 -13.281946 0.486 0 255 255
3.127456 -13.313972 0.484 0 255 255
3.045869 -13.280257 0.495 0 255 255
2.995243 -13.350982 0.49 0 255 255
3.27367 -13.317765 0.472 0 255 255
3.227219 -13.30981 0.477 0 255 255
3.128262 -13.325605 0.483 0 255 255
3.150707 -13.314594 0.482 0 255 255
3.307851 -13.292532 0.473 0 255 255
3.014124 -13.338156 0.49 0 255 255
3.235442 -13.287063 0.479 0 255 255
3.035054 -13.349942 0.487 0 255 255
3.268307 -13.317277 0.473 0 255 255
3.022529 -13.350294 0.488 0 255 255
3.326965 -13.307883 0.469 0 255 255
3.096758 -13.292718 0.489 0 255 255
3.089159 -13.292213 0.49 0 255 255
3.107735 -13.319635 0.485 0 255 255
3.039964 -13.351321 0.486 0 255 255
2.946824 -13.366714 0.492 0 255 255
3.03208 -13.329348 0.49 0 255 255
3.144452 -13.313653 0.483 0 255 255
3.101316 -13.281572 0.49 0 255 255
3.215755 -13.288255 0.48 0 255 255
3.196034 -13.29392 0.481 0 255 255
3.285894 -13.29818 0.474 0 255 255
3.171132 -13.333981 0.478 0 255 255
3.124952 -13.29025 0.487 0 255 255
3.044541 -13.278459 0.495 0 255 255
3.002558 -13.330018 0.492 0 255 255
3.045751 -13.295909 0.493 0 255 255
3.124176 -13.333624 0.482 0 255 255
3.348922 -13.302236 0.468 0 255 255
3.272007 -13.301205 0.474 0 255 255
3.197765 -13.301535 0.48 0 255 255
3.064173 -13.343455 0.485 0 255 255
3.128465 -13.298773 0.486 0 255 255
3.094488 -13.297174 0.489 0 255 255
3.269788 -13.298951 0.475 0 255 255
3.014832 -13.303724 0.494 0 255 255
3.119284 -13.330009 0.483 0 255 255
3.214138 -13.324469 0.476 0 255 255
3.088905 -13.325753 0.486 0 255 255
3.152471 -13.317739 0.482 0 255 255
3.124448 -13.297849 0.486 0 255 255
3.098286 -13.327167 0.485 0 255 255
3.325217 -13.302504 0.47 0 255 255
3.195512 -13.303755 0.48 0 255 255
3.125203 -13.316191 0.484 0 255 255
3.205631 -13.325746 0.477 0 255 255
2.993194 -13.326369 0.493 0 255 255
3.06083 -13.312572 0.489 0 255 255
3.072145 -13.294768 0.491 0 255 255
3.221368 -13.314684 0.477 0 255 255
2.985879 -13.347333 0.491 0 255 255
3.182885 -13.317522 0.479 0 255 255
3.062998 -13.321532 0.488 0 255 255
3.236197 -13.305405 0.477 0 255 255
3.119704 -13.333591 0.482 0 255 255
3.176347 -13.295112 0.483 0 255 255
2.986214 -13.362094 0.489 0 255 255
2.962611 -13.348945 0.493 0 255 255
3.007165 -13.312163 0.494 0 255 255
3.095766 -13.30568 0.488 0 255 255
3.029509 -13.314569 0.492 0 255 255
3.099851 -13.297662 0.488 0 255 255
3.136769 -13.324328 0.482 0 255 255
3.258051 -13.313174 0.474 0 255 255
3.036182 -13.319093 0.491 0 255 255
3.089074 -13.303393 0.488 0 255 255
3.229017 -13.308481 0.477 0 255 255
3.057583 -13.327752 0.488 0 255 255
3.213785 -13.311943 0.478 0 255 255
3.121049 -13.333154 0.482 0 255 255
3.043124 -13.34732 0.487 0 255 255
3.190972 -13.312665 0.479 0 255 255
3.013488 -13.304162 0.494 0 255 255
3.004493 -13.310802 0.494 0 255 255
3.324411 -13.29087 0.472 0 255 255
3.259431 -13.308265 0.475 0 255 255
3.069893 -13.296988 0.491 0 255 255
3.355176 -13.303178 0.468 0 255 255
3.110578 -13.298637 0.487 0 255 255
3.061873 -13.292901 0.492 0 255 255
3.123205 -13.284869 0.488 0 255 255
3.165655 -13.289664 0.484 0 255 255
3.024935 -13.327951 0.49 0 255 255
3.085073 -13.300232 0.489 0 255 255
3.077962 -13.294365 0.49 0 255 255
3.038822 -13.324926 0.49 0 255 255
3.019521 -13.334172 0.49 0 255 255
3.172948 -13.330417 0.479 0 255 255
3.027575 -13.333785 0.489 0 255 255
3.09479 -13.316407 0.486 0 255 255
3.12648 -13.324697 0.483 0 255 255
3.080652 -13.29349 0.49 0 255 255
3.134635 -13.310896 0.484 0 255 255
3.097764 -13.337002 0.484 0 255 255
3.121605 -13.318846 0.484 0 255 255
3.22416 -13.300394 0.478 0 255 255
2.998506 -13.333565 0.492 0 255 255
3.239794 -13.302749 0.477 0 255 255
3.161955 -13.305736 0.483 0 255 255
3.199059 -13.307806 0.479 0 255 255
3.011837 -13.344846 0.489 0 255 255
3.028232 -13.306063 0.493 0 255 255
3.086113 -13.340043 0.484 0 255 255
3.018715 -13.322537 0.492 0 255 255
3.022533 -13.290813 0.495 0 255 255
3.170161 -13.285226 0.484 0 255 255
3.057436 -13.288395 0.493 0 255 255
2.991429 -13.323224 0.494 0 255 255
3.192737 -13.315808 0.479 0 255 255
3.191307 -13.327425 0.478 0 255 255
3.032839 -13.288208 0.495 0 255 255
3.100255 -13.303478 0.488 0 255 255
3.216879 -13.316886 0.477 0 255 255
3.273318 -13.30524 0.474 0 255 255
3.033226 -13.296262 0.494 0 255 255
3.057436 -13.288395 0.493 0 255 255
3.099092 -13.3388 0.483 0 255 255
3.103921 -13.291879 0.489 0 255 255
3.0402 -13.320017 0.49 0 255 255
3.110878 -13.317871 0.485 0 255 255
3.047498 -13.30129 0.492 0 255 255
3.332379 -13.301662 0.47 0 255 255
3.079829 -13.284092 0.492 0 255 255
3.110862 -13.320107 0.485 0 255 255
3.113972 -13.322813 0.484 0 255 255
3.145059 -13.292638 0.485 0 255 255
3.054996 -13.31521 0.49 0 255 255
3.287188 -13.304451 0.473 0 255 255
3.043981 -13.352246 0.486 0 255 255
3.097548 -13.306588 0.487 0 255 255
3.068951 -13.303241 0.49 0 255 255
3.002506 -13.336726 0.491 0 255 255
3.086953 -13.347206 0.483 0 255 255
2.98139 -13.349535 0.491 0 255 255
2.961584 -13.366379 0.49 0 255 255
3.331925 -13.302554 0.47 0 255 255
3.00913 -13.347957 0.489 0 255 255
3.033293 -13.287317 0.495 0 255 255
3.050155 -13.304888 0.491 0 255 255
3.128954 -13.29341 0.487 0 255 255
3.10227 -13.332563 0.484 0 255 255
3.246957 -13.301909 0.476 0 255 255
2.994857 -13.342929 0.491 0 255 255
3.149379 -13.312797 0.483 0 255 255
3.158743 -13.316444 0.481 0 255 255
3.148051 -13.310997 0.483 0 255 255
2.963468 -13.353871 0.492 0 255 255
3.224966 -13.312028 0.477 0 255 255
3.33105 -13.299864 0.47 0 255 255
3.141762 -13.314528 0.483 0 255 255
3.194065 -13.317608 0.478 0 255 255
3.378495 -13.294857 0.467 0 255 255
3.332816 -13.303008 0.47 0 255 255
3.032822 -13.290444 0.494 0 255 255
3.046726 -13.285184 0.494 0 255 255
3.227758 -13.297738 0.478 0 255 255
3.023658 -13.319445 0.491 0 255 255
3.024867 -13.336896 0.489 0 255 255
3.043578 -13.34643 0.487 0 255 255
3.273454 -13.287352 0.476 0 255 255
3.139089 -13.313165 0.483 0 255 255
3.023811 -13.299321 0.494 0 255 255
3.310422 -13.30731 0.471 0 255 255
3.163351 -13.298591 0.483 0 255 255
3.06646 -13.336764 0.486 0 255 255
3.108443 -13.285204 0.489 0 255 255
3.099988 -13.279774 0.49 0 255 255
3.239863 -13.293804 0.478 0 255 255
3.091259 -13.310119 0.487 0 255 255
3.0863 -13.551137 0.418 0 255 255
2.976057 -13.404057 0.484 0 255 255
3.156273 -13.523939 0.467 0 255 255
3.165234 -13.521771 0.472 0 255 255
3.132738 -13.501846 0.474 0 255 255
2.947124 -13.385947 0.486 0 255 255
2.986629 -13.425156 0.473 0 255 255
2.985755 -13.422466 0.474 0 255 255
3.01529 -13.47904 0.443 0 255 255
2.987953 -13.486436 0.427 0 255 255
3.285367 -13.603184 0.459 0 255 255
3.234495 -13.588487 0.45 0 255 255
2.971092 -13.468866 0.434 0 255 255
3.117591 -13.494128 0.473 0 255 255
3.037175 -13.541819 0.405 0 255 255
3.172125 -13.556707 0.449 0 255 255
3.13455 -13.557763 0.432 0 255 255
3.169672 -13.526278 0.471 0 255 255
3.22567 -13.572766 0.458 0 255 255
2.99234 -13.49765 0.42 0 255 255
3.21079 -13.588754 0.44 0 255 255
2.973146 -13.433998 0.46 0 255 255
3.163499 -13.573636 0.432 0 255 255
3.137897 -13.529166 0.455 0 255 255
3.214575 -13.561502 0.462 0 255 255
2.966502 -13.484485 0.42 0 255 255
2.957931 -13.435225 0.454 0 255 255
3.176932 -13.571502 0.44 0 255 255
3.046306 -13.517291 0.427 0 255 255
3.072582 -13.5318 0.427 0 255 255
3.073511 -13.468302 0.475 0 255 255
2.968543 -13.392371 0.49 0 255 255
2.990423 -13.51463 0.406 0 255 255
3.007556 -13.496424 0.427 0 255 255
3.191459 -13.54299 0.467 0 255 255
3.140151 -13.526947 0.458 0 255 255
3.170478 -13.537911 0.462 0 255 255
3.276406 -13.605352 0.454 0 255 255
3.198469 -13.562274 0.455 0 255 255
3.222912 -13.582584 0.449 0 255 255
2.993032 -13.465455 0.445 0 255 255
2.981297 -13.479677 0.429 0 255 255
3.008226 -13.525946 0.405 0 255 255
3.121978 -13.505342 0.467 0 255 255
3.01395 -13.419996 0.488 0 255 255
3.148351 -13.565918 0.432 0 255 255
2.982909 -13.502945 0.413 0 255 255
3.104157 -13.496263 0.467 0 255 255
3.014094 -13.518835 0.413 0 255 255
2.996295 -13.448037 0.459 0 255 255
3.064478 -13.538896 0.418 0 255 255
3.18218 -13.528161 0.474 0 255 255
3.105248 -13.529366 0.442 0 255 255
3.021595 -13.473275 0.45 0 255 255
3.062094 -13.499521 0.447 0 255 255
3.079108 -13.496967 0.456 0 255 255
2.982136 -13.486839 0.424 0 255 255
3.306315 -13.612735 0.461 0 255 255
2.985569 -13.447062 0.455 0 255 255
3.123238 -13.516086 0.459 0 255 255
3.092944 -13.50065 0.459 0 255 255
3.042695 -13.462702 0.467 0 255 255
3.014416 -13.476351 0.445 0 255 255
2.970804 -13.506878 0.405 0 255 255
2.974991 -13.485443 0.423 0 255 255
3.102779 -13.501172 0.462 0 255 255
3.256855 -13.588656 0.458 0 255 255
2.951359 -13.417285 0.465 0 255 255
3.261429 -13.575274 0.471 0 255 255
2.982107 -13.43183 0.466 0 255 255
3.280475 -13.599569 0.46 0 255 255
2.97382 -13.404039 0.483 0 255 255
3.118447 -13.499055 0.47 0 255 255
3.218894 -13.58166 0.449 0 255 255
2.996795 -13.49992 0.421 0 255 255
3.050626 -13.537449 0.414 0 255 255
2.976052 -13.463537 0.44 0 255 255
3.221402 -13.545901 0.477 0 255 255
3.035177 -13.510498 0.428 0 255 255
3.307744 -13.601117 0.47 0 255 255
2.983715 -13.514579 0.404 0 255 255
3.135042 -13.492919 0.481 0 255 255
3.076516 -13.543906 0.419 0 255 255
3.221283 -13.561553 0.465 0 255 255
3.161785 -13.563784 0.439 0 255 255
3.055135 -13.473529 0.464 0 255 255
3.0534 -13.525394 0.424 0 255 255
3.028893 -13.454547 0.468 0 255 255
3.224007 -13.556207 0.47 0 255 255
3.059608 -13.473563 0.465 0 255 255
3.152018 -13.554318 0.442 0 255 255
3.03163 -13.506446 0.43 0 255 255
3.064699 -13.509828 0.441 0 255 255
3.080674 -13.467462 0.478 0 255 255
3.16708 -13.573216 0.434 0 255 255
3.113153 -13.489622 0.475 0 255 255
3.113688 -13.537032 0.44 0 255 255
3.009995 -13.469609 0.448 0 255 255
3.041198 -13.483263 0.451 0 255 255
3.160258 -13.529336 0.464 0 255 255
3.034927 -13.484557 0.447 0 255 255
3.207815 -13.568159 0.455 0 255 255
3.100594 -13.494447 0.466 0 255 255
3.234313 -13.553601 0.476 0 255 255
3.041079 -13.498915 0.439 0 255 255
3.040069 -13.514112 0.427 0 255 255
3.046543 -13.485987 0.451 0 255 255
3.064665 -13.514299 0.437 0 255 255
3.022907 -13.477309 0.448 0 255 255
3.07657 -13.477717 0.47 0 255 255
3.150792 -13.539104 0.453 0 255 255
3.117552 -13.558082 0.425 0 255 255
3.09224 -13.475599 0.477 0 255 255
3.077945 -13.532289 0.429 0 255 255
3.09002 -13.473347 0.478 0 255 255
3.108625 -13.555778 0.424 0 255 255
3.064029 -13.480306 0.462 0 255 255
3.273466 -13.580285 0.472 0 255 255
3.143561 -13.548887 0.443 0 255 255
2.983218 -13.403216 0.488 0 255 255
3.067555 -13.546075 0.414 0 255 255
3.227117 -13.558913 0.47 0 255 255
3.033191 -13.536422 0.408 0 255 255
2.992459 -13.481998 0.432 0 255 255
2.998073 -13.508427 0.415 0 255 255
3.058645 -13.541534 0.414 0 255 255
2.985319 -13.421121 0.475 0 255 255
3.000602 -13.410951 0.488 0 255 255
2.981012 -13.458208 0.446 0 255 255
3.269733 -13.600829 0.455 0 255 255
3.100089 -13.502046 0.461 0 255 255
3.116326 -13.542867 0.437 0 255 255
3.167352 -13.53744 0.461 0 255 255
3.007612 -13.430235 0.477 0 255 255
3.20491 -13.538619 0.476 0 255 255
3.100157 -13.493101 0.467 0 255 255
2.999643 -13.419441 0.482 0 255 255
3.081883 -13.484913 0.466 0 255 255
3.075629 -13.483972 0.465 0 255 255
2.99453 -13.444894 0.461 0 255 255
3.113148 -13.549104 0.43 0 255 255
3.284544 -13.593786 0.466 0 255 255
3.026033 -13.47778 0.449 0 255 255
3.191625 -13.580111 0.439 0 255 255
3.136854 -13.548837 0.44 0 255 255
3.019495 -13.45537 0.463 0 255 255
3.228377 -13.569656 0.462 0 255 255
3.14741 -13.572172 0.427 0 255 255
3.006092 -13.512513 0.414 0 255 255
2.978611 -13.42107 0.472 0 255 255
3.158191 -13.506959 0.48 0 255 255
2.955377 -13.418211 0.465 0 255 255
3.14284 -13.526073 0.46 0 255 255
3.012452 -13.440557 0.471 0 255 255
3.151093 -13.558336 0.439 0 255 255
3.283216 -13.591987 0.467 0 255 255
3.097972 -13.486377 0.471 0 255 255
2.988594 -13.460949 0.447 0 255 255
2.949996 -13.419958 0.462 0 255 255
3.02953 -13.488541 0.442 0 255 255
3.350933 -13.62649 0.468 0 255 255
3.149531 -13.52836 0.461 0 255 255
3.193678 -13.545243 0.466 0 255 255
3.008662 -13.527291 0.404 0 255 255
3.157096 -13.533338 0.46 0 255 255
3.14279 -13.532781 0.455 0 255 255
3.305861 -13.613626 0.46 0 255 255
3.167738 -13.545493 0.455 0 255 255
3.044944 -13.519963 0.424 0 255 255
3.189139 -13.554152 0.457 0 255 255
3.269313 -13.597248 0.458 0 255 255
3.055823 -13.500815 0.444 0 255 255
2.939996 -13.382315 0.486 0 255 255
3.001654 -13.508007 0.416 0 255 255
2.994314 -13.414481 0.484 0 255 255
3.210353 -13.587409 0.441 0 255 255
2.962237 -13.398138 0.483 0 255 255
2.97402 -13.436687 0.459 0 255 255
3.143409 -13.569012 0.428 0 255 255
3.049705 -13.481986 0.455 0 255 255
3.070193 -13.551908 0.411 0 255 255
3.235221 -13.551819 0.478 0 255 255
3.088557 -13.489436 0.465 0 255 255
2.971165 -13.400441 0.485 0 255 255
3.042695 -13.462702 0.467 0 255 255
3.085057 -13.538157 0.427 0 255 255
3.289822 -13.605453 0.46 0 255 255
3.167754 -13.543257 0.457 0 255 255
3.163384 -13.529808 0.465 0 255 255
3.341534 -13.627313 0.464 0 255 255
3.111718 -13.56072 0.421 0 255 255
3.006007 -13.523693 0.406 0 255 255
3.034791 -13.502444 0.433 0 255 255
3.12648 -13.560386 0.427 0 255 255
3.056043 -13.471747 0.466 0 255 255
3.157096 -13.533338 0.46 0 255 255
3.122784 -13.516976 0.458 0 255 255
3.003703 -13.53262 0.398 0 255 255
3.016856 -13.449535 0.467 0 255 255
3.07988 -13.513073 0.444 0 255 255
3.133073 -13.516608 0.463 0 255 255
3.151127 -13.553864 0.443 0 255 255
2.983905 -13.430502 0.467 0 255 255
3.111201 -13.511075 0.459 0 255 255
3.090186 -13.510468 0.45 0 255 255
3.148958 -13.544903 0.448 0 255 255
3.176898 -13.575974 0.436 0 255 255
3.174917 -13.542418 0.461 0 255 255
2.999604 -13.483395 0.434 0 255 255
3.073189 -13.510786 0.443 0 255 255
3.049684 -13.543702 0.409 0 255 255
3.048932 -13.465879 0.467 0 255 255
2.989333 -13.481527 0.431 0 255 255
3.362062 -13.633284 0.468 0 255 255
3.062026 -13.508465 0.441 0 255 255
3.032254 -13.483194 0.447 0 255 255
3.019525 -13.510379 0.422 0 255 255
2.999168 -13.482049 0.435 0 255 255
3.106355 -13.560233 0.419 0 255 255
3.039971 -13.468047 0.462 0 255 255
3.232412 -13.568345 0.464 0 255 255
3.144907 -13.54845 0.444 0 255 255
3.161115 -13.534262 0.461 0 255 255
3.22051 -13.545446 0.477 0 255 255
3.219263 -13.591949 0.441 0 255 255
3.179151 -13.573755 0.439 0 255 255
3.203967 -13.544874 0.47 0 255 255
3.141127 -13.516221 0.467 0 255 255
3.16932 -13.513752 0.48 0 255 255
3.006262 -13.490153 0.432 0 255 255
3.176143 -13.557631 0.449 0 255 255
3.052258 -13.499 0.443 0 255 255
2.994025 -13.452493 0.455 0 255 255
3.136705 -13.50948 0.47 0 255 255
3.253898 -13.565825 0.475 0 255 255
2.995417 -13.504829 0.416 0 255 255
3.300514 -13.610902 0.459 0 255 255
3.07837 -13.476389 0.471 0 255 255
3.108965 -13.511058 0.458 0 255 255
2.984763 -13.435428 0.464 0 255 255
2.985416 -13.467186 0.441 0 255 255
3.241589 -13.59659 0.446 0 255 255
3.009444 -13.424435 0.482 0 255 255
3.088103 -13.490327 0.465 0 255 255
3.134702 -13.53764 0.448 0 255 255
3.025393 -13.503268 0.429 0 255 255
3.128181 -13.512993 0.464 0 255 255
3.247474 -13.587243 0.456 0 255 255
3.024739 -13.47151 0.453 0 255 255
3.08338 -13.464352 0.482 0 255 255
3.155298 -13.534665 0.458 0 255 255
2.981899 -13.518143 0.401 0 255 255
3.019895 -13.520668 0.414 0 255 255
3.083695 -13.540831 0.424 0 255 255
3.010059 -13.520146 0.411 0 255 255
3.068429 -13.548764 0.412 0 255 255
2.991187 -13.41401 0.483 0 255 255
3.137477 -13.525585 0.458 0 255 255
3.063053 -13.491032 0.454 0 255 255
3.111621 -13.514655 0.456 0 255 255
2.996078 -13.417625 0.482 0 255 255
2.980511 -13.406326 0.484 0 255 255
3.207968 -13.548035 0.47 0 255 255
3.036204 -13.493064 0.441 0 255 255
3.046242 -13.466754 0.466 0 255 255
3.14141 -13.53769 0.45 0 255 255
2.993219 -13.440859 0.464 0 255 255
3.169757 -13.515097 0.479 0 255 255
2.964753 -13.479104 0.423 0 255 255
2.956352 -13.407484 0.474 0 255 255
3.300145 -13.600613 0.467 0 255 255
2.962319 -13.446438 0.446 0 255 255
3.239523 -13.574213 0.463 0 255 255
3.100628 -13.489975 0.469 0 255 255
3.177288 -13.524546 0.475 0 255 255
2.966909 -13.43082 0.46 0 255 255
2.986999 -13.435445 0.465 0 255 255
3.090721 -13.557878 0.415 0 255 255
3.088035 -13.499271 0.458 0 255 255
3.172108 -13.558943 0.447 0 255 255
3.279181 -13.593298 0.464 0 255 255
3.178884 -13.55005 0.456 0 255 255
3.013292 -13.44772 0.466 0 255 255
2.979583 -13.469826 0.436 0 255 255
3.004645 -13.526365 0.404 0 255 255
3.033819 -13.45369 0.47 0 255 255
3.08896 -13.495253 0.461 0 255 255
2.984071 -13.467624 0.44 0 255 255
3.042695 -13.462702 0.467 0 255 255
3.099329 -13.543184 0.429 0 255 255
2.972454 -13.466193 0.436 0 255 255
3.106894 -13.548162 0.429 0 255 255
3.185354 -13.581405 0.436 0 255 255
3.146858 -13.526998 0.461 0 255 255
2.974906 -13.496623 0.414 0 255 255
3.122971 -13.492381 0.477 0 255 255
3.057787 -13.536609 0.417 0 255 255
3.108715 -13.485117 0.477 0 255 255
3.053082 -13.508397 0.437 0 255 255
3.055874 -13.494107 0.449 0 255 255
3.207731 -13.579338 0.446 0 255 255
3.117892 -13.513362 0.46 0 255 255
2.995972 -13.490521 0.427 0 255 255
2.967045 -13.412932 0.474 0 255 255
3.045487 -13.448412 0.479 0 255 255
3.16574 -13.514173 0.478 0 255 255
3.143918 -13.501931 0.479 0 255 255
2.976154 -13.450122 0.45 0 255 255
3.233185 -13.584452 0.453 0 255 255
3.022356 -13.432136 0.481 0 255 255
3.024332 -13.525174 0.413 0 255 255
3.262808 -13.570365 0.475 0 255 255
3.054932 -13.500361 0.444 0 255 255
3.202571 -13.552019 0.464 0 255 255
3.070028 -13.514787 0.439 0 255 255
3.135004 -13.556872 0.433 0 255 255
2.982981 -13.43452 0.464 0 255 255
3.039933 -13.532001 0.413 0 255 255
3.035563 -13.518551 0.422 0 255 255
2.9444 -13.391294 0.481 0 255 255
3.279283 -13.579882 0.474 0 255 255
3.189308 -13.531793 0.474 0 255 255
3.04256 -13.48059 0.454 0 255 255
3.034069 -13.47963 0.451 0 255 255
3.311326 -13.600698 0.472 0 255 255
3.127354 -13.563076 0.425 0 255 255
3.132806 -13.492903 0.481 0 255 255
2.96906 -13.442017 0.453 0 255 255
3.139277 -13.524258 0.46 0 255 255
3.108155 -13.558905 0.421 0 255 255
2.972636 -13.501079 0.409 0 255 255
3.07744 -13.539888 0.423 0 255 255
3.202419 -13.572143 0.449 0 255 255
2.977567 -13.44074 0.457 0 255 255
3.279737 -13.578991 0.475 0 255 255
2.99234 -13.49765 0.42 0 255 255
3.008014 -13.436051 0.473 0 255 255
2.944031 -13.381004 0.489 0 255 255
3.113653 -13.541505 0.436 0 255 255
3.168141 -13.55131 0.451 0 255 255
3.318454 -13.604329 0.472 0 255 255
3.150558 -13.510926 0.474 0 255 255
3.176733 -13.538854 0.463 0 255 255
2.96553 -13.435729 0.456 0 255 255
2.979918 -13.484586 0.425 0 255 255
3.258217 -13.585983 0.462 0 255 255
3.244716 -13.597061 0.447 0 255 255
3.048979 -13.518653 0.427 0 255 255
3.123976 -13.536663 0.444 0 255 255
3.143595 -13.544415 0.446 0 255 255
3.02936 -13.5109 0.426 0 255 255
3.222208 -13.557534 0.468 0 255 255
3.22298 -13.57364 0.456 0 255 255
3.224189 -13.591091 0.444 0 255 255
3.002999 -13.507569 0.417 0 255 255
3.309072 -13.602917 0.469 0 255 255
3.175167 -13.568358 0.441 0 255 255
2.964469 -13.457636 0.44 0 255 255
2.98234 -13.460007 0.444 0 255 255
3.245811 -13.570683 0.468 0 255 255
3.098303 -13.560618 0.416 0 255 255
3.025644 -13.529208 0.41 0 255 255
3.195829 -13.55644 0.458 0 255 255
3.223939 -13.56515 0.463 0 255 255
2.968788 -13.477794 0.425 0 255 255
3.059306 -13.45433 0.48 0 255 255
3.15116 -13.549393 0.446 0 255 255
3.123238 -13.516086 0.46 0 255 255
3.140299 -13.566304 0.429 0 255 255
2.97444 -13.440269 0.457 0 255 255
3.05903 -13.549587 0.408 0 255 255
3.172158 -13.552236 0.452 0 255 255
3.047502 -13.477496 0.458 0 255 255
3.005536 -13.52682 0.404 0 255 255
3.031277 -13.49392 0.439 0 255 255
3.212152 -13.586081 0.443 0 255 255
3.14279 -13.532781 0.455 0 255 255
3.012262 -13.524634 0.408 0 255 255
3.112927 -13.578172 0.403 0 255 255
3.321394 -13.629396 0.451 0 255 255
3.01885 -13.540338 0.399 0 255 255
3.021052 -13.544827 0.395 0 255 255
3.202953 -13.619553 0.402 0 255 255
3.05671 -13.56075 0.395 0 255 255
3.329027 -13.625429 0.46 0 255 255
3.216268 -13.633071 0.395 0 255 255
3.294913 -13.641718 0.424 0 255 255
3.128529 -13.584999 0.404 0 255 255
3.14909 -13.586496 0.413 0 255 255
3.295958 -13.622047 0.447 0 255 255
3.221698 -13.624615 0.407 0 255 255
3.159884 -13.578527 0.426 0 255 255
3.248633 -13.611403 0.435 0 255 255
3.294897 -13.643954 0.423 0 255 255
3.360279 -13.632375 0.467 0 255 255
3.016614 -13.54032 0.397 0 255 255
3.116492 -13.579988 0.404 0 255 255
3.249472 -13.618565 0.428 0 255 255
3.223986 -13.617924 0.415 0 255 255
3.19011 -13.602908 0.415 0 255 255
3.143659 -13.594953 0.401 0 255 255
2.991178 -13.532972 0.393 0 255 255
3.035376 -13.543146 0.404 0 255 255
3.089341 -13.562787 0.409 0 255 255
3.095056 -13.5758 0.397 0 255 255
3.247589 -13.631072 0.413 0 255 255
3.254632 -13.645885 0.4 0 255 255
3.15136 -13.582041 0.419 0 255 255
3.203611 -13.591829 0.434 0 255 255
3.202164 -13.605682 0.418 0 255 255
3.278472 -13.627729 0.432 0 255 255
3.062158 -13.550058 0.409 0 255 255
3.014378 -13.540304 0.396 0 255 255
3.240613 -13.607316 0.435 0 255 255
3.258769 -13.631158 0.418 0 255 255
3.158369 -13.601326 0.401 0 255 255
3.253338 -13.639613 0.406 0 255 255
3.072378 -13.558633 0.404 0 255 255
3.173499 -13.611279 0.397 0 255 255
3.309692 -13.639146 0.436 0 255 255
3.194446 -13.62083 0.398 0 255 255
3.12547 -13.575583 0.412 0 255 255
3.242327 -13.617168 0.425 0 255 255
3.190666 -13.588601 0.431 0 255 255
3.290022 -13.638103 0.426 0 255 255
3.028181 -13.548458 0.394 0 255 255
3.248462 -13.633762 0.41 0 255 255
3.332556 -13.631718 0.455 0 255 255
3.142349 -13.590918 0.405 0 255 255
3.086147 -13.57126 0.397 0 255 255
3.196466 -13.590434 0.432 0 255 255
3.171298 -13.606791 0.401 0 255 255
3.264267 -13.613757 0.44 0 255 255
3.225598 -13.641191 0.39 0 255 255
3.277263 -13.610278 0.451 0 255 255
3.227987 -13.621084 0.414 0 255 255
3.215343 -13.637089 0.389 0 255 255
3.178192 -13.582246 0.431 0 255 255
3.229751 -13.624228 0.411 0 255 255
3.181268 -13.589423 0.426 0 255 255
3.087543 -13.564116 0.406 0 255 255
3.17103 -13.583085 0.427 0 255 255
3.234071 -13.644386 0.391 0 255 255
3.121787 -13.589419 0.395 0 255 255
3.119988 -13.590748 0.394 0 255 255
3.156486 -13.613833 0.385 0 255 255
3.126191 -13.598397 0.387 0 255 255
3.15114 -13.611109 0.386 0 255 255
3.102639 -13.578541 0.397 0 255 255
3.274119 -13.612043 0.447 0 255 255
3.305656 -13.640457 0.432 0 255 255
3.265494 -13.628972 0.424 0 255 255
3.142717 -13.601207 0.394 0 255 255
3.249523 -13.611856 0.435 0 255 255
3.209123 -13.631675 0.393 0 255 255
3.254178 -13.646775 0.398 0 255 255
2.996978 -13.534805 0.394 0 255 255
3.161445 -13.608504 0.394 0 255 255
3.267815 -13.617808 0.438 0 255 255
3.076749 -13.572083 0.392 0 255 255
3.346881 -13.630037 0.463 0 255 255
3.319175 -13.627144 0.453 0 255 255
3.099596 -13.56689 0.409 0 255 255
3.206886 -13.631658 0.391 0 255 255
3.24416 -13.611368 0.433 0 255 255
3.312399 -13.636037 0.44 0 255 255
3.238173 -13.634131 0.404 0 255 255
3.253559 -13.610545 0.438 0 255 255
3.317847 -13.625344 0.454 0 255 255
3.212016 -13.603969 0.425 0 255 255
3.108002 -13.579029 0.4 0 255 255
3.24209 -13.648473 0.391 0 255 255
3.095175 -13.560148 0.414 0 255 255
3.128614 -13.573818 0.416 0 255 255
3.345014 -13.640309 0.451 0 255 255
3.113853 -13.574154 0.409 0 255 255
3.132649 -13.572507 0.42 0 255 255
3.152183 -13.591439 0.408 0 255 255
3.00725 -13.536672 0.397 0 255 255
3.307876 -13.642711 0.43 0 255 255
3.338811 -13.632659 0.457 0 255 255
3.280373 -13.612985 0.45 0 255 255
3.164572 -13.608975 0.395 0 255 255
3.107548 -13.57992 0.399 0 255 255
3.188646 -13.618998 0.397 0 255 255
3.248985 -13.623927 0.422 0 255 255
3.186058 -13.606455 0.409 0 255 255
3.112541 -13.570119 0.412 0 255 255
3.181064 -13.616256 0.396 0 255 255
3.178108 -13.593425 0.42 0 255 255
3.238139 -13.638603 0.399 0 255 255
3.146718 -13.604367 0.391 0 255 255
3.05671 -13.56075 0.394 0 255 255
3.258701 -13.6401 0.408 0 255 255
3.237283 -13.633678 0.404 0 255 255
3.197557 -13.623537 0.395 0 255 255
3.133926 -13.581015 0.411 0 255 255
3.17977 -13.609984 0.401 0 255 255
3.133001 -13.585032 0.406 0 255 255
3.211745 -13.639745 0.385 0 255 255
3.289283 -13.617525 0.449 0 255 255
3.206619 -13.607952 0.418 0 255 255
3.279835 -13.625056 0.435 0 255 255
3.273865 -13.645583 0.41 0 255 255
3.306531 -13.643147 0.43 0 255 255
3.13707 -13.579249 0.414 0 255 255
3.232038 -13.617537 0.419 0 255 255
3.29135 -13.639902 0.425 0 255 255
3.324504 -13.632104 0.45 0 255 255
3.196734 -13.614139 0.406 0 255 255
3.158301 -13.61027 0.391 0 255 255
3.129488 -13.576509 0.414 0 255 255
3.249507 -13.614092 0.433 0 255 255
3.205961 -13.635676 0.387 0 255 255
3.034922 -13.544037 0.403 0 255 255
3.260131 -13.628485 0.422 0 255 255
3.188277 -13.608708 0.408 0 255 255
3.041159 -13.547215 0.401 0 255 255
3.199424 -13.613265 0.408 0 255 255
3.271361 -13.621861 0.435 0 255 255
3.365608 -13.637335 0.465 0 255 255
3.153142 -13.582949 0.419 0 255 255
3.209428 -13.591427 0.437 0 255 255
3.233264 -13.632752 0.404 0 255 255
3.126394 -13.571566 0.417 0 255 255
3.24369 -13.614495 0.43 0 255 255
3.206432 -13.632548 0.391 0 255 255
3.244916 -13.62971 0.413 0 255 255
3.132042 -13.593522 0.396 0 255 255
3.263779 -13.61912 0.434 0 255 255
3.315492 -13.64098 0.436 0 255 255
3.145492 -13.589152 0.408 0 255 255
3.168539 -13.616609 0.388 0 255 255
3.030904 -13.543113 0.401 0 255 255
3.214049 -13.630817 0.396 0 255 255
3.211426 -13.622747 0.404 0 255 255
3.236357 -13.637695 0.399 0 255 255
3.156689 -13.587002 0.416 0 255 255
3.084297 -13.579296 0.388 0 255 255
3.266957 -13.612883 0.442 0 255 255
3.266049 -13.614665 0.441 0 255 255
3.317409 -13.624 0.456 0 255 255
3.158085 -13.579857 0.424 0 255 255
3.284675 -13.635379 0.426 0 255 255
3.103564 -13.574523 0.402 0 255 255
3.295402 -13.636355 0.431 0 255 255
3.177904 -13.620257 0.389 0 255 255
3.271327 -13.626333 0.429 0 255 255
3.246677 -13.456647 0.476 0 255 255
3.135178 -13.475032 0.482 0 255 255
3.194442 -13.444623 0.478 0 255 255
2.994518 -13.38765 0.489 0 255 255
3.21166 -13.415236 0.477 0 255 255
3.244839 -13.521928 0.477 0 255 255
3.173699 -13.408239 0.479 0 255 255
3.273063 -13.574469 0.476 0 255 255
3.393137 -13.310174 0.465 0 255 255
3.158785 -13.428699 0.48 0 255 255
3.337266 -13.600447 0.473 0 255 255
2.971233 -13.391498 0.49 0 255 255
3.287803 -13.400161 0.473 0 255 255
3.324067 -13.39507 0.471 0 255 255
3.333919 -13.393356 0.47 0 255 255
3.036883 -13.403624 0.486 0 255 255
3.297489 -13.361326 0.471 0 255 255
3.212942 -13.364263 0.476 0 255 255
3.047439 -13.426959 0.486 0 255 255
3.296327 -13.396648 0.472 0 255 255
3.328577 -13.566839 0.473 0 255 255
3.374532 -13.463431 0.469 0 255 255
3.163932 -13.398774 0.479 0 255 255
3.138178 -13.374428 0.48 0 255 255
3.172876 -13.398842 0.479 0 255 255
3.344989 -13.525819 0.471 0 255 255
3.2162 -13.406326 0.477 0 255 255
3.340126 -13.341525 0.469 0 255 255
3.244509 -13.447686 0.476 0 255 255
3.070877 -13.402987 0.485 0 255 255
3.358498 -13.395779 0.469 0 255 255
3.153588 -13.465332 0.481 0 255 255
3.103941 -13.465849 0.484 0 255 255
3.303456 -13.40028 0.472 0 255 255
3.334831 -13.56778 0.473 0 255 255
3.376844 -13.571231 0.47 0 255 255
3.294706 -13.492343 0.474 0 255 255
3.276683 -13.510096 0.475 0 255 255
3.357789 -13.43021 0.469 0 255 255
3.072302 -13.450851 0.485 0 255 255
3.334797 -13.336565 0.469 0 255 255
3.187302 -13.383745 0.478 0 255 255
3.039793 -13.373681 0.486 0 255 255
3.352622 -13.521852 0.471 0 255 255
3.282533 -13.505219 0.475 0 255 255
3.373034 -13.483993 0.469 0 255 255
3.092023 -13.445188 0.484 0 255 255
3.38043 -13.51133 0.469 0 255 255
3.267327 -13.387484 0.474 0 255 255
3.20704 -13.375846 0.477 0 255 255
3.229149 -13.350074 0.475 0 255 255
3.115694 -13.449391 0.483 0 255 255
3.295754 -13.413192 0.472 0 255 255
3.056336 -13.374254 0.485 0 255 255
3.297558 -13.352382 0.471 0 255 255
3.374745 -13.317637 0.467 0 255 255
3.001209 -13.389935 0.488 0 255 255
3.349686 -13.437304 0.47 0 255 255
3.376946 -13.557815 0.47 0 255 255
3.243914 -13.525947 0.477 0 255 255
3.233693 -13.517371 0.477 0 255 255
3.293658 -13.571494 0.475 0 255 255
3.056722 -13.382307 0.485 0 255 255
3.226794 -13.365709 0.475 0 255 255
3.104366 -13.409949 0.483 0 255 255
3.163741 -13.482851 0.481 0 255 255
2.965517 -13.378485 0.49 0 255 255
3.259244 -13.33286 0.473 0 255 255
3.419901 -13.319322 0.464 0 255 255
3.323867 -13.59811 0.474 0 255 255
3.261832 -13.345403 0.473 0 255 255
3.290171 -13.441772 0.473 0 255 255
3.261845 -13.402648 0.474 0 255 255
3.179376 -13.485206 0.48 0 255 255
3.377583 -13.35612 0.467 0 255 255
3.10406 -13.450197 0.484 0 255 255
3.289153 -13.340243 0.472 0 255 255
3.382598 -13.52029 0.469 0 255 255
3.265566 -13.560548 0.476 0 255 255
3.218237 -13.373694 0.476 0 255 255
3.372724 -13.348034 0.467 0 255 255
3.391062 -13.406759 0.467 0 255 255
3.376424 -13.331961 0.467 0 255 255
3.396332 -13.301702 0.465 0 255 255
3.37418 -13.450907 0.469 0 255 255
3.40878 -13.429255 0.466 0 255 255
3.288117 -13.47664 0.474 0 255 255
2.966459 -13.37223 0.49 0 255 255
3.044749 -13.427834 0.486 0 255 255
3.351273 -13.346082 0.468 0 255 255
3.302233 -13.561273 0.474 0 255 255
3.394067 -13.482364 0.468 0 255 255
3.207723 -13.462612 0.478 0 255 255
3.208797 -13.497952 0.478 0 255 255
3.124494 -13.350621 0.481 0 255 255
3.09952 -13.459107 0.484 0 255 255
3.11339 -13.458319 0.483 0 255 255
3.070813 -13.35245 0.484 0 255 255
3.34495 -13.589772 0.472 0 255 255
3.062098 -13.440041 0.486 0 255 255
3.426308 -13.300139 0.463 0 255 255
3.361111 -13.522811 0.47 0 255 255
3.052569 -13.399271 0.486 0 255 255
3.374974 -13.405295 0.468 0 255 255
3.197315 -13.478634 0.479 0 255 255
3.211139 -13.425072 0.477 0 255 255
3.368723 -13.580561 0.471 0 255 255
3.393222 -13.534682 0.469 0 255 255
3.12558 -13.443205 0.482 0 255 255
3.387639 -13.327575 0.466 0 255 255
3.318818 -13.438411 0.471 0 255 255
3.242221 -13.454377 0.476 0 255 255
3.276801 -13.494443 0.475 0 255 255
3.22116 -13.400997 0.476 0 255 255
3.334403 -13.447474 0.471 0 255 255
3.19269 -13.498724 0.479 0 255 255
3.212857 -13.375443 0.476 0 255 255
3.380829 -13.34094 0.467 0 255 255
3.129768 -13.42177 0.482 0 255 255
3.279495 -13.434088 0.474 0 255 255
3.350195 -13.370224 0.469 0 255 255
3.348336 -13.497222 0.471 0 255 255
3.162464 -13.474344 0.481 0 255 255
3.31304 -13.374862 0.471 0 255 255
3.29995 -13.508483 0.474 0 255 255
3.308059 -13.441908 0.472 0 255 255
3.129721 -13.368998 0.481 0 255 255
3.1487 -13.402236 0.48 0 255 255
3.334275 -13.582088 0.473 0 255 255
3.053154 -13.439972 0.486 0 255 255
3.416384 -13.370279 0.465 0 255 255
3.382029 -13.477352 0.469 0 255 255
3.202428 -13.45318 0.478 0 255 255
3.354735 -13.361314 0.468 0 255 255
3.381045 -13.371352 0.467 0 255 255
3.336685 -13.500264 0.471 0 255 255
3.339108 -13.475685 0.471 0 255 255
2.964241 -13.369978 0.49 0 255 255
3.234147 -13.51648 0.477 0 255 255
3.093216 -13.464874 0.484 0 255 255
3.066053 -13.390428 0.485 0 255 255
3.01975 -13.42183 0.488 0 255 255
3.183856 -13.366278 0.478 0 255 255
3.288736 -13.51287 0.474 0 255 255
3.38029 -13.35301 0.467 0 255 255
3.250148 -13.352917 0.474 0 255 255
3.347199 -13.411346 0.47 0 255 255
3.420339 -13.320667 0.464 0 255 255
3.309149 -13.47501 0.473 0 255 255
3.277209 -13.440779 0.474 0 255 255
3.110556 -13.360354 0.482 0 255 255
3.147308 -13.349899 0.48 0 255 255
3.387286 -13.315049 0.466 0 255 255
3.348952 -13.357244 0.469 0 255 255
3.215869 -13.332084 0.476 0 255 255
3.358014 -13.577349 0.471 0 255 255
3.251153 -13.397201 0.475 0 255 255
3.352078 -13.357716 0.468 0 255 255
3.04544 -13.395638 0.486 0 255 255
3.279796 -13.453321 0.474 0 255 255
3.215759 -13.464462 0.478 0 255 255
3.179761 -13.493259 0.48 0 255 255
3.207926 -13.435781 0.478 0 255 255
3.327406 -13.485435 0.472 0 255 255
3.243122 -13.335869 0.474 0 255 255
3.057325 -13.420774 0.486 0 255 255
3.198813 -13.458073 0.478 0 255 255
3.265468 -13.514482 0.476 0 255 255
3.140902 -13.369082 0.48 0 255 255
3.252281 -13.366349 0.474 0 255 255
3.324805 -13.415648 0.471 0 255 255
3.374931 -13.52873 0.47 0 255 255
3.40046 -13.405936 0.467 0 255 255
3.249485 -13.440121 0.475 0 255 255
3.156096 -13.429573 0.48 0 255 255
3.165086 -13.482414 0.481 0 255 255
3.322043 -13.484947 0.472 0 255 255
3.388212 -13.311031 0.466 0 255 255
3.165549 -13.362561 0.479 0 255 255
3.367997 -13.617228 0.472 0 255 255
3.285313 -13.433684 0.473 0 255 255
3.336206 -13.386665 0.47 0 255 255
2.994938 -13.39123 0.489 0 255 255
3.301397 -13.494629 0.473 0 255 255
3.198325 -13.463435 0.479 0 255 255
3.244356 -13.467811 0.476 0 255 255
3.206263 -13.419221 0.477 0 255 255
3.20835 -13.37988 0.477 0 255 255
3.226756 -13.429663 0.476 0 255 255
3.370179 -13.447745 0.469 0 255 255
3.209368 -13.481409 0.478 0 255 255
3.248942 -13.511673 0.476 0 255 255
3.324936 -13.457241 0.471 0 255 255
3.238449 -13.538875 0.477 0 255 255
3.256554 -13.333735 0.473 0 255 255
3.333906 -13.571799 0.473 0 255 255
3.408764 -13.431491 0.466 0 255 255
3.386302 -13.444738 0.468 0 255 255
3.34086 -13.421584 0.47 0 255 255
3.367595 -13.611411 0.471 0 255 255
3.25669 -13.551535 0.477 0 255 255
3.305614 -13.528204 0.474 0 255 255
3.148432 -13.378531 0.48 0 255 255
3.115567 -13.348318 0.481 0 255 255
3.227074 -13.446659 0.477 0 255 255
3.166248 -13.447091 0.48 0 255 255
3.375172 -13.437944 0.468 0 255 255
3.147457 -13.389257 0.48 0 255 255
3.2867 -13.545502 0.475 0 255 255
3.223676 -13.481964 0.477 0 255 255
3.19653 -13.405283 0.478 0 255 255
3.342222 -13.418911 0.47 0 255 255
3.204748 -13.442018 0.478 0 255 255
3.391125 -13.457296 0.468 0 255 255
3.162841 -13.36567 0.479 0 255 255
3.293581 -13.463712 0.473 0 255 255
3.34055 -13.521313 0.472 0 255 255
3.403006 -13.306224 0.465 0 255 255
3.366156 -13.506301 0.47 0 255 255
3.278663 -13.543653 0.475 0 255 255
3.424475 -13.30594 0.464 0 255 255
3.352884 -13.605039 0.472 0 255 255
3.381469 -13.55114 0.47 0 255 255
3.268188 -13.568617 0.476 0 255 255
3.167331 -13.363469 0.479 0 255 255
3.294464 -13.34744 0.471 0 255 255
3.404003 -13.469469 0.467 0 255 255
3.113849 -13.397946 0.482 0 255 255
3.215127 -13.370988 0.476 0 255 255
3.375261 -13.602972 0.471 0 255 255
3.293773 -13.379634 0.472 0 255 255
3.230121 -13.398829 0.476 0 255 255
3.247241 -13.559067 0.477 0 255 255
3.167886 -13.349162 0.478 0 255 255
3.390324 -13.386181 0.467 0 255 255
3.354544 -13.445391 0.47 0 255 255
3.097255 -13.404081 0.483 0 255 255
3.089385 -13.439352 0.484 0 255 255
3.396476 -13.400539 0.467 0 255 255
3.321924 -13.500599 0.472 0 255 255
3.175362 -13.4248 0.479 0 255 255
3.008035 -13.374334 0.488 0 255 255
3.360017 -13.549189 0.471 0 255 255
3.296395 -13.387705 0.472 0 255 255
3.220519 -13.426485 0.477 0 255 255
3.355813 -13.337172 0.468 0 255 255
3.368859 -13.562674 0.471 0 255 255
3.086257 -13.438882 0.484 0 255 255
3.295533 -13.442259 0.473 0 255 255
3.071632 -13.421329 0.485 0 255 255
3.228106 -13.369743 0.475 0 255 255
3.269932 -13.39779 0.474 0 255 255
3.380056 -13.324834 0.466 0 255 255
3.339485 -13.6027 0.473 0 255 255
3.32867 -13.436698 0.471 0 255 255
3.239265 -13.431546 0.476 0 255 255
3.218088 -13.334337 0.475 0 255 255
3.220422 -13.38042 0.476 0 255 255
3.139081 -13.432128 0.481 0 255 255
3.1907 -13.34844 0.477 0 255 255
3.030493 -13.420569 0.487 0 255 255
3.333834 -13.404536 0.47 0 255 255
3.29334 -13.318809 0.471 0 255 255
2.992888 -13.366616 0.488 0 255 255
3.254229 -13.404378 0.475 0 255 255
3.383234 -13.318597 0.466 0 255 255
3.417161 -13.326904 0.464 0 255 255
3.299305 -13.357762 0.471 0 255 255
3.044783 -13.423362 0.486 0 255 255
3.023013 -13.404413 0.487 0 255 255
3.415849 -13.322868 0.464 0 255 255
3.283594 -13.483314 0.474 0 255 255
3.306679 -13.446815 0.472 0 255 255
3.211368 -13.51273 0.479 0 255 255
3.065144 -13.39221 0.485 0 255 255
3.403332 -13.439947 0.467 0 255 255
3.229726 -13.509738 0.477 0 255 255
3.139671 -13.413348 0.481 0 255 255
3.316777 -13.530524 0.473 0 255 255
3.084446 -13.382965 0.484 0 255 255
3.132034 -13.476797 0.482 0 255 255
3.40584 -13.404188 0.466 0 255 255
3.260707 -13.55246 0.476 0 255 255
3.214974 -13.391111 0.477 0 255 255
3.255133 -13.462078 0.475 0 255 255
3.186241 -13.405652 0.478 0 255 255
3.102685 -13.395626 0.483 0 255 255
3.127494 -13.485706 0.483 0 255 255
3.059425 -13.438678 0.486 0 255 255
3.392734 -13.540046 0.469 0 255 255
3.285864 -13.478858 0.474 0 255 255
3.179193 -13.450321 0.479 0 255 255
3.048466 -13.409525 0.486 0 255 255
3.105287 -13.465413 0.484 0 255 255
3.242115 -13.527274 0.477 0 255 255
3.137397 -13.477283 0.482 0 255 255
3.31794 -13.495202 0.472 0 255 255
3.369636 -13.519298 0.47 0 255 255
3.306081 -13.584558 0.474 0 255 255
3.023903 -13.404866 0.487 0 255 255
3.128469 -13.47498 0.483 0 255 255
3.379161 -13.383861 0.467 0 255 255
2.973083 -13.383461 0.49 0 255 255
3.072443 -13.373482 0.484 0 255 255
3.227193 -13.431007 0.476 0 255 255
3.045186 -13.429178 0.486 0 255 255
3.039857 -13.424219 0.487 0 255 255
3.357661 -13.564824 0.471 0 255 255
3.380052 -13.384315 0.467 0 255 255
3.337249 -13.366995 0.469 0 255 255
3.239158 -13.504443 0.477 0 255 255
3.176499 -13.510675 0.48 0 255 255
3.28793 -13.501235 0.474 0 255 255
3.23949 -13.342998 0.474 0 255 255
3.385805 -13.569063 0.47 0 255 255
3.367208 -13.603357 0.471 0 255 255
3.288961 -13.424321 0.473 0 255 255
3.340584 -13.516842 0.471 0 255 255
3.36174 -13.440079 0.469 0 255 255
3.351162 -13.478459 0.47 0 255 255
3.027047 -13.403101 0.487 0 255 255
3.334437 -13.443002 0.471 0 255 255
3.275401 -13.561069 0.476 0 255 255
3.212513 -13.479644 0.478 0 255 255
3.367727 -13.417315 0.469 0 255 255
3.113679 -13.420306 0.483 0 255 255
3.366624 -13.326967 0.467 0 255 255
3.409914 -13.338923 0.465 0 255 255
3.299276 -13.538442 0.474 0 255 255
3.382021 -13.360627 0.467 0 255 255
3.130167 -13.487068 0.483 0 255 255
3.328734 -13.487234 0.472 0 255 255
3.378172 -13.57303 0.47 0 255 255
3.372185 -13.595793 0.471 0 255 255
3.369313 -13.561782 0.471 0 255 255
3.338205 -13.417986 0.47 0 255 255
3.370726 -13.552401 0.47 0 255 255
3.345099 -13.393441 0.469 0 255 255
3.290816 -13.356803 0.472 0 255 255
3.301109 -13.532641 0.474 0 255 255
3.288868 -13.554462 0.475 0 255 255
3.217922 -13.532905 0.479 0 255 255
3.387562 -13.455481 0.468 0 255 255
3.324916 -13.518959 0.472 0 255 255
3.002724 -13.367139 0.488 0 255 255
3.302993 -13.520134 0.474 0 255 255
3.370425 -13.533168 0.47 0 255 255
3.216713 -13.515453 0.478 0 255 255
3.178116 -13.474463 0.48 0 255 255
3.268978 -13.346799 0.473 0 255 255
3.310931 -13.475918 0.472 0 255 255
3.106135 -13.353613 0.482 0 255 255
3.287714 -13.470823 0.474 0 255 255
3.164547 -13.494485 0.481 0 255 255
3.055814 -13.384089 0.485 0 255 255
3.397503 -13.383105 0.466 0 255 255
3.379513 -13.396386 0.468 0 255 255
3.213705 -13.499331 0.478 0 255 255
3.036127 -13.385282 0.486 0 255 255
3.337287 -13.538731 0.472 0 255 255
3.281612 -13.449757 0.474 0 255 255
3.384443 -13.336047 0.466 0 255 255
3.334411 -13.564199 0.473 0 255 255
3.117408 -13.459243 0.483 0 255 255
3.339664 -13.461378 0.471 0 255 255
3.38987 -13.387073 0.467 0 255 255
3.179682 -13.444958 0.479 0 255 255
3.172897 -13.337125 0.478 0 255 255
3.149387 -13.429523 0.481 0 255 255
3.251713 -13.323412 0.473 0 255 255
3.205427 -13.352578 0.476 0 255 255
3.363115 -13.494651 0.47 0 255 255
3.121227 -13.42752 0.482 0 255 255
3.386747 -13.32712 0.466 0 255 255
3.356755 -13.330917 0.468 0 255 255
3.3927 -13.308829 0.465 0 255 255
3.099945 -13.403208 0.483 0 255 255
3.34182 -13.413095 0.47 0 255 255
3.007059 -13.38506 0.488 0 255 255
3.081438 -13.366841 0.483 0 255 255
3.288083 -13.481112 0.474 0 255 255
3.203845 -13.384318 0.477 0 255 255
3.121278 -13.420812 0.482 0 255 255
3.235548 -13.449855 0.476 0 255 255
3.359258 -13.354639 0.468 0 255 255
3.284698 -13.337974 0.472 0 255 255
3.376356 -13.576593 0.47 0 255 255
3.322523 -13.362858 0.47 0 255 255
3.129293 -13.484378 0.483 0 255 255
3.338221 -13.41575 0.47 0 255 255
3.099877 -13.412152 0.483 0 255 255
3.135733 -13.460724 0.482 0 255 255
3.289946 -13.530321 0.474 0 255 255
3.322599 -13.470641 0.472 0 255 255
3.283403 -13.56739 0.475 0 255 255
3.376873 -13.62624 0.471 0 255 255
2.988582 -13.403705 0.489 0 255 255
3.319607 -13.452281 0.472 0 255 255
3.194901 -13.384251 0.477 0 255 255
3.36339 -13.399393 0.468 0 255 255
3.239519 -13.398006 0.475 0 255 255
3.371239 -13.425839 0.468 0 255 255
3.294995 -13.45433 0.473 0 255 255
3.203302 -13.455871 0.478 0 255 255
3.264272 -13.554276 0.476 0 255 255
3.29309 -13.528556 0.474 0 255 255
3.260665 -13.440206 0.475 0 255 255
3.391028 -13.411231 0.467 0 255 255
3.07893 -13.4026 0.484 0 255 255
3.2786 -13.493115 0.475 0 255 255
3.319026 -13.587787 0.474 0 255 255
3.402963 -13.429658 0.467 0 255 255
3.20583 -13.358394 0.477 0 255 255
3.242939 -13.536672 0.477 0 255 255
3.375495 -13.631149 0.471 0 255 255
3.279856 -13.563338 0.476 0 255 255
3.342939 -13.501206 0.471 0 255 255
3.13379 -13.363214 0.481 0 255 255
3.370103 -13.339964 0.467 0 255 255
3.09487 -13.364708 0.483 0 255 255
3.135398 -13.445963 0.482 0 255 255
3.340139 -13.39877 0.47 0 255 255
3.15167 -13.482312 0.481 0 255 255
3.401016 -13.391628 0.466 0 255 255
3.255536 -13.467896 0.475 0 255 255
3.149676 -13.39151 0.48 0 255 255
3.176257 -13.365772 0.478 0 255 255
3.313108 -13.365917 0.471 0 255 255
3.115177 -13.399745 0.482 0 255 255
3.139421 -13.387407 0.481 0 255 255
3.058857 -13.395741 0.485 0 255 255
3.159209 -13.372799 0.479 0 255 255
3.355278 -13.52545 0.471 0 255 255
3.093572 -13.417917 0.484 0 255 255
3.241692 -13.347486 0.474 0 255 255
3.369805 -13.496938 0.47 0 255 255
3.190356 -13.452641 0.479 0 255 255
3.374371 -13.602518 0.471 0 255 255
2.991322 -13.396122 0.489 0 255 255
3.216048 -13.426451 0.477 0 255 255
3.122941 -13.437372 0.482 0 255 255
3.262053 -13.552023 0.476 0 255 255
3.181196 -13.422161 0.479 0 255 255
3.054079 -13.435954 0.486 0 255 255
3.167296 -13.36794 0.479 0 255 255
3.360522 -13.54159 0.471 0 255 255
3.358643 -13.494617 0.47 0 255 255
3.377824 -13.501024 0.469 0 255 255
3.16316 -13.382668 0.479 0 255 255
3.295602 -13.433315 0.473 0 255 255
3.229056 -13.480216 0.477 0 255 255
3.290709 -13.429701 0.473 0 255 255
3.176601 -13.49726 0.48 0 255 255
3.21547 -13.502475 0.478 0 255 255
3.362801 -13.418173 0.469 0 255 255
3.422018 -13.334991 0.464 0 255 255
3.084662 -13.413378 0.484 0 255 255
3.407775 -13.384972 0.466 0 255 255
3.314402 -13.372189 0.471 0 255 255
3.197196 -13.494286 0.479 0 255 255
3.061848 -13.4141 0.485 0 255 255
3.312026 -13.44954 0.472 0 255 255
3.355223 -13.35595 0.468 0 255 255
2.956977 -13.384233 0.491 0 255 255
3.248446 -13.40031 0.475 0 255 255
3.292394 -13.384543 0.472 0 255 255
3.305042 -13.544746 0.474 0 255 255
3.23951 -13.516968 0.477 0 255 255
3.135153 -13.360541 0.48 0 255 255
3.363882 -13.570238 0.471 0 255 255
3.262965 -13.490759 0.475 0 255 255
3.153461 -13.364258 0.48 0 255 255
3.39937 -13.372833 0.466 0 255 255
3.318513 -13.47866 0.472 0 255 255
3.078798 -13.361008 0.484 0 255 255
3.198541 -13.493849 0.479 0 255 255
3.070473 -13.39717 0.485 0 255 255
3.076103 -13.421363 0.485 0 255 255
3.160885 -13.446604 0.48 0 255 255
2.993342 -13.365726 0.488 0 255 255
3.140677 -13.457631 0.482 0 255 255
3.331055 -13.476071 0.471 0 255 255
3.357934 -13.529048 0.471 0 255 255
3.285975 -13.34648 0.472 0 255 255
3.292496 -13.371127 0.472 0 255 255
3.296743 -13.459711 0.473 0 255 255
3.329069 -13.501995 0.472 0 255 255
3.242239 -13.452141 0.476 0 255 255
3.327806 -13.315044 0.469 0 255 255
3.391389 -13.540483 0.469 0 255 255
2.986953 -13.382672 0.489 0 255 255
3.233316 -13.390356 0.476 0 255 255
3.395386 -13.367436 0.466 0 255 255
3.259006 -13.364165 0.474 0 255 255
3.152293 -13.459061 0.481 0 255 255
3.403298 -13.444419 0.467 0 255 255
3.352507 -13.478024 0.47 0 255 255
3.082834 -13.359696 0.483 0 255 255
3.379186 -13.498351 0.469 0 255 255
3.273211 -13.378137 0.473 0 255 255
3.237173 -13.530368 0.477 0 255 255
3.319803 -13.544412 0.473 0 255 255
3.372173 -13.538548 0.47 0 255 255
3.302836 -13.364051 0.471 0 255 255
3.008404 -13.384624 0.488 0 255 255
3.311673 -13.437015 0.472 0 255 255
3.218902 -13.462698 0.477 0 255 255
3.392148 -13.499344 0.468 0 255 255
3.181862 -13.511164 0.48 0 255 255
3.178392 -13.379206 0.478 0 255 255
3.364956 -13.605577 0.472 0 255 255
3.322985 -13.478694 0.472 0 255 255
3.273046 -13.341016 0.473 0 255 255
3.336142 -13.571816 0.473 0 255 255
3.392869 -13.522158 0.469 0 255 255
3.325718 -13.590074 0.473 0 255 255
2.980614 -13.39291 0.489 0 255 255
3.339918 -13.427837 0.47 0 255 255
3.151725 -13.416123 0.48 0 255 255
3.247287 -13.376151 0.475 0 255 255
3.291002 -13.332208 0.471 0 255 255
3.169231 -13.348724 0.478 0 255 255
3.171115 -13.336217 0.478 0 255 255
3.341726 -13.543237 0.472 0 255 255
3.180249 -13.487896 0.48 0 255 255
3.384401 -13.459482 0.468 0 255 255
3.195834 -13.496959 0.479 0 255 255
3.395182 -13.394268 0.467 0 255 255
3.294566 -13.569712 0.475 0 255 255
3.164352 -13.402355 0.48 0 255 255
3.422086 -13.326047 0.464 0 255 255
3.147627 -13.366897 0.48 0 255 255
3.26697 -13.434441 0.474 0 255 255
3.214333 -13.416598 0.477 0 255 255
3.244585 -13.555468 0.477 0 255 255
3.36751 -13.622591 0.472 0 255 255
3.206972 -13.384789 0.477 0 255 255
3.127918 -13.429806 0.482 0 255 255
3.393285 -13.349531 0.466 0 255 255
3.1552 -13.488601 0.481 0 255 255
3.242481 -13.361356 0.475 0 255 255
3.341849 -13.468102 0.471 0 255 255
3.367544 -13.382431 0.468 0 255 255
3.36995 -13.595776 0.471 0 255 255
3.084475 -13.437974 0.484 0 255 255
3.419613 -13.357334 0.465 0 255 255
3.296289 -13.460602 0.473 0 255 255
3.17826 -13.337613 0.478 0 255 255
3.337822 -13.586141 0.473 0 255 255
3.37314 -13.411096 0.468 0 255 255
3.288681 -13.579059 0.475 0 255 255
3.125933 -13.45573 0.482 0 255 255
3.375228 -13.371756 0.467 0 255 255
3.209242 -13.380335 0.477 0 255 255
3.385135 -13.303852 0.466 0 255 255
3.38861 -13.376329 0.467 0 255 255
3.39724 -13.299918 0.465 0 255 255
3.361005 -13.595708 0.472 0 255 255
3.290697 -13.372456 0.472 0 255 255
3.183802 -13.432467 0.479 0 255 255
3.27471 -13.357575 0.473 0 255 255
3.142128 -13.384297 0.48 0 255 255
3.121528 -13.446753 0.483 0 255 255
3.328285 -13.428645 0.471 0 255 255
3.363513 -13.324261 0.467 0 255 255
3.225508 -13.476165 0.477 0 255 255
3.285525 -13.523579 0.475 0 255 255
3.285992 -13.579933 0.475 0 255 255
3.218589 -13.386219 0.476 0 255 255
