ply
format ascii 1.0
element vertex 1301
property double x
property double y
property double z
property uchar red
property uchar green
property uchar blue
element face 0
property list uchar int vertex_indices
end_header
-0.757499 -18.484827 3.257 190 190 0
-0.84559 -18.65992 3.135 190 190 0
-0.991809 -18.951296 3.077 190 190 0
-0.819259 -18.60824 3.353 190 190 0
-0.96684 -18.90229 3.221 190 190 0
-0.769756 -18.508884 3.249 190 190 0
-0.658058 -18.287462 3.282 190 190 0
-0.927796 -18.825663 3.378 190 190 0
-0.871485 -18.712944 3.456 190 190 0
-0.840142 -18.649227 3.279 190 190 0
-0.938692 -18.847048 3.368 190 190 0
-0.803369 -18.577055 3.184 190 190 0
-0.956852 -18.882689 3.164 190 190 0
-0.983654 -18.937494 3.487 190 190 0
-0.751143 -18.472353 3.287 190 190 0
-0.955036 -18.879124 3.044 190 190 0
-0.855595 -18.681759 3.414 190 190 0
-0.832425 -18.634081 3.224 190 190 0
-0.737524 -18.445625 3.307 190 190 0
-0.934589 -18.836794 2.994 190 190 0
-0.967748 -18.904074 3.219 190 190 0
-0.974104 -18.916548 3.046 190 190 0
-0.825614 -18.620714 3.127 190 190 0
-0.731621 -18.43404 3.259 190 190 0
-0.973213 -18.917002 3.444 190 190 0
-0.904626 -18.777987 3.186 190 190 0
-0.971396 -18.913435 3.393 190 190 0
-0.998619 -18.964661 2.924 190 190 0
-1.0268 -19.024376 3.47 190 190 0
-1.006791 -18.980698 3.068 190 190 0
-0.917338 -18.802935 3.234 190 190 0
-0.72345 -18.418003 3.307 190 190 0
-1.011348 -18.991846 3.222 190 190 0
-0.964569 -18.897835 3.356 190 190 0
-0.997728 -18.965115 3.372 190 190 0
-0.856503 -18.683538 3.279 190 190 0
-1.022697 -19.01412 3.258 190 190 0
-0.983183 -18.934366 3.021 190 190 0
-0.957306 -18.883579 3.358 190 190 0
-0.894638 -18.758385 3.193 190 190 0
-1.039965 -19.050213 3.386 190 190 0
-0.766579 -18.502647 3.168 190 190 0
-0.757045 -18.483936 3.27 190 190 0
-0.853762 -18.675957 3.181 190 190 0
-0.8751 -18.717836 3.077 190 190 0
-0.919154 -18.806498 3.237 190 190 0
-0.972287 -18.912981 3.284 190 190 0
-0.730697 -18.430023 3.212 190 190 0
-0.877841 -18.725418 3.338 190 190 0
-0.761585 -18.492847 3.316 190 190 0
-0.918716 -18.807842 3.33 190 190 0
-0.678488 -18.327559 3.307 190 190 0
-0.960484 -18.889816 3.367 190 190 0
-0.987723 -18.943275 3.249 190 190 0
-0.744787 -18.459879 3.36 190 190 0
-0.938238 -18.846157 3.158 190 190 0
-0.83789 -18.647009 3.413 190 190 0
-0.911436 -18.791351 3.147 190 190 0
-0.991825 -18.953531 3.247 190 190 0
-0.912815 -18.796261 3.346 190 190 0
-0.722979 -18.414875 3.247 190 190 0
-0.865129 -18.70047 3.264 190 190 0
-0.891006 -18.751255 3.245 190 190 0
-0.896 -18.761057 3.33 190 190 0
-0.920062 -18.808281 3.016 190 190 0
-0.816989 -18.603786 3.277 190 190 0
-0.933245 -18.836357 3.272 190 190 0
-0.811995 -18.593987 3.177 190 190 0
-0.739339 -18.449188 3.266 190 190 0
-0.962753 -18.89427 3.257 190 190 0
-1.025421 -19.019466 3.386 190 190 0
-1.014071 -18.99719 3.13 190 190 0
-0.896 -18.761057 3.158 190 190 0
-0.94641 -18.862196 3.229 190 190 0
-1.034064 -19.038631 3.506 190 190 0
-0.985924 -18.94195 3.475 190 190 0
-0.894184 -18.757492 3.056 190 190 0
-0.901448 -18.771749 3.334 190 190 0
-0.90735 -18.783333 3.268 190 190 0
-0.969109 -18.906744 3.331 190 190 0
-0.757499 -18.484827 3.208 190 190 0
-0.849676 -18.667938 3.287 190 190 0
-0.952312 -18.873779 3.079 190 190 0
-0.783393 -18.537851 3.398 190 190 0
-0.757045 -18.483936 3.262 190 190 0
-0.846969 -18.664827 3.372 190 190 0
-0.963662 -18.896053 3.419 190 190 0
-0.895092 -18.759275 3.319 190 190 0
-0.862405 -18.695122 3.238 190 190 0
-0.837872 -18.644773 3.211 190 190 0
-0.997274 -18.964224 3.528 190 190 0
-0.760223 -18.490173 3.222 190 190 0
-0.99228 -18.954424 3.257 190 190 0
-0.928687 -18.825209 3.104 190 190 0
-0.881456 -18.73031 3.039 190 190 0
-0.690291 -18.350723 3.293 190 190 0
-0.911436 -18.791351 3.183 190 190 0
-1.00817 -18.985609 3.544 190 190 0
-0.821074 -18.611805 3.423 190 190 0
-0.966386 -18.9014 3.168 190 190 0
-0.951404 -18.871996 3.261 190 190 0
-0.876025 -18.721853 3.319 190 190 0
-0.759769 -18.489285 3.21 190 190 0
-0.906896 -18.78244 3.034 190 190 0
-1.010893 -18.990953 3.543 190 190 0
-1.004975 -18.977135 3.066 190 190 0
-0.936876 -18.843485 3.361 190 190 0
-0.808363 -18.586857 3.329 190 190 0
-0.95322 -18.875559 3.435 190 190 0
-0.88011 -18.729872 3.187 190 190 0
-1.037242 -19.044868 3.421 190 190 0
-0.968656 -18.905853 3.073 190 190 0
-0.980913 -18.929913 2.987 190 190 0
-0.957306 -18.883579 3.301 190 190 0
-0.711629 -18.392601 3.328 190 190 0
-0.995003 -18.959768 3.276 190 190 0
-0.775659 -18.52047 3.343 190 190 0
-0.963662 -18.896053 3.049 190 190 0
-0.915085 -18.800714 3.35 190 190 0
-0.901448 -18.771749 3.268 190 190 0
-0.997728 -18.965115 3.277 190 190 0
-0.954582 -18.878233 3.33 190 190 0
-0.933681 -18.835011 2.984 190 190 0
-0.876025 -18.721853 3.171 190 190 0
-0.962317 -18.895617 3.508 190 190 0
-0.73253 -18.435823 3.277 190 190 0
-0.954128 -18.877342 3.176 190 190 0
-0.956852 -18.882689 3.28 190 190 0
-0.790204 -18.551218 3.399 190 190 0
-1.014508 -18.995846 2.971 190 190 0
-0.858756 -18.685759 3.066 190 190 0
-0.983638 -18.935259 3.239 190 190 0
-0.985924 -18.94195 3.501 190 190 0
-0.993625 -18.954861 3.003 190 190 0
-0.921424 -18.810955 3.15 190 190 0
-0.817896 -18.605568 3.159 190 190 0
-0.867853 -18.705816 3.415 190 190 0
-0.839706 -18.650574 3.418 190 190 0
-0.95776 -18.88447 3.407 190 190 0
-1.013163 -18.995409 3.378 190 190 0
-0.955944 -18.880907 3.154 190 190 0
-1.029961 -19.028378 3.25 190 190 0
-1.030415 -19.029268 3.27 190 190 0
-0.949117 -18.865305 3.082 190 190 0
-0.982276 -18.932585 3.162 190 190 0
-0.961846 -18.89249 3.276 190 190 0
-0.889644 -18.748583 3.317 190 190 0
-0.935043 -18.837683 3.049 190 190 0
-1.009985 -18.989172 3.28 190 190 0
-0.853779 -18.678194 3.442 190 190 0
-0.871031 -18.712053 3.221 190 190 0
-0.911453 -18.793589 3.397 190 190 0
-0.99909 -18.967789 3.282 190 190 0
-0.868744 -18.705362 3.091 190 190 0
-0.930067 -18.83012 3.244 190 190 0
-0.897833 -18.766857 3.439 190 190 0
-0.874663 -18.719181 3.236 190 190 0
-0.950496 -18.870214 3.348 190 190 0
-0.992734 -18.955315 3.49 190 190 0
-0.757045 -18.483936 3.372 190 190 0
-0.73253 -18.435823 3.276 190 190 0
-0.989556 -18.949078 3.462 190 190 0
-0.882834 -18.735218 3.46 190 190 0
-0.889644 -18.748583 3.249 190 190 0
-0.857848 -18.683977 3.246 190 190 0
-1.014526 -18.998083 3.414 190 190 0
-0.905097 -18.781115 3.386 190 190 0
-0.90735 -18.783333 3.254 190 190 0
-0.775205 -18.519579 3.374 190 190 0
-0.804731 -18.579729 3.31 190 190 0
-1.011801 -18.992737 3.286 190 190 0
-0.836056 -18.641209 3.292 190 190 0
-0.920533 -18.811409 3.45 190 190 0
-0.778836 -18.526707 3.32 190 190 0
-0.834241 -18.637646 3.299 190 190 0
-0.802007 -18.574383 3.193 190 190 0
-0.981367 -18.930801 3.289 190 190 0
-0.800191 -18.570818 3.225 190 190 0
-0.758861 -18.487501 3.173 190 190 0
-0.932336 -18.834574 3.25 190 190 0
-0.97138 -18.911201 3.126 190 190 0
-0.921894 -18.814079 3.362 190 190 0
-0.90962 -18.787786 3.202 190 190 0
-1.045867 -19.061798 3.551 190 190 0
-0.828792 -18.626951 3.109 190 190 0
-0.958213 -18.885361 3.059 190 190 0
-0.895092 -18.759275 3.056 190 190 0
-0.88919 -18.747692 3.05 190 190 0
-0.949588 -18.868433 3.14 190 190 0
-0.913723 -18.798042 3.441 190 190 0
-0.995912 -18.961552 3.458 190 190 0
-0.879203 -18.72809 3.361 190 190 0
-0.681666 -18.333796 3.318 190 190 0
-0.993625 -18.954861 3.183 190 190 0
-0.987723 -18.943275 2.953 190 190 0
-0.898724 -18.766403 3.352 190 190 0
-0.935043 -18.837683 3.125 190 190 0
-0.752959 -18.47592 3.186 190 190 0
-0.988631 -18.945059 3.21 190 190 0
-0.959576 -18.888033 3.326 190 190 0
-0.660782 -18.292809 3.292 190 190 0
-0.975936 -18.922346 3.491 190 190 0
-0.821529 -18.612698 3.341 190 190 0
-0.924602 -18.817192 3.023 190 190 0
-0.866491 -18.703142 3.208 190 190 0
-0.981367 -18.930801 3.206 190 190 0
-0.92324 -18.814518 3.2 190 190 0
-0.772481 -18.514233 3.366 190 190 0
-0.756591 -18.483047 3.359 190 190 0
-0.84105 -18.651009 3.195 190 190 0
-0.79972 -18.567692 3.204 190 190 0
-0.927796 -18.825663 3.39 190 190 0
-0.947318 -18.863977 3.361 190 190 0
-0.906459 -18.783787 3.419 190 190 0
-0.796996 -18.562346 3.163 190 190 0
-1.036788 -19.043976 3.525 190 190 0
-0.682119 -18.334684 3.272 190 190 0
-0.825614 -18.620714 3.355 190 190 0
-0.971396 -18.913435 3.446 190 190 0
-0.97138 -18.911201 3.144 190 190 0
-0.94187 -18.853285 3.457 190 190 0
-0.947772 -18.864868 3.28 190 190 0
-0.988631 -18.945059 2.993 190 190 0
-0.897362 -18.763729 3.021 190 190 0
-0.680304 -18.331121 3.296 190 190 0
-0.999543 -18.968679 3.423 190 190 0
-0.676217 -18.323101 3.315 190 190 0
-0.800645 -18.571709 3.399 190 190 0
-1.012693 -18.992283 2.997 190 190 0
-0.957743 -18.882235 3.005 190 190 0
-1.008606 -18.984262 3.008 190 190 0
-0.992734 -18.955315 3.257 190 190 0
-0.780199 -18.529379 3.191 190 190 0
-0.672132 -18.315084 3.28 190 190 0
-0.975011 -18.918327 3.198 190 190 0
-0.763401 -18.49641 3.27 190 190 0
-0.95549 -18.880016 3.389 190 190 0
-0.866036 -18.70225 3.446 190 190 0
-0.935968 -18.841702 3.409 190 190 0
-1.028162 -19.027048 3.557 190 190 0
-0.969109 -18.906744 3.254 190 190 0
-0.963208 -18.895163 3.33 190 190 0
-0.783848 -18.538744 3.367 190 190 0
-0.837419 -18.643883 3.156 190 190 0
-0.980005 -18.928129 3.306 190 190 0
-1.000435 -18.968224 3.018 190 190 0
-0.902356 -18.773531 3.159 190 190 0
-0.860589 -18.691559 3.369 190 190 0
-0.877387 -18.724527 3.203 190 190 0
-1.048592 -19.067144 3.53 190 190 0
-0.931883 -18.833683 3.426 190 190 0
-0.896454 -18.76195 3.027 190 190 0
-0.787026 -18.544981 3.295 190 190 0
-0.88011 -18.729872 3.245 190 190 0
-0.956381 -18.879562 2.968 190 190 0
-1.039512 -19.049324 3.43 190 190 0
-1.038604 -19.047543 3.481 190 190 0
-0.891006 -18.751255 3.464 190 190 0
-0.990447 -18.948624 3.082 190 190 0
-0.947755 -18.862631 2.973 190 190 0
-0.91189 -18.792244 3.02 190 190 0
-1.005445 -18.980263 3.398 190 190 0
-0.852871 -18.676411 3.344 190 190 0
-0.785663 -18.542307 3.309 190 190 0
-0.99455 -18.958878 3.323 190 190 0
-0.695285 -18.360523 3.303 190 190 0
-0.802915 -18.576166 3.219 190 190 0
-0.949588 -18.868433 3.396 190 190 0
-0.996349 -18.960207 3.019 190 190 0
-0.672132 -18.315084 3.269 190 190 0
-0.899632 -18.768187 3.134 190 190 0
-1.004083 -18.977589 3.373 190 190 0
-0.701187 -18.372107 3.276 190 190 0
-0.851492 -18.671503 3.305 190 190 0
-1.04496 -19.060017 3.528 190 190 0
-0.859681 -18.689775 3.25 190 190 0
-1.009515 -18.986046 3.051 190 190 0
-0.766125 -18.501759 3.297 190 190 0
-0.849676 -18.667938 3.313 190 190 0
-0.975011 -18.918327 3.219 190 190 0
-0.809725 -18.589529 3.178 190 190 0
-0.935061 -18.83992 3.34 190 190 0
-0.695739 -18.361416 3.276 190 190 0
-0.970018 -18.908527 3.323 190 190 0
-0.782014 -18.532942 3.331 190 190 0
-0.780199 -18.529379 3.279 190 190 0
-0.950496 -18.870214 3.351 190 190 0
-0.847406 -18.663483 3.195 190 190 0
-1.032248 -19.035069 3.463 190 190 0
-0.986816 -18.941496 3.25 190 190 0
-0.920062 -18.808281 3.285 190 190 0
-1.046321 -19.062687 3.474 190 190 0
-1.01772 -19.006556 3.531 190 190 0
-1.027708 -19.026157 3.509 190 190 0
-0.807909 -18.585966 3.355 190 190 0
-1.041782 -19.05378 3.432 190 190 0
-0.827885 -18.625172 3.303 190 190 0
-0.916447 -18.803389 3.31 190 190 0
-0.796559 -18.563692 3.297 190 190 0
-1.029053 -19.026594 3.439 190 190 0
-0.818351 -18.606461 3.323 190 190 0
-0.964569 -18.897835 3.056 190 190 0
-0.86602 -18.700016 3.079 190 190 0
-0.823799 -18.617151 3.212 190 190 0
-0.866945 -18.704033 3.292 190 190 0
-0.933681 -18.835011 3.041 190 190 0
-0.882834 -18.735218 3.093 190 190 0
-0.910545 -18.791805 3.462 190 190 0
-0.958684 -18.888489 3.512 190 190 0
-0.991825 -18.953531 3.418 190 190 0
-0.943232 -18.855959 3.243 190 190 0
-1.013146 -18.993172 2.961 190 190 0
-0.754321 -18.47859 3.362 190 190 0
-0.881926 -18.733435 3.344 190 190 0
-0.744787 -18.459879 3.279 190 190 0
-1.022243 -19.013229 3.138 190 190 0
-0.998619 -18.964661 2.94 190 190 0
-0.90054 -18.769966 3.344 190 190 0
-0.860118 -18.688431 3.131 190 190 0
-1.023168 -19.017248 3.542 190 190 0
-0.963662 -18.896053 3.142 190 190 0
-0.905988 -18.780661 3.233 190 190 0
-0.719801 -18.40864 3.234 190 190 0
-0.757045 -18.483936 3.256 190 190 0
-0.929141 -18.826099 3.172 190 190 0
-0.890099 -18.749475 3.192 190 190 0
-0.944141 -18.85774 3.4 190 190 0
-1.027708 -19.026157 3.513 190 190 0
-0.992734 -18.955315 3.24 190 190 0
-0.910982 -18.790461 3.013 190 190 0
-1.045414 -19.060907 3.467 190 190 0
-0.791548 -18.551653 3.269 190 190 0
-1.000906 -18.971352 3.488 190 190 0
-0.808817 -18.587749 3.326 190 190 0
-0.768849 -18.507105 3.363 190 190 0
-0.830608 -18.630516 3.256 190 190 0
-0.989994 -18.947733 3.142 190 190 0
-0.9187 -18.805609 3.075 190 190 0
-0.881018 -18.731655 3.416 190 190 0
-0.998636 -18.966898 3.26 190 190 0
-0.989994 -18.947733 3.083 190 190 0
-0.805622 -18.579275 3.145 190 190 0
-0.788824 -18.546307 3.232 190 190 0
-0.861497 -18.693342 3.304 190 190 0
-0.824707 -18.618935 3.157 190 190 0
-1.034518 -19.039522 3.491 190 190 0
-0.863313 -18.696905 3.353 190 190 0
-0.973213 -18.917002 3.468 190 190 0
-0.926871 -18.821646 3.217 190 190 0
-0.937784 -18.845264 3.338 190 190 0
-1.049045 -19.068035 3.525 190 190 0
-0.895092 -18.759275 3.032 190 190 0
-0.968202 -18.904964 2.964 190 190 0
-0.987285 -18.94462 3.317 190 190 0
-0.957743 -18.882235 2.977 190 190 0
-0.911453 -18.793589 3.408 190 190 0
-0.998165 -18.96377 2.965 190 190 0
-1.007699 -18.982481 2.927 190 190 0
-0.984091 -18.93615 3.044 190 190 0
-0.959576 -18.888033 3.062 190 190 0
-0.974574 -18.919672 3.512 190 190 0
-0.9832 -18.936604 3.315 190 190 0
-0.95823 -18.887598 3.484 190 190 0
-0.999073 -18.965551 3.172 190 190 0
-0.89373 -18.756603 3.097 190 190 0
-0.717077 -18.403292 3.265 190 190 0
-0.882834 -18.735218 3.151 190 190 0
-0.719818 -18.410875 3.334 190 190 0
-0.694831 -18.359632 3.286 190 190 0
-0.987285 -18.94462 3.418 190 190 0
-0.862405 -18.695122 3.389 190 190 0
-1.041782 -19.05378 3.456 190 190 0
-0.999527 -18.966444 3.161 190 190 0
-0.917338 -18.802935 3.082 190 190 0
-0.755229 -18.480373 3.289 190 190 0
-0.900086 -18.769077 3.323 190 190 0
-1.015417 -18.997629 3.063 190 190 0
-1.010893 -18.990953 3.231 190 190 0
-0.931428 -18.83279 3.336 190 190 0
-0.978206 -18.926802 3.498 190 190 0
-0.90054 -18.769966 3.131 190 190 0
-0.776567 -18.522251 3.283 190 190 0
-0.980476 -18.931257 3.345 190 190 0
-0.97592 -18.920111 3.237 190 190 0
-0.933698 -18.837248 3.294 190 190 0
-0.898724 -18.766403 3.074 190 190 0
-0.841521 -18.654137 3.372 190 190 0
-0.868761 -18.707596 3.267 190 190 0
-0.921424 -18.810955 3.128 190 190 0
-0.844228 -18.657246 3.317 190 190 0
-0.981367 -18.930801 3.299 190 190 0
-1.005428 -18.978025 2.949 190 190 0
-0.910074 -18.788677 3.346 190 190 0
-0.861497 -18.693342 3.326 190 190 0
-0.897362 -18.763729 3.422 190 190 0
-0.784755 -18.540524 3.394 190 190 0
-0.953674 -18.876451 3.382 190 190 0
-0.9187 -18.805609 3.161 190 190 0
-0.919171 -18.808735 3.347 190 190 0
-1.016795 -19.002537 3.457 190 190 0
-0.985016 -18.940166 3.325 190 190 0
-0.949588 -18.868433 3.404 190 190 0
-1.028616 -19.027939 3.524 190 190 0
-0.96684 -18.90229 3.028 190 190 0
-0.909166 -18.786898 3.182 190 190 0
-0.930049 -18.827883 3.108 190 190 0
-0.968202 -18.904964 3.042 190 190 0
-0.933681 -18.835011 2.994 190 190 0
-0.960484 -18.889816 3.433 190 190 0
-1.018611 -19.006102 3.272 190 190 0
-0.972287 -18.912981 2.98 190 190 0
-0.999998 -18.96957 3.249 190 190 0
-0.965931 -18.900507 3.222 190 190 0
-0.904626 -18.777987 3.164 190 190 0
-0.995895 -18.959314 3.022 190 190 0
-1.029053 -19.026594 3.433 190 190 0
-0.98093 -18.932146 3.393 190 190 0
-0.91189 -18.792244 3.104 190 190 0
-0.919607 -18.807388 3.281 190 190 0
-0.901902 -18.77264 3.191 190 190 0
-1.009969 -18.986935 3.09 190 190 0
-0.866927 -18.701796 3.129 190 190 0
-0.776567 -18.522251 3.229 190 190 0
-0.842866 -18.654573 3.123 190 190 0
-1.033156 -19.03685 3.551 190 190 0
-0.852417 -18.675522 3.443 190 190 0
-0.984999 -18.937929 2.94 190 190 0
-1.009985 -18.989172 3.332 190 190 0
-0.904172 -18.777096 3.059 190 190 0
-0.871031 -18.712053 3.263 190 190 0
-1.025421 -19.019466 3.25 190 190 0
-0.956835 -18.880453 3.025 190 190 0
-0.859664 -18.687542 3.161 190 190 0
-1.010423 -18.987827 3.037 190 190 0
-0.935968 -18.841702 3.235 190 190 0
-0.997257 -18.961987 3.059 190 190 0
-0.787008 -18.542744 3.145 190 190 0
-1.004083 -18.977589 3.53 190 190 0
-0.900086 -18.769077 3.166 190 190 0
-1.013146 -18.993172 3.079 190 190 0
-0.848785 -18.668392 3.403 190 190 0
-0.942778 -18.855068 3.477 190 190 0
-0.977736 -18.923676 3.301 190 190 0
-0.686659 -18.343596 3.331 190 190 0
-0.905988 -18.780661 3.246 190 190 0
-0.859664 -18.687542 3.189 190 190 0
-1.041327 -19.052887 3.467 190 190 0
-0.945048 -18.859522 3.109 190 190 0
-0.94868 -18.86665 3.447 190 190 0
-0.863313 -18.696905 3.284 190 190 0
-0.755229 -18.480373 3.346 190 190 0
-0.797013 -18.564581 3.397 190 190 0
-0.755229 -18.480373 3.214 190 190 0
-1.019082 -19.009228 3.528 190 190 0
-0.899632 -18.768187 3.197 190 190 0
-0.876025 -18.721853 3.381 190 190 0
-0.860571 -18.689322 3.2 190 190 0
-0.943215 -18.853722 2.981 190 190 0
-0.810633 -18.591312 3.172 190 190 0
-1.002251 -18.971788 3.042 190 190 0
-0.805185 -18.58062 3.301 190 190 0
-0.915976 -18.800261 3.033 190 190 0
-1.010893 -18.990953 3.431 190 190 0
-0.994533 -18.95664 3.007 190 190 0
-0.926889 -18.823883 3.451 190 190 0
-0.8524 -18.673285 3.111 190 190 0
-0.742517 -18.455425 3.212 190 190 0
-0.901902 -18.77264 3.184 190 190 0
-0.845607 -18.662155 3.385 190 190 0
-0.965931 -18.900507 3.288 190 190 0
-0.864204 -18.696451 3.188 190 190 0
-0.747965 -18.466116 3.339 190 190 0
-0.828339 -18.626062 3.388 190 190 0
-0.749781 -18.469683 3.311 190 190 0
-0.885996 -18.73922 3.035 190 190 0
-0.995441 -18.958424 2.976 190 190 0
-0.995441 -18.958424 3.144 190 190 0
-0.910528 -18.78957 3.094 190 190 0
-0.834241 -18.637646 3.221 190 190 0
-0.790186 -18.548981 3.182 190 190 0
-0.825614 -18.620714 3.237 190 190 0
-0.966857 -18.904528 3.443 190 190 0
-0.801553 -18.573492 3.304 190 190 0
-0.951858 -18.872887 3.081 190 190 0
-0.683482 -18.337358 3.314 190 190 0
-0.811541 -18.593094 3.204 190 190 0
-0.8524 -18.673285 3.096 190 190 0
-0.73253 -18.435823 3.35 190 190 0
-0.838781 -18.646555 3.277 190 190 0
-0.942324 -18.854176 3.164 190 190 0
-0.764309 -18.498194 3.258 190 190 0
-0.881926 -18.733435 3.16 190 190 0
-0.798375 -18.567255 3.345 190 190 0
-0.834241 -18.637646 3.377 190 190 0
-0.927796 -18.825663 3.36 190 190 0
-0.777928 -18.524923 3.334 190 190 0
-0.972758 -18.916109 3.405 190 190 0
-0.959104 -18.884907 2.997 190 190 0
-0.742971 -18.456316 3.285 190 190 0
-0.988648 -18.947294 3.41 190 190 0
-0.794289 -18.559235 3.254 190 190 0
-0.945048 -18.859522 3.475 190 190 0
-0.955036 -18.879124 3.396 190 190 0
-0.778836 -18.526707 3.332 190 190 0
-0.885996 -18.73922 3.055 190 190 0
-0.874191 -18.716053 3.05 190 190 0
-0.715714 -18.40062 3.255 190 190 0
-0.796996 -18.562346 3.206 190 190 0
-0.787462 -18.543634 3.224 190 190 0
-0.770665 -18.510668 3.371 190 190 0
-0.84786 -18.664373 3.283 190 190 0
-1.004521 -18.976244 2.94 190 190 0
-0.887828 -18.745018 3.304 190 190 0
-0.898724 -18.766403 3.299 190 190 0
-0.726174 -18.423349 3.268 190 190 0
-0.77929 -18.527596 3.351 190 190 0
-0.905988 -18.780661 3.231 190 190 0
-1.001797 -18.970898 3.052 190 190 0
-0.84559 -18.65992 3.226 190 190 0
-0.924147 -18.816299 3.157 190 190 0
-0.814265 -18.59844 3.394 190 190 0
-0.999527 -18.966444 3.084 190 190 0
-0.653955 -18.277208 3.298 190 190 0
-0.873301 -18.716507 3.193 190 190 0
-1.035409 -19.039068 3.341 190 190 0
-0.898724 -18.766403 3.132 190 190 0
-0.899178 -18.767294 3.316 190 190 0
-0.815173 -18.600224 3.176 190 190 0
-0.83651 -18.642099 3.157 190 190 0
-0.836964 -18.64299 3.293 190 190 0
-0.975465 -18.919218 3.039 190 190 0
-0.955019 -18.876888 3.033 190 190 0
-0.9623 -18.893379 3.071 190 190 0
-0.942307 -18.85194 3.019 190 190 0
-0.828792 -18.626951 3.196 190 190 0
-0.925963 -18.819862 3.096 190 190 0
-0.830608 -18.630516 3.288 190 190 0
-0.806093 -18.582403 3.213 190 190 0
-0.967764 -18.906309 3.513 190 190 0
-0.913723 -18.798042 3.381 190 190 0
-0.989994 -18.947733 3.107 190 190 0
-0.826976 -18.623388 3.156 190 190 0
-0.804731 -18.579729 3.322 190 190 0
-0.939146 -18.847939 3.447 190 190 0
-0.940963 -18.851503 3.289 190 190 0
-1.022243 -19.013229 3.292 190 190 0
-0.664868 -18.300827 3.281 190 190 0
-0.980022 -18.930367 3.417 190 190 0
-0.754775 -18.479483 3.349 190 190 0
-0.831516 -18.632299 3.183 190 190 0
-0.965931 -18.900507 3.094 190 190 0
-1.003159 -18.973572 2.968 190 190 0
-1.016795 -19.002537 3.49 190 190 0
-0.940054 -18.849722 3.198 190 190 0
-0.956835 -18.880453 2.958 190 190 0
-0.970926 -18.910311 3.078 190 190 0
-0.985016 -18.940166 3.526 190 190 0
-0.844682 -18.658136 3.093 190 190 0
-0.984545 -18.937038 3.193 190 190 0
-0.815173 -18.600224 3.121 190 190 0
-1.009077 -18.987391 3.22 190 190 0
-0.977282 -18.922785 3.055 190 190 0
-0.940945 -18.849268 3.006 190 190 0
-0.979568 -18.929476 3.436 190 190 0
-0.990463 -18.950857 3.271 190 190 0
-0.927343 -18.824774 3.438 190 190 0
-0.962753 -18.89427 3.125 190 190 0
-0.761585 -18.492847 3.362 190 190 0
-1.000889 -18.969116 3.115 190 190 0
-0.920987 -18.8123 3.434 190 190 0
-0.778383 -18.525816 3.297 190 190 0
-0.879203 -18.72809 3.419 190 190 0
-0.831516 -18.632299 3.308 190 190 0
-0.735708 -18.44206 3.255 190 190 0
-0.917809 -18.806063 3.403 190 190 0
-0.842866 -18.654573 3.341 190 190 0
-0.880094 -18.727636 3.098 190 190 0
-0.891461 -18.752148 3.295 190 190 0
-0.781123 -18.533398 3.338 190 190 0
-1.016341 -19.001646 3.213 190 190 0
-0.748873 -18.467899 3.206 190 190 0
-0.846498 -18.661701 3.211 190 190 0
-0.917809 -18.806063 3.351 190 190 0
-0.913251 -18.794914 3.112 190 190 0
-0.973196 -18.914764 3.243 190 190 0
-0.999527 -18.966444 3.185 190 190 0
-0.700733 -18.371218 3.256 190 190 0
-0.934606 -18.839027 3.375 190 190 0
-0.985907 -18.939713 3.265 190 190 0
-0.802915 -18.576166 3.201 190 190 0
-0.955036 -18.879124 3.207 190 190 0
-0.885541 -18.738327 3.054 190 190 0
-0.981821 -18.931692 3.311 190 190 0
-0.993625 -18.954861 3.215 190 190 0
-0.969126 -18.908981 3.426 190 190 0
-0.772934 -18.515121 3.361 190 190 0
-0.958668 -18.886253 3.077 190 190 0
-0.788824 -18.546307 3.221 190 190 0
-0.874663 -18.719181 3.365 190 190 0
-1.011348 -18.991846 3.401 190 190 0
-0.780652 -18.53027 3.146 190 190 0
-0.777021 -18.523142 3.254 190 190 0
-0.940491 -18.848377 3.118 190 190 0
-0.85694 -18.682194 3.24 190 190 0
-0.892822 -18.75482 3.038 190 190 0
-0.824252 -18.618042 3.361 190 190 0
-0.897833 -18.766857 3.474 190 190 0
-0.784284 -18.537397 3.22 190 190 0
-0.848768 -18.666157 3.151 190 190 0
-0.763854 -18.497301 3.28 190 190 0
-1.031777 -19.03194 3.295 190 190 0
-1.014508 -18.995846 3.076 190 190 0
-1.009061 -18.985155 3.017 190 190 0
-0.896908 -18.76284 3.019 190 190 0
-0.827885 -18.625172 3.141 190 190 0
-0.961408 -18.893835 3.459 190 190 0
-0.820167 -18.610023 3.21 190 190 0
-0.961391 -18.891598 3.282 190 190 0
-0.927343 -18.824774 3.342 190 190 0
-0.786571 -18.544088 3.363 190 190 0
-0.970926 -18.910311 3.065 190 190 0
-1.014508 -18.995846 3.058 190 190 0
-0.990447 -18.948624 3.007 190 190 0
-0.912344 -18.793135 3.173 190 190 0
-0.889644 -18.748583 3.214 190 190 0
-0.756137 -18.482157 3.183 190 190 0
-0.790204 -18.551218 3.35 190 190 0
-0.767941 -18.505322 3.247 190 190 0
-0.942761 -18.852831 3.046 190 190 0
-0.755229 -18.480373 3.248 190 190 0
-1.016324 -18.999409 3.021 190 190 0
-0.954582 -18.878233 3.442 190 190 0
-0.967764 -18.906309 3.507 190 190 0
-0.949588 -18.868433 3.407 190 190 0
-1.020898 -19.012793 3.508 190 190 0
-1.004992 -18.979372 3.472 190 190 0
-0.714807 -18.398838 3.271 190 190 0
-0.894184 -18.757492 3.201 190 190 0
-0.972287 -18.912981 3.346 190 190 0
-0.980005 -18.928129 3.156 190 190 0
-0.881472 -18.732544 3.401 190 190 0
-0.79064 -18.549871 3.274 190 190 0
-1.016358 -19.003881 3.533 190 190 0
-0.860135 -18.690668 3.262 190 190 0
-0.944594 -18.858631 3.448 190 190 0
-1.039058 -19.048433 3.447 190 190 0
-1.013146 -18.993172 3.037 190 190 0
-1.010423 -18.987827 3.091 190 190 0
-0.948226 -18.865759 3.232 190 190 0
-0.784284 -18.537397 3.235 190 190 0
-0.984545 -18.937038 3.036 190 190 0
-1.013163 -18.995409 3.202 190 190 0
-0.985453 -18.938822 2.977 190 190 0
-0.902356 -18.773531 3.41 190 190 0
-0.948209 -18.863523 2.97 190 190 0
-1.000906 -18.971352 3.342 190 190 0
-0.8524 -18.673285 3.129 190 190 0
-0.861043 -18.69245 3.43 190 190 0
-0.826068 -18.621605 3.134 190 190 0
-0.833786 -18.636753 3.29 190 190 0
-0.882381 -18.734327 3.167 190 190 0
-0.979098 -18.926348 3.167 190 190 0
-1.023622 -19.018139 3.487 190 190 0
-0.828339 -18.626062 3.403 190 190 0
-0.653501 -18.276316 3.296 190 190 0
-0.871467 -18.710707 3.145 190 190 0
-0.813356 -18.596657 3.274 190 190 0
-0.940054 -18.849722 3.194 190 190 0
-1.037242 -19.044868 3.439 190 190 0
-0.990447 -18.948624 3.099 190 190 0
-0.802915 -18.576166 3.252 190 190 0
-0.980005 -18.928129 3.069 190 190 0
-0.804277 -18.578838 3.398 190 190 0
-0.845136 -18.659029 3.195 190 190 0
-1.042236 -19.05467 3.561 190 190 0
-0.997274 -18.964224 3.265 190 190 0
-0.923256 -18.816753 3.354 190 190 0
-0.747965 -18.466116 3.206 190 190 0
-0.909183 -18.789131 3.456 190 190 0
-0.816989 -18.603786 3.311 190 190 0
-1.007715 -18.984716 3.539 190 190 0
-0.894184 -18.757492 3.32 190 190 0
-0.92778 -18.823429 3.132 190 190 0
-0.690746 -18.351616 3.244 190 190 0
-0.890099 -18.749475 3.224 190 190 0
-0.970018 -18.908527 3.156 190 190 0
-1.000889 -18.969116 3.131 190 190 0
-0.733437 -18.437605 3.225 190 190 0
-0.793818 -18.556108 3.214 190 190 0
-0.949134 -18.867542 3.082 190 190 0
-1.017266 -19.005665 3.535 190 190 0
-1.039058 -19.048433 3.499 190 190 0
-0.786571 -18.544088 3.296 190 190 0
-1.019065 -19.006992 3.302 190 190 0
-0.890099 -18.749475 3.333 190 190 0
-0.887374 -18.744129 3.414 190 190 0
-0.952312 -18.873779 3.494 190 190 0
-0.976373 -18.921001 3.214 190 190 0
-0.812886 -18.593533 3.118 190 190 0
-0.940037 -18.847485 3.114 190 190 0
-0.830154 -18.629625 3.414 190 190 0
-0.766579 -18.502647 3.187 190 190 0
-0.701187 -18.372107 3.279 190 190 0
-0.767941 -18.505322 3.215 190 190 0
-0.864658 -18.697342 3.062 190 190 0
-0.788388 -18.547653 3.318 190 190 0
-0.986378 -18.942841 3.365 190 190 0
-0.84786 -18.664373 3.2 190 190 0
-0.819712 -18.609131 3.156 190 190 0
-0.754775 -18.479483 3.205 190 190 0
-0.955944 -18.880907 3.375 190 190 0
-0.844228 -18.657246 3.228 190 190 0
-0.969109 -18.906744 3.107 190 190 0
-0.976373 -18.921001 3.048 190 190 0
-0.767032 -18.503538 3.25 190 190 0
-0.860118 -18.688431 3.19 190 190 0
-0.869214 -18.708487 3.282 190 190 0
-1.01999 -19.011011 3.514 190 190 0
-0.972287 -18.912981 3.132 190 190 0
-1.008623 -18.9865 3.279 190 190 0
-0.791094 -18.550764 3.183 190 190 0
-1.028145 -19.024811 3.236 190 190 0
-0.887828 -18.745018 3.098 190 190 0
-0.681211 -18.332903 3.283 190 190 0
-0.767941 -18.505322 3.327 190 190 0
-0.871485 -18.712944 3.343 190 190 0
-0.84559 -18.65992 3.238 190 190 0
-0.86148 -18.691105 3.193 190 190 0
-0.974558 -18.917439 3.359 190 190 0
-0.866491 -18.703142 3.399 190 190 0
-0.899178 -18.767294 3.336 190 190 0
-0.868761 -18.707596 3.244 190 190 0
-0.791548 -18.551653 3.197 190 190 0
-0.996365 -18.962442 3.246 190 190 0
-0.758861 -18.487501 3.189 190 190 0
-0.91189 -18.792244 3.128 190 190 0
-0.952312 -18.873779 3.382 190 190 0
-0.958213 -18.885361 3.444 190 190 0
-0.956852 -18.882689 3.289 190 190 0
-0.710721 -18.390818 3.286 190 190 0
-0.97592 -18.920111 3.226 190 190 0
-0.697102 -18.36409 3.298 190 190 0
-0.743426 -18.457209 3.357 190 190 0
-0.891914 -18.753038 3.201 190 190 0
-0.879656 -18.728981 3.298 190 190 0
-1.011801 -18.992737 3.435 190 190 0
-0.805185 -18.58062 3.171 190 190 0
-0.974104 -18.916548 3.104 190 190 0
-0.821983 -18.613588 3.371 190 190 0
-0.895546 -18.760166 3.431 190 190 0
-1.018611 -19.006102 3.473 190 190 0
-0.986832 -18.943731 3.41 190 190 0
-0.757045 -18.483936 3.29 190 190 0
-0.883288 -18.736109 3.39 190 190 0
-0.747965 -18.466116 3.275 190 190 0
-0.694831 -18.359632 3.327 190 190 0
-0.872847 -18.715616 3.369 190 190 0
-0.862388 -18.692888 3.085 190 190 0
-0.897362 -18.763729 3.319 190 190 0
-0.983183 -18.934366 3.093 190 190 0
-0.777928 -18.524923 3.357 190 190 0
-0.726157 -18.421112 3.216 190 190 0
-0.880547 -18.728527 3.09 190 190 0
-0.99001 -18.949968 3.359 190 190 0
-1.008606 -18.984262 3.107 190 190 0
-0.976373 -18.921001 3.164 190 190 0
-0.905533 -18.779768 3.291 190 190 0
-0.691653 -18.353395 3.322 190 190 0
-0.923694 -18.815409 3.089 190 190 0
-0.88465 -18.738781 3.149 190 190 0
-0.841959 -18.652792 3.343 190 190 0
-0.912798 -18.794024 3.101 190 190 0
-0.926871 -18.821646 3.139 190 190 0
-0.997711 -18.962879 3.174 190 190 0
-0.866945 -18.704033 3.303 190 190 0
-0.998636 -18.966898 3.37 190 190 0
-1.018611 -19.006102 3.184 190 190 0
-0.978206 -18.926802 3.371 190 190 0
-1.007245 -18.98159 2.95 190 190 0
-0.952749 -18.872433 3.038 190 190 0
-0.733437 -18.437605 3.359 190 190 0
-0.87557 -18.720961 3.297 190 190 0
-0.95322 -18.875559 3.336 190 190 0
-0.769303 -18.507996 3.249 190 190 0
-0.993188 -18.956205 3.446 190 190 0
-0.836964 -18.64299 3.206 190 190 0
-0.650323 -18.270079 3.305 190 190 0
-1.007715 -18.984716 3.414 190 190 0
-0.983638 -18.935259 3.137 190 190 0
-0.890099 -18.749475 3.058 190 190 0
-0.821529 -18.612698 3.155 190 190 0
-0.979551 -18.927238 3.083 190 190 0
-0.988631 -18.945059 3.003 190 190 0
-0.700279 -18.370327 3.308 190 190 0
-0.888283 -18.745911 3.351 190 190 0
-0.791111 -18.552998 3.336 190 190 0
-1.023168 -19.017248 3.528 190 190 0
-0.829701 -18.628735 3.127 190 190 0
-0.828339 -18.626062 3.39 190 190 0
-0.724357 -18.419785 3.346 190 190 0
-0.917338 -18.802935 3.008 190 190 0
-0.965931 -18.900507 3.11 190 190 0
-0.96958 -18.909872 3.431 190 190 0
-1.004083 -18.977589 3.534 190 190 0
-0.859664 -18.687542 3.244 190 190 0
-0.98547 -18.941057 3.361 190 190 0
-0.817896 -18.605568 3.377 190 190 0
-0.98046 -18.929022 3.08 190 190 0
-1.002705 -18.972681 3.155 190 190 0
-0.856957 -18.684431 3.314 190 190 0
-0.937784 -18.845264 3.365 190 190 0
-0.735708 -18.44206 3.314 190 190 0
-0.838326 -18.645662 3.207 190 190 0
-0.994096 -18.957987 3.528 190 190 0
-0.960938 -18.890707 3.288 190 190 0
-0.740701 -18.451862 3.315 190 190 0
-0.924602 -18.817192 3.108 190 190 0
-0.925527 -18.821209 3.476 190 190 0
-1.029507 -19.027485 3.396 190 190 0
-1.030415 -19.029268 3.256 190 190 0
-1.003159 -18.973572 2.976 190 190 0
-0.890552 -18.750366 3.144 190 190 0
-1.00817 -18.985609 3.527 190 190 0
-0.801082 -18.570364 3.157 190 190 0
-0.970018 -18.908527 3.386 190 190 0
-1.004537 -18.978479 3.331 190 190 0
-0.964116 -18.896944 3.121 190 190 0
-0.971833 -18.91209 3.026 190 190 0
-0.820167 -18.610023 3.159 190 190 0
-0.838326 -18.645662 3.112 190 190 0
-0.932774 -18.833229 3.148 190 190 0
-1.008623 -18.9865 3.545 190 190 0
-0.98046 -18.929022 3.179 190 190 0
-0.836964 -18.64299 3.094 190 190 0
-0.959576 -18.888033 3.305 190 190 0
-0.890552 -18.750366 3.421 190 190 0
-0.982729 -18.933475 2.949 190 190 0
-0.938692 -18.847048 3.355 190 190 0
-0.953674 -18.876451 3.273 190 190 0
-0.886466 -18.742346 3.326 190 190 0
-1.023151 -19.015011 3.181 190 190 0
-0.942778 -18.855068 3.205 190 190 0
-0.897362 -18.763729 3.15 190 190 0
-0.989085 -18.94595 3.132 190 190 0
-0.932319 -18.832336 3.15 190 190 0
-0.952312 -18.873779 3.164 190 190 0
-0.837419 -18.643883 3.146 190 190 0
-0.747965 -18.466116 3.199 190 190 0
-0.979098 -18.926348 3.167 190 190 0
-0.755683 -18.481264 3.352 190 190 0
-1.008153 -18.983372 2.939 190 190 0
-0.894638 -18.758385 3.287 190 190 0
-1.017703 -19.00432 3.186 190 190 0
-0.917791 -18.803825 3.108 190 190 0
-0.950042 -18.869322 3.167 190 190 0
-1.019536 -19.010118 3.519 190 190 0
-1.004521 -18.976244 2.942 190 190 0
-0.923256 -18.816753 3.441 190 190 0
-0.854233 -18.679085 3.375 190 190 0
-0.825161 -18.619825 3.164 190 190 0
-0.929612 -18.829227 3.215 190 190 0
-0.999543 -18.968679 3.295 190 190 0
-0.869214 -18.708487 3.234 190 190 0
-0.844228 -18.657246 3.127 190 190 0
-0.965024 -18.898727 3.196 190 190 0
-0.765671 -18.500868 3.227 190 190 0
-0.960466 -18.887579 2.993 190 190 0
-0.832425 -18.634081 3.115 190 190 0
-0.782032 -18.535179 3.394 190 190 0
-0.984545 -18.937038 3.22 190 190 0
-0.912798 -18.794024 3.171 190 190 0
-0.914631 -18.799826 3.48 190 190 0
-1.046321 -19.062687 3.506 190 190 0
-0.93733 -18.844374 3.24 190 190 0
-0.826523 -18.622498 3.129 190 190 0
-0.705273 -18.380127 3.331 190 190 0
-0.945502 -18.860413 3.502 190 190 0
-0.804731 -18.579729 3.183 190 190 0
-0.744333 -18.458988 3.328 190 190 0
-0.941399 -18.850157 3.039 190 190 0
-0.866491 -18.703142 3.219 190 190 0
-0.84559 -18.65992 3.293 190 190 0
-0.84786 -18.664373 3.241 190 190 0
-0.718456 -18.408203 3.353 190 190 0
-1.014071 -18.99719 3.226 190 190 0
-0.951858 -18.872887 3.458 190 190 0
-0.915085 -18.800714 3.441 190 190 0
-0.811995 -18.593987 3.341 190 190 0
-1.022697 -19.01412 3.169 190 190 0
-0.830608 -18.630516 3.106 190 190 0
-1.006808 -18.982935 3.332 190 190 0
-0.904643 -18.780222 3.393 190 190 0
-0.947772 -18.864868 3.241 190 190 0
-1.003176 -18.975807 3.3 190 190 0
-1.022697 -19.01412 3.139 190 190 0
-0.924602 -18.817192 3.114 190 190 0
-0.830154 -18.629625 3.205 190 190 0
-0.854687 -18.679976 3.306 190 190 0
-0.71437 -18.400183 3.349 190 190 0
-0.703003 -18.375671 3.277 190 190 0
-0.99455 -18.958878 3.33 190 190 0
-0.803823 -18.577946 3.364 190 190 0
-0.747057 -18.464336 3.305 190 190 0
-0.983638 -18.935259 3.255 190 190 0
-0.940963 -18.851503 3.139 190 190 0
-0.938675 -18.84481 2.989 190 190 0
-0.807438 -18.582838 3.126 190 190 0
-0.943232 -18.855959 3.245 190 190 0
-0.929158 -18.828337 3.35 190 190 0
-0.84559 -18.65992 3.178 190 190 0
-0.936423 -18.842594 3.367 190 190 0
-0.95776 -18.88447 3.292 190 190 0
-0.922349 -18.814972 3.275 190 190 0
-0.803369 -18.577055 3.355 190 190 0
-0.945956 -18.861305 3.111 190 190 0
-0.860135 -18.690668 3.441 190 190 0
-0.949571 -18.866196 3.027 190 190 0
-0.970018 -18.908527 3.389 190 190 0
-1.009515 -18.986046 2.969 190 190 0
-0.780199 -18.529379 3.189 190 190 0
-0.968656 -18.905853 3.048 190 190 0
-0.99228 -18.954424 3.366 190 190 0
-1.016795 -19.002537 3.087 190 190 0
-0.768394 -18.506212 3.352 190 190 0
-0.9623 -18.893379 3.176 190 190 0
-0.752051 -18.474136 3.241 190 190 0
-0.848314 -18.665266 3.127 190 190 0
-1.008606 -18.984262 2.993 190 190 0
-0.965478 -18.899616 3.369 190 190 0
-0.999073 -18.965551 2.987 190 190 0
-0.705273 -18.380127 3.336 190 190 0
-0.780652 -18.53027 3.259 190 190 0
-0.908711 -18.786005 3.2 190 190 0
-1.029507 -19.027485 3.382 190 190 0
-0.868307 -18.706707 3.357 190 190 0
-0.78837 -18.545416 3.279 190 190 0
-0.85921 -18.686651 3.113 190 190 0
-0.947755 -18.862631 2.995 190 190 0
-0.938221 -18.84392 3.041 190 190 0
-0.746149 -18.462553 3.308 190 190 0
-0.831516 -18.632299 3.19 190 190 0
-0.979098 -18.926348 3.291 190 190 0
-0.890552 -18.750366 3.24 190 190 0
-1.034972 -19.040413 3.503 190 190 0
-0.789732 -18.54809 3.267 190 190 0
-0.996365 -18.962442 3.475 190 190 0
-0.856486 -18.681305 3.167 190 190 0
-0.930958 -18.829666 3.113 190 190 0
-0.814265 -18.59844 3.367 190 190 0
-0.963662 -18.896053 3.415 190 190 0
-0.986361 -18.940603 2.924 190 190 0
-0.918246 -18.804718 3.1 190 190 0
-0.782468 -18.533833 3.205 190 190 0
-0.930067 -18.83012 3.486 190 190 0
-1.01271 -18.994518 3.368 190 190 0
-0.984091 -18.93615 3.148 190 190 0
-1.026329 -19.021248 3.179 190 190 0
-0.907804 -18.784224 3.215 190 190 0
-0.944594 -18.858631 3.368 190 190 0
-0.833786 -18.636753 3.21 190 190 0
-0.973196 -18.914764 3.153 190 190 0
-0.812903 -18.595766 3.177 190 190 0
-0.821529 -18.612698 3.167 190 190 0
-1.015888 -19.000755 3.186 190 190 0
-0.95322 -18.875559 3.371 190 190 0
-0.951404 -18.871996 3.348 190 190 0
-0.976844 -18.924129 3.505 190 190 0
-0.991355 -18.950403 3.241 190 190 0
-0.931883 -18.833683 3.215 190 190 0
-0.934606 -18.839027 3.397 190 190 0
-0.917355 -18.805172 3.438 190 190 0
-0.905988 -18.780661 3.271 190 190 0
-0.952766 -18.87467 3.502 190 190 0
-0.974558 -18.917439 3.103 190 190 0
-1.010893 -18.990953 3.197 190 190 0
-0.675764 -18.32221 3.284 190 190 0
-0.702549 -18.374781 3.261 190 190 0
-0.829701 -18.628735 3.389 190 190 0
-1.019519 -19.007883 3.451 190 190 0
-0.813811 -18.597549 3.208 190 190 0
-0.973649 -18.915655 2.971 190 190 0
-0.905988 -18.780661 3.312 190 190 0
-0.827885 -18.625172 3.391 190 190 0
-0.818805 -18.607351 3.301 190 190 0
-0.987269 -18.942387 2.984 190 190 0
-0.935968 -18.841702 3.213 190 190 0
-0.866945 -18.704033 3.394 190 190 0
-0.826976 -18.623388 3.223 190 190 0
-0.931428 -18.83279 3.467 190 190 0
-0.94868 -18.86665 3.131 190 190 0
-1.016779 -19.000301 3.066 190 190 0
-0.838326 -18.645662 3.337 190 190 0
-1.019973 -19.008774 3.417 190 190 0
-1.014526 -18.998083 3.29 190 190 0
-0.934589 -18.836794 2.995 190 190 0
-0.91189 -18.792244 3.073 190 190 0
-0.899178 -18.767294 3.027 190 190 0
-0.879656 -18.728981 3.438 190 190 0
-0.90508 -18.778877 3.279 190 190 0
-0.853325 -18.677301 3.295 190 190 0
-1.028599 -19.025703 3.367 190 190 0
-0.979098 -18.926348 3.117 190 190 0
-0.900994 -18.770859 3.389 190 190 0
-1.010423 -18.987827 3.014 190 190 0
-0.858302 -18.684868 3.116 190 190 0
-0.984545 -18.937038 3.265 190 190 0
-0.923711 -18.817646 3.435 190 190 0
-0.833786 -18.636753 3.119 190 190 0
-0.79745 -18.563238 3.208 190 190 0
-0.929141 -18.826099 3.204 190 190 0
-0.752959 -18.47592 3.34 190 190 0
-1.019519 -19.007883 3.081 190 190 0
-0.877387 -18.724527 3.207 190 190 0
-0.934152 -18.838137 3.463 190 190 0
-0.970926 -18.910311 3.258 190 190 0
-0.86602 -18.700016 3.145 190 190 0
-1.02453 -19.01992 3.528 190 190 0
-0.989994 -18.947733 3.101 190 190 0
-0.754321 -18.47859 3.348 190 190 0
-1.026783 -19.022141 3.381 190 190 0
-0.994987 -18.957533 3.031 190 190 0
-0.972287 -18.912981 3.085 190 190 0
-0.952312 -18.873779 3.338 190 190 0
-0.965495 -18.901854 3.477 190 190 0
-0.706181 -18.381908 3.3 190 190 0
-0.905533 -18.779768 3.271 190 190 0
-0.985016 -18.940166 3.391 190 190 0
-0.821074 -18.611805 3.319 190 190 0
-0.967293 -18.903181 3.153 190 190 0
-0.701187 -18.372107 3.243 190 190 0
-0.827885 -18.625172 3.359 190 190 0
-0.893276 -18.755713 3.38 190 190 0
-0.807455 -18.585075 3.32 190 190 0
-1.014526 -18.998083 3.419 190 190 0
-0.687568 -18.345379 3.257 190 190 0
-0.929141 -18.826099 3.171 190 190 0
-0.899649 -18.77042 3.459 190 190 0
-0.883288 -18.736109 3.378 190 190 0
-0.842883 -18.656811 3.395 190 190 0
-0.921424 -18.810955 3.259 190 190 0
-0.991355 -18.950403 3.203 190 190 0
-0.959576 -18.888033 3.406 190 190 0
-0.771119 -18.511559 3.157 190 190 0
-0.763854 -18.497301 3.207 190 190 0
-0.94641 -18.862196 3.455 190 190 0
-0.90782 -18.786459 3.393 190 190 0
-0.84332 -18.655464 3.293 190 190 0
-0.871031 -18.712053 3.389 190 190 0
-1.007715 -18.984716 3.273 190 190 0
-0.9187 -18.805609 3.051 190 190 0
-0.867853 -18.705816 3.326 190 190 0
-1.022697 -19.01412 3.131 190 190 0
-0.935514 -18.840811 3.182 190 190 0
-0.940037 -18.847485 3.029 190 190 0
-0.815627 -18.601114 3.317 190 190 0
-0.824252 -18.618042 3.276 190 190 0
-1.019519 -19.007883 3.292 190 190 0
-0.84105 -18.651009 3.203 190 190 0
-0.990463 -18.950857 3.387 190 190 0
-1.006337 -18.979809 3.054 190 190 0
-0.931411 -18.830557 2.998 190 190 0
-0.859664 -18.687542 3.209 190 190 0
-0.810178 -18.59042 3.317 190 190 0
-0.841504 -18.651899 3.255 190 190 0
-0.873301 -18.716507 3.219 190 190 0
-0.82743 -18.624279 3.376 190 190 0
-0.799737 -18.569929 3.304 190 190 0
-0.853762 -18.675957 3.168 190 190 0
-0.840142 -18.649227 3.343 190 190 0
-1.00817 -18.985609 3.546 190 190 0
-0.6476 -18.264734 3.298 190 190 0
-0.958668 -18.886253 3.188 190 190 0
-0.819712 -18.609131 3.315 190 190 0
-0.760223 -18.490173 3.21 190 190 0
-0.84332 -18.655464 3.121 190 190 0
-0.865111 -18.698233 3.081 190 190 0
-0.973196 -18.914764 2.954 190 190 0
-0.979551 -18.927238 3.056 190 190 0
-0.864658 -18.697342 3.146 190 190 0
-0.833332 -18.635862 3.362 190 190 0
-0.92778 -18.823429 3.189 190 190 0
-0.749327 -18.46879 3.194 190 190 0
-0.85467 -18.67774 3.067 190 190 0
-0.995441 -18.958424 3.137 190 190 0
-0.985907 -18.939713 3.104 190 190 0
-0.973213 -18.917002 3.522 190 190 0
-0.98046 -18.929022 3.182 190 190 0
-0.922331 -18.812735 3.077 190 190 0
-0.970471 -18.909418 3.027 190 190 0
-0.929158 -18.828337 3.42 190 190 0
-0.894184 -18.757492 3.393 190 190 0
-0.836964 -18.64299 3.391 190 190 0
-0.676672 -18.323994 3.274 190 190 0
-1.010893 -18.990953 3.448 190 190 0
-1.019536 -19.010118 3.508 190 190 0
-0.767032 -18.503538 3.299 190 190 0
-0.961391 -18.891598 3.26 190 190 0
-0.900994 -18.770859 3.386 190 190 0
-0.927325 -18.822536 3.014 190 190 0
-0.775205 -18.519579 3.331 190 190 0
-0.742517 -18.455425 3.342 190 190 0
-0.934606 -18.839027 3.24 190 190 0
-0.926889 -18.823883 3.355 190 190 0
-1.001343 -18.970007 3.166 190 190 0
-0.997274 -18.964224 3.414 190 190 0
-0.95549 -18.880016 3.045 190 190 0
-0.922785 -18.813625 3.068 190 190 0
-1.000889 -18.969116 3.12 190 190 0
-0.818351 -18.606461 3.318 190 190 0
-0.917338 -18.802935 3.268 190 190 0
-0.821983 -18.613588 3.13 190 190 0
-0.97866 -18.927692 3.336 190 190 0
-1.013617 -18.9963 3.506 190 190 0
-0.969109 -18.906744 3.141 190 190 0
-0.710267 -18.389929 3.331 190 190 0
-0.910074 -18.788677 3.184 190 190 0
-0.820167 -18.610023 3.275 190 190 0
-0.95095 -18.871105 3.116 190 190 0
-1.049045 -19.068035 3.55 190 190 0
-0.785646 -18.54007 3.244 190 190 0
-0.87557 -18.720961 3.361 190 190 0
-0.904172 -18.777096 3.095 190 190 0
-0.894184 -18.757492 3.297 190 190 0
-0.975465 -18.919218 2.98 190 190 0
-0.719818 -18.410875 3.321 190 190 0
-0.901465 -18.773985 3.449 190 190 0
-0.967764 -18.906309 3.474 190 190 0
-0.85921 -18.686651 3.065 190 190 0
-0.838326 -18.645662 3.236 190 190 0
-1.032685 -19.033722 3.399 190 190 0
-0.877841 -18.725418 3.164 190 190 0
-1.000452 -18.970461 3.19 190 190 0
-0.965931 -18.900507 3.381 190 190 0
-0.711174 -18.391708 3.346 190 190 0
-0.943686 -18.856848 3.284 190 190 0
-0.967748 -18.904074 3.099 190 190 0
-0.829247 -18.627844 3.397 190 190 0
-0.990463 -18.950857 3.453 190 190 0
-0.929158 -18.828337 3.455 190 190 0
-0.894184 -18.757492 3.228 190 190 0
-1.027237 -19.023031 3.447 190 190 0
-0.976844 -18.924129 3.352 190 190 0
-0.90281 -18.774424 3.356 190 190 0
-0.920969 -18.810062 3.174 190 190 0
-0.816534 -18.602894 3.303 190 190 0
-0.921424 -18.810955 3.007 190 190 0
-0.993188 -18.956205 3.376 190 190 0
-0.99228 -18.954424 3.327 190 190 0
-0.726157 -18.421112 3.253 190 190 0
-0.9623 -18.893379 3.166 190 190 0
-0.985907 -18.939713 3.272 190 190 0
-0.95322 -18.875559 3.355 190 190 0
-0.84105 -18.651009 3.353 190 190 0
-0.931428 -18.83279 3.464 190 190 0
-0.865129 -18.70047 3.213 190 190 0
-0.806093 -18.582403 3.237 190 190 0
-0.974104 -18.916548 3.203 190 190 0
-0.768394 -18.506212 3.344 190 190 0
-0.848768 -18.666157 3.265 190 190 0
-0.747057 -18.464336 3.283 190 190 0
-1.002268 -18.974026 3.167 190 190 0
-1.026346 -19.023485 3.48 190 190 0
-0.792019 -18.554781 3.401 190 190 0
-0.772027 -18.513342 3.187 190 190 0
-0.847877 -18.666611 3.415 190 190 0
-0.792002 -18.552544 3.189 190 190 0
-0.796559 -18.563692 3.363 190 190 0
-1.021353 -19.013683 3.505 190 190 0
-1.024513 -19.017685 3.161 190 190 0
-0.965478 -18.899616 3.187 190 190 0
-0.989556 -18.949078 3.475 190 190 0
-1.009985 -18.989172 3.187 190 190 0
-0.881472 -18.732544 3.102 190 190 0
-0.880565 -18.730764 3.248 190 190 0
-0.954582 -18.878233 3.335 190 190 0
-0.765671 -18.500868 3.325 190 190 0
-0.940491 -18.848377 3.002 190 190 0
-0.765671 -18.500868 3.19 190 190 0
-0.95776 -18.88447 3.163 190 190 0
-0.994096 -18.957987 3.407 190 190 0
-0.949588 -18.868433 3.422 190 190 0
-0.836528 -18.644337 3.411 190 190 0
-0.920969 -18.810062 3.174 190 190 0
-0.782468 -18.533833 3.245 190 190 0
-0.762947 -18.495522 3.172 190 190 0
-0.797904 -18.564127 3.13 190 190 0
-1.005899 -18.981153 3.505 190 190 0
-0.910982 -18.790461 3.221 190 190 0
-0.890099 -18.749475 3.37 190 190 0
-0.697555 -18.364981 3.327 190 190 0
-0.901902 -18.77264 3.263 190 190 0
-0.700279 -18.370327 3.259 190 190 0
-0.976373 -18.921001 3.078 190 190 0
-0.800645 -18.571709 3.376 190 190 0
-0.968202 -18.904964 3.043 190 190 0
-0.967748 -18.904074 3.119 190 190 0
-0.894184 -18.757492 3.467 190 190 0
-1.001814 -18.973135 3.232 190 190 0
-0.730697 -18.430023 3.225 190 190 0
-0.745241 -18.460772 3.208 190 190 0
-0.920516 -18.809172 3.098 190 190 0
-0.830154 -18.629625 3.148 190 190 0
-0.697555 -18.364981 3.273 190 190 0
-0.761585 -18.492847 3.22 190 190 0
-0.808363 -18.586857 3.198 190 190 0
-0.967748 -18.904074 3.186 190 190 0
-0.947755 -18.862631 2.979 190 190 0
-0.87056 -18.708925 3.122 190 190 0
-0.752959 -18.47592 3.274 190 190 0
-0.757953 -18.48572 3.278 190 190 0
-0.950496 -18.870214 3.171 190 190 0
-1.002705 -18.972681 2.955 190 190 0
-0.776112 -18.521358 3.159 190 190 0
-0.956398 -18.881796 3.21 190 190 0
-0.857865 -18.686213 3.282 190 190 0
-0.66623 -18.303499 3.317 190 190 0
-0.894638 -18.758385 3.27 190 190 0
-0.868307 -18.706707 3.37 190 190 0
-0.955036 -18.879124 3.115 190 190 0
-1.007715 -18.984716 3.152 190 190 0
-0.835603 -18.640318 3.128 190 190 0
-0.922349 -18.814972 3.425 190 190 0
-0.996349 -18.960207 2.955 190 190 0
-0.812903 -18.595766 3.237 190 190 0
-0.676672 -18.323994 3.308 190 190 0
-1.025438 -19.021702 3.542 190 190 0
-0.940963 -18.851503 3.43 190 190 0
-0.98046 -18.929022 2.938 190 190 0
-1.010893 -18.990953 3.199 190 190 0
-0.717531 -18.404184 3.266 190 190 0
-0.873754 -18.717398 3.427 190 190 0
-1.013163 -18.995409 3.288 190 190 0
-0.753413 -18.47681 3.315 190 190 0
-0.88465 -18.738781 3.256 190 190 0
-0.95095 -18.871105 3.166 190 190 0
-0.711629 -18.392601 3.329 190 190 0
-0.913706 -18.795807 3.178 190 190 0
-0.925527 -18.821209 3.474 190 190 0
-0.794726 -18.55789 3.238 190 190 0
-0.788824 -18.546307 3.286 190 190 0
-0.763401 -18.49641 3.365 190 190 0
-0.833332 -18.635862 3.195 190 190 0
-0.93733 -18.844374 3.244 190 190 0
-0.834241 -18.637646 3.246 190 190 0
-0.858756 -18.685759 3.194 190 190 0
-0.921878 -18.811846 3.007 190 190 0
-0.814718 -18.599331 3.111 190 190 0
-0.837872 -18.644773 3.192 190 190 0
-0.95095 -18.871105 3.262 190 190 0
-0.872392 -18.714724 3.448 190 190 0
-0.919607 -18.807388 3.246 190 190 0
-0.989085 -18.94595 2.985 190 190 0
-0.66169 -18.29459 3.3 190 190 0
-0.984091 -18.93615 3.222 190 190 0
-0.813356 -18.596657 3.384 190 190 0
-0.993171 -18.95397 3.041 190 190 0
-0.778399 -18.528049 3.358 190 190 0
-0.757499 -18.484827 3.224 190 190 0
-0.938238 -18.846157 3.157 190 190 0
-1.019973 -19.008774 3.32 190 190 0
-0.991372 -18.952641 3.309 190 190 0
-1.013163 -18.995409 3.177 190 190 0
-0.737977 -18.446514 3.263 190 190 0
-0.888283 -18.745911 3.288 190 190 0
-1.036771 -19.041742 3.362 190 190 0
-0.986832 -18.943731 3.519 190 190 0
-0.996365 -18.962442 3.396 190 190 0
-0.981384 -18.933039 3.314 190 190 0
-0.924618 -18.819426 3.448 190 190 0
-0.897816 -18.764622 3.18 190 190 0
-1.027237 -19.023031 3.209 190 190 0
-0.988631 -18.945059 3.012 190 190 0
-1.034064 -19.038631 3.406 190 190 0
-0.955036 -18.879124 3.159 190 190 0
-0.879203 -18.72809 3.357 190 190 0
-1.020427 -19.009665 3.312 190 190 0
-0.943686 -18.856848 3.242 190 190 0
-0.879203 -18.72809 3.28 190 190 0
-1.004083 -18.977589 3.479 190 190 0
-0.929158 -18.828337 3.349 190 190 0
-0.790204 -18.551218 3.295 190 190 0
-0.995441 -18.958424 3.201 190 190 0
-0.885105 -18.739674 3.278 190 190 0
-0.787916 -18.544527 3.193 190 190 0
-1.011348 -18.991846 3.284 190 190 0
-0.970926 -18.910311 3.071 190 190 0
-0.947772 -18.864868 3.5 190 190 0
-0.796542 -18.561455 3.218 190 190 0
-1.005445 -18.980263 3.405 190 190 0
-0.948663 -18.864414 2.988 190 190 0
-0.90054 -18.769966 3.065 190 190 0
-1.014962 -18.996737 3.049 190 190 0
-0.776567 -18.522251 3.326 190 190 0
-0.98046 -18.929022 3.083 190 190 0
-0.790204 -18.551218 3.301 190 190 0
-0.879203 -18.72809 3.183 190 190 0
-0.958668 -18.886253 3.278 190 190 0
-0.846044 -18.66081 3.272 190 190 0
-1.03134 -19.033285 3.532 190 190 0
-0.92144 -18.813189 3.443 190 190 0
-0.747057 -18.464336 3.295 190 190 0
