ply
format ascii 1.0
element vertex 1319
property double x
property double y
property double z
property uchar red
property uchar green
property uchar blue
element face 0
property list uchar int vertex_indices
end_header
0.073646 -17.692839 0.194 255 170 0
0.026096 -17.770742 0.454 255 170 0
0.068232 -17.699059 0.281 255 170 0
0.033797 -17.757832 0.457 255 170 0
0.046963 -17.731993 0.54 255 170 0
0.018395 -17.783653 0.457 255 170 0
0.071393 -17.695059 0.183 255 170 0
-0.070905 -17.941294 0.503 255 170 0
-0.019218 -17.848663 0.6 255 170 0
-0.037815 -17.882959 0.551 255 170 0
0.01658 -17.787218 0.526 255 170 0
-0.086307 -17.967115 0.638 255 170 0
-0.099909 -17.991611 0.576 255 170 0
-0.051854 -17.906107 0.609 255 170 0
0.05463 -17.723553 0.267 255 170 0
-0.00338 -17.824186 0.426 255 170 0
-0.012879 -17.838425 0.552 255 170 0
0.031073 -17.763178 0.383 255 170 0
0.011114 -17.800144 0.281 255 170 0
0.030182 -17.762722 0.466 255 170 0
0.02924 -17.768978 0.238 255 170 0
-0.026935 -17.86381 0.487 255 170 0
0.036941 -17.756065 0.189 255 170 0
0.032872 -17.761848 0.277 255 170 0
0.016614 -17.782745 0.664 255 170 0
0.009752 -17.802818 0.352 255 170 0
-0.054578 -17.911453 0.609 255 170 0
-0.010592 -17.831734 0.634 255 170 0
0.019723 -17.785452 0.245 255 170 0
-0.023758 -17.857573 0.542 255 170 0
0.041481 -17.747156 0.263 255 170 0
0.060514 -17.714205 0.255 255 170 0
0.065945 -17.70575 0.209 255 170 0
-0.019235 -17.850899 0.521 255 170 0
0.019303 -17.781872 0.48 255 170 0
0.035647 -17.749796 0.643 255 170 0
-0.064986 -17.927475 0.665 255 170 0
-0.027827 -17.863356 0.642 255 170 0
-0.036907 -17.881176 0.551 255 170 0
0.018866 -17.780525 0.636 255 170 0
0.006626 -17.802347 0.641 255 170 0
-0.045533 -17.898106 0.437 255 170 0
0.041044 -17.745811 0.423 255 170 0
-0.052326 -17.909235 0.496 255 170 0
0.051486 -17.725319 0.46 255 170 0
-0.078606 -17.954206 0.539 255 170 0
-0.054596 -17.913689 0.468 255 170 0
0.052814 -17.727118 0.258 255 170 0
-0.00696 -17.824606 0.672 255 170 0
-0.016965 -17.846445 0.448 255 170 0
0.047854 -17.732447 0.456 255 170 0
-0.002942 -17.825531 0.337 255 170 0
0.046929 -17.736464 0.369 255 170 0
-0.095841 -17.985826 0.562 255 170 0
0.055538 -17.721771 0.289 255 170 0
0.041969 -17.741793 0.483 255 170 0
0.016159 -17.783636 0.664 255 170 0
0.080439 -17.681709 0.12 255 170 0
0.036504 -17.754723 0.357 255 170 0
0.074554 -17.691057 0.136 255 170 0
-0.055504 -17.915472 0.474 255 170 0
0.024263 -17.776543 0.317 255 170 0
-0.094025 -17.982264 0.548 255 170 0
-0.048676 -17.89987 0.59 255 170 0
0.06186 -17.71377 0.122 255 170 0
0.031561 -17.757814 0.64 255 170 0
-0.030585 -17.873175 0.388 255 170 0
0.029291 -17.76227 0.563 255 170 0
-0.060918 -17.921692 0.579 255 170 0
-0.110334 -18.009867 0.624 255 170 0
-0.035107 -17.879848 0.386 255 170 0
0.035159 -17.755157 0.426 255 170 0
0.082255 -17.678144 0.135 255 170 0
-0.102179 -17.996065 0.608 255 170 0
0.043331 -17.73912 0.539 255 170 0
0.027425 -17.772541 0.268 255 170 0
-0.044624 -17.896322 0.474 255 170 0
0.080893 -17.680819 0.152 255 170 0
0.05236 -17.728008 0.241 255 170 0
-0.043716 -17.894541 0.501 255 170 0
-0.002018 -17.821512 0.452 255 170 0
-0.028769 -17.86961 0.405 255 170 0
-0.032383 -17.874502 0.446 255 170 0
-0.027861 -17.867828 0.392 255 170 0
0.044659 -17.740919 0.319 255 170 0
-0.074066 -17.945295 0.581 255 170 0
-0.085416 -17.967571 0.546 255 170 0
0.0646 -17.706186 0.258 255 170 0
0.0741 -17.691948 0.151 255 170 0
-0.035528 -17.876266 0.61 255 170 0
-0.079967 -17.956877 0.56 255 170 0
0.041935 -17.746265 0.322 255 170 0
0.027475 -17.765833 0.58 255 170 0
-0.041446 -17.890085 0.453 255 170 0
0.034739 -17.751577 0.637 255 170 0
0.022464 -17.77787 0.439 255 170 0
0.031981 -17.761395 0.396 255 170 0
0.072301 -17.693275 0.207 255 170 0
-0.05051 -17.90567 0.469 255 170 0
-0.006086 -17.827295 0.455 255 170 0
0.012981 -17.789873 0.628 255 170 0
0.003448 -17.808584 0.588 255 170 0
-0.123029 -18.032579 0.633 255 170 0
0.075916 -17.688383 0.159 255 170 0
-0.078606 -17.954206 0.592 255 170 0
0.01705 -17.78409 0.603 255 170 0
-0.053688 -17.911907 0.474 255 170 0
-0.020614 -17.855808 0.364 255 170 0
0.004356 -17.806803 0.622 255 170 0
-0.071813 -17.943075 0.535 255 170 0
-0.037798 -17.880722 0.62 255 170 0
0.009332 -17.799236 0.513 255 170 0
-0.088105 -17.968443 0.66 255 170 0
0.010224 -17.799692 0.465 255 170 0
0.010677 -17.798801 0.466 255 170 0
-0.03008 -17.865576 0.653 255 170 0
-0.058664 -17.919472 0.589 255 170 0
-0.030131 -17.872282 0.417 255 170 0
0.020665 -17.779198 0.491 255 170 0
-0.061842 -17.925709 0.513 255 170 0
0.079531 -17.683493 0.098 255 170 0
0.009332 -17.799236 0.551 255 170 0
0.032435 -17.760504 0.441 255 170 0
-0.029189 -17.86603 0.61 255 170 0
0.013418 -17.791218 0.529 255 170 0
-0.031039 -17.874065 0.387 255 170 0
-0.048256 -17.903452 0.428 255 170 0
-0.006558 -17.830423 0.343 255 170 0
0.007936 -17.806383 0.307 255 170 0
0.071376 -17.697294 0.12 255 170 0
0.027458 -17.76807 0.513 255 170 0
-0.050056 -17.904779 0.49 255 170 0
0.021085 -17.78278 0.319 255 170 0
-0.078606 -17.954206 0.564 255 170 0
0.06006 -17.715097 0.257 255 170 0
0.001614 -17.814384 0.457 255 170 0
0.029711 -17.76585 0.356 255 170 0
0.00708 -17.801456 0.616 255 170 0
-0.057774 -17.919926 0.464 255 170 0
0.000252 -17.817059 0.482 255 170 0
0.046509 -17.732883 0.549 255 170 0
0.017907 -17.789017 0.267 255 170 0
0.027879 -17.77165 0.253 255 170 0
0.064146 -17.707077 0.248 255 170 0
0.023809 -17.777433 0.371 255 170 0
-0.062279 -17.924364 0.617 255 170 0
-0.0437 -17.892305 0.606 255 170 0
0.021539 -17.781889 0.276 255 170 0
0.031543 -17.76005 0.467 255 170 0
0.028332 -17.77076 0.292 255 170 0
0.029728 -17.763615 0.482 255 170 0
-0.009701 -17.832188 0.524 255 170 0
-0.038252 -17.881613 0.623 255 170 0
-0.025591 -17.863373 0.411 255 170 0
-0.019689 -17.851789 0.432 255 170 0
-0.008776 -17.828171 0.658 255 170 0
-0.094479 -17.983154 0.567 255 170 0
0.019723 -17.785452 0.328 255 170 0
0.062784 -17.709751 0.216 255 170 0
-0.02285 -17.855791 0.545 255 170 0
-0.054124 -17.910563 0.568 255 170 0
0.020194 -17.782326 0.378 255 170 0
-0.00607 -17.82506 0.635 255 170 0
-0.082675 -17.95999 0.617 255 170 0
0.020682 -17.776962 0.661 255 170 0
-0.075882 -17.94886 0.552 255 170 0
0.02201 -17.778761 0.392 255 170 0
0.027441 -17.770306 0.338 255 170 0
0.051889 -17.731134 0.189 255 170 0
0.036991 -17.749359 0.607 255 170 0
0.00069 -17.818403 0.373 255 170 0
0.050072 -17.734699 0.167 255 170 0
-0.005196 -17.827749 0.4 255 170 0
-0.005632 -17.826405 0.523 255 170 0
-0.093553 -17.979137 0.597 255 170 0
0.028366 -17.766287 0.539 255 170 0
-0.026935 -17.86381 0.502 255 170 0
-0.013333 -17.839315 0.577 255 170 0
0.039716 -17.744011 0.643 255 170 0
-0.011046 -17.832624 0.642 255 170 0
0.052814 -17.727118 0.239 255 170 0
0.017941 -17.784544 0.544 255 170 0
-0.014695 -17.84199 0.564 255 170 0
-0.038269 -17.883848 0.497 255 170 0
0.023372 -17.776089 0.417 255 170 0
0.020665 -17.779198 0.521 255 170 0
0.023389 -17.773853 0.6 255 170 0
0.033797 -17.757832 0.456 255 170 0
-0.036907 -17.881176 0.568 255 170 0
-0.018781 -17.850008 0.499 255 170 0
-0.090392 -17.975134 0.598 255 170 0
-0.004253 -17.821495 0.569 255 170 0
0.021522 -17.784124 0.225 255 170 0
0.053268 -17.726227 0.287 255 170 0
0.045584 -17.7369 0.406 255 170 0
0.032015 -17.756924 0.682 255 170 0
-0.040068 -17.885178 0.592 255 170 0
0.042423 -17.740902 0.557 255 170 0
-0.024649 -17.857119 0.639 255 170 0
0.01024 -17.797455 0.584 255 170 0
0.049182 -17.734245 0.228 255 170 0
-0.068164 -17.933712 0.629 255 170 0
0.065962 -17.703514 0.264 255 170 0
-0.011046 -17.832624 0.657 255 170 0
-0.012913 -17.842897 0.33 255 170 0
-0.033729 -17.874939 0.574 255 170 0
0.017958 -17.782309 0.653 255 170 0
0.003902 -17.807693 0.555 255 170 0
0.035176 -17.752922 0.558 255 170 0
-0.05051 -17.90567 0.528 255 170 0
-0.005162 -17.823278 0.569 255 170 0
0.041078 -17.741339 0.618 255 170 0
0.05325 -17.728462 0.167 255 170 0
0.038337 -17.74892 0.479 255 170 0
-0.11849 -18.02367 0.631 255 170 0
0.049182 -17.734245 0.251 255 170 0
0.005718 -17.804131 0.585 255 170 0
-0.023775 -17.859808 0.439 255 170 0
-0.022884 -17.860264 0.371 255 170 0
0.011132 -17.797909 0.434 255 170 0
0.00254 -17.810368 0.616 255 170 0
0.044676 -17.738684 0.438 255 170 0
-0.107156 -18.00363 0.597 255 170 0
0.073663 -17.690603 0.222 255 170 0
-0.06998 -17.937275 0.612 255 170 0
-0.049148 -17.902998 0.496 255 170 0
0.045567 -17.739138 0.327 255 170 0
-0.00607 -17.82506 0.612 255 170 0
-0.026482 -17.862919 0.562 255 170 0
-0.073611 -17.944403 0.592 255 170 0
-0.01789 -17.850462 0.352 255 170 0
0.047383 -17.735573 0.315 255 170 0
0.029118 -17.608421 0.421 255 170 0
0.049368 -17.709648 0.485 255 170 0
0.082828 -17.661602 0.094 255 170 0
0.072068 -17.665098 0.191 255 170 0
0.066455 -17.63867 0.182 255 170 0
0.068924 -17.666864 0.217 255 170 0
0.075127 -17.674513 0.186 255 170 0
0.072119 -17.658392 0.17 255 170 0
0.060718 -17.687374 0.337 255 170 0
0.05608 -17.650219 0.291 255 170 0
0.04675 -17.642097 0.356 255 170 0
0.047523 -17.658203 0.381 255 170 0
0.077482 -17.658878 0.128 255 170 0
0.062301 -17.655632 0.25 255 170 0
0.065865 -17.657448 0.225 255 170 0
0.043284 -17.686348 0.481 255 170 0
0.042626 -17.714069 0.554 255 170 0
0.057392 -17.654255 0.292 255 170 0
0.062352 -17.648924 0.241 255 170 0
0.036025 -17.641123 0.436 255 170 0
0.03745 -17.688986 0.54 255 170 0
0.060921 -17.660542 0.279 255 170 0
0.037582 -17.730579 0.632 255 170 0
0.072658 -17.646318 0.143 255 170 0
0.055711 -17.639931 0.275 255 170 0
0.068152 -17.650759 0.191 255 170 0
0.084088 -17.672346 0.105 255 170 0
0.04989 -17.699814 0.462 255 170 0
0.042088 -17.726141 0.583 255 170 0
0.056132 -17.643511 0.279 255 170 0
0.0525 -17.650639 0.32 255 170 0
0.062852 -17.700808 0.353 255 170 0
0.044828 -17.718559 0.541 255 170 0
0.076455 -17.676313 0.177 255 170 0
0.066888 -17.699495 0.311 255 170 0
0.046314 -17.640753 0.352 255 170 0
0.070893 -17.643175 0.148 255 170 0
0.061007 -17.649363 0.254 255 170 0
0.043318 -17.681875 0.469 255 170 0
0.030729 -17.631689 0.469 255 170 0
0.053306 -17.662273 0.348 255 170 0
0.038625 -17.710909 0.579 255 170 0
0.088611 -17.66567 0.053 255 170 0
0.050013 -17.62468 0.286 255 170 0
0.056077 -17.7097 0.428 255 170 0
0.056768 -17.677505 0.351 255 170 0
0.03896 -17.72567 0.613 255 170 0
0.039415 -17.724779 0.609 255 170 0
0.046428 -17.684582 0.45 255 170 0
0.038171 -17.7118 0.584 255 170 0
0.03409 -17.660339 0.505 255 170 0
0.059242 -17.646217 0.259 255 170 0
0.048227 -17.683254 0.433 255 170 0
0.060633 -17.698553 0.364 255 170 0
0.039368 -17.672005 0.482 255 170 0
0.044273 -17.732866 0.583 255 170 0
0.03342 -17.630817 0.44 255 170 0
0.036105 -17.689423 0.551 255 170 0
0.062704 -17.661449 0.26 255 170 0
0.053625 -17.67927 0.385 255 170 0
0.036321 -17.719837 0.621 255 170 0
0.054833 -17.69672 0.407 255 170 0
0.068101 -17.657465 0.206 255 170 0
0.04939 -17.647932 0.344 255 170 0
0.041151 -17.672915 0.47 255 170 0
0.052046 -17.651531 0.327 255 170 0
0.039809 -17.613869 0.35 255 170 0
0.048618 -17.631826 0.311 255 170 0
0.031319 -17.612911 0.413 255 170 0
0.039971 -17.710472 0.573 255 170 0
0.047421 -17.671619 0.41 255 170 0
0.063981 -17.669956 0.271 255 170 0
0.03305 -17.620527 0.42 255 170 0
0.034646 -17.64603 0.467 255 170 0
0.044947 -17.702908 0.508 255 170 0
0.050514 -17.676563 0.396 255 170 0
0.051456 -17.670309 0.38 255 170 0
0.067545 -17.671772 0.246 255 170 0
0.061609 -17.687828 0.336 255 170 0
0.038074 -17.665735 0.482 255 170 0
0.070673 -17.672243 0.216 255 170 0
0.033402 -17.633053 0.447 255 170 0
0.063913 -17.6789 0.295 255 170 0
0.038825 -17.743559 0.656 255 170 0
0.043352 -17.677402 0.464 255 170 0
0.054299 -17.649311 0.305 255 170 0
0.045321 -17.653715 0.386 255 170 0
0.031654 -17.627672 0.45 255 170 0
0.044006 -17.709162 0.531 255 170 0
0.049271 -17.663584 0.384 255 170 0
0.047727 -17.631372 0.323 255 170 0
0.043989 -17.711397 0.538 255 170 0
0.08814 -17.668798 0.067 255 170 0
0.037263 -17.713581 0.598 255 170 0
0.069781 -17.671789 0.227 255 170 0
0.064214 -17.698133 0.33 255 170 0
0.053675 -17.672562 0.364 255 170 0
0.041973 -17.682312 0.481 255 170 0
0.063323 -17.69768 0.337 255 170 0
0.042881 -17.680531 0.471 255 170 0
0.054231 -17.658255 0.324 255 170 0
0.078844 -17.656206 0.113 255 170 0
0.054731 -17.710136 0.441 255 170 0
0.050382 -17.63497 0.309 255 170 0
0.057761 -17.664543 0.308 255 170 0
0.045559 -17.622412 0.317 255 170 0
0.068369 -17.681171 0.254 255 170 0
0.076388 -17.685257 0.202 255 170 0
0.039856 -17.666643 0.47 255 170 0
0.047171 -17.645679 0.355 255 170 0
0.033517 -17.676882 0.55 255 170 0
0.04673 -17.703815 0.496 255 170 0
0.068554 -17.656574 0.197 255 170 0
0.079298 -17.655315 0.11 255 170 0
0.054027 -17.685087 0.39 255 170 0
0.043606 -17.643864 0.38 255 170 0
0.050611 -17.722628 0.511 255 170 0
0.038091 -17.6635 0.476 255 170 0
0.033954 -17.678226 0.544 255 170 0
0.058788 -17.647108 0.261 255 170 0
0.048244 -17.681019 0.427 255 170 0
0.05729 -17.667669 0.321 255 170 0
0.053641 -17.677034 0.374 255 170 0
0.061325 -17.666359 0.281 255 170 0
0.05875 -17.711061 0.41 255 170 0
0.050888 -17.627371 0.285 255 170 0
0.076977 -17.666477 0.153 255 170 0
0.053052 -17.695812 0.425 255 170 0
0.052717 -17.681051 0.388 255 170 0
0.049283 -17.720829 0.513 255 170 0
0.052933 -17.711466 0.466 255 170 0
0.070824 -17.652119 0.17 255 170 0
0.076137 -17.659315 0.139 255 170 0
0.041655 -17.665316 0.451 255 170 0
0.074571 -17.688822 0.223 255 170 0
0.033619 -17.663465 0.516 255 170 0
0.053272 -17.666744 0.349 255 170 0
0.06477 -17.683826 0.298 255 170 0
0.032698 -17.608002 0.391 255 170 0
0.03989 -17.66217 0.46 255 170 0
0.045842 -17.643879 0.364 255 170 0
0.040395 -17.654572 0.44 255 170 0
0.072925 -17.670025 0.191 255 170 0
0.034361 -17.624561 0.413 255 170 0
0.037976 -17.619671 0.372 255 170 0
0.06531 -17.671755 0.263 255 170 0
0.081012 -17.665167 0.114 255 170 0
0.066001 -17.639561 0.186 255 170 0
0.07264 -17.648556 0.149 255 170 0
0.072908 -17.67226 0.2 255 170 0
0.047939 -17.721266 0.528 255 170 0
0.05006 -17.677454 0.405 255 170 0
0.046683 -17.651043 0.37 255 170 0
0.065797 -17.666393 0.245 255 170 0
0.059896 -17.677977 0.324 255 170 0
0.054027 -17.685087 0.384 255 170 0
0.072221 -17.644974 0.145 255 170 0
0.053369 -17.712811 0.461 255 170 0
0.056535 -17.649328 0.285 255 170 0
0.062852 -17.700808 0.357 255 170 0
0.038884 -17.617887 0.363 255 170 0
0.035634 -17.692551 0.562 255 170 0
0.047438 -17.669384 0.414 255 170 0
0.050094 -17.672981 0.393 255 170 0
0.067948 -17.677589 0.252 255 170 0
0.03409 -17.660339 0.501 255 170 0
0.035741 -17.619652 0.389 255 170 0
0.067863 -17.688768 0.284 255 170 0
0.071932 -17.682987 0.235 255 170 0
0.053369 -17.712811 0.46 255 170 0
0.060752 -17.682901 0.332 255 170 0
0.040361 -17.659044 0.448 255 170 0
0.041163 -17.73016 0.6 255 170 0
0.036428 -17.646938 0.445 255 170 0
0.036207 -17.676006 0.524 255 170 0
0.038511 -17.66708 0.48 255 170 0
0.043755 -17.68322 0.471 255 170 0
0.08049 -17.675001 0.143 255 170 0
0.059258 -17.643982 0.249 255 170 0
0.037586 -17.671097 0.493 255 170 0
0.038663 -17.646955 0.433 255 170 0
0.044006 -17.709162 0.527 255 170 0
0.057859 -17.710608 0.412 255 170 0
0.081869 -17.670092 0.118 255 170 0
0.074236 -17.674059 0.194 255 170 0
0.061172 -17.686483 0.332 255 170 0
0.05211 -17.702066 0.446 255 170 0
0.048779 -17.728428 0.529 255 170 0
0.040513 -17.63892 0.4 255 170 0
0.040428 -17.650101 0.422 255 170 0
0.036508 -17.69524 0.564 255 170 0
0.052198 -17.631405 0.285 255 170 0
0.036202 -17.735489 0.658 255 170 0
0.03342 -17.630817 0.439 255 170 0
0.054345 -17.702084 0.428 255 170 0
0.044192 -17.684565 0.473 255 170 0
0.06645 -17.698151 0.317 255 170 0
0.077749 -17.682585 0.187 255 170 0
0.037162 -17.726997 0.633 255 170 0
0.05191 -17.669418 0.377 255 170 0
0.035117 -17.642904 0.453 255 170 0
0.046577 -17.72394 0.543 255 170 0
0.073697 -17.686131 0.222 255 170 0
0.039317 -17.678715 0.501 255 170 0
0.039499 -17.7136 0.58 255 170 0
0.064503 -17.660122 0.243 255 170 0
0.043098 -17.710943 0.541 255 170 0
0.057994 -17.69272 0.373 255 170 0
0.059186 -17.712406 0.41 255 170 0
0.061711 -17.674412 0.303 255 170 0
0.054833 -17.69672 0.411 255 170 0
0.049267 -17.723064 0.52 255 170 0
0.039809 -17.613869 0.349 255 170 0
0.033334 -17.641996 0.468 255 170 0
0.035184 -17.633961 0.436 255 170 0
0.043484 -17.718996 0.561 255 170 0
0.082862 -17.657131 0.08 255 170 0
0.061779 -17.665468 0.277 255 170 0
0.040684 -17.61656 0.343 255 170 0
0.03644 -17.704184 0.587 255 170 0
0.068788 -17.684752 0.269 255 170 0
0.03972 -17.684532 0.505 255 170 0
0.038613 -17.653664 0.454 255 170 0
0.047973 -17.716795 0.517 255 170 0
0.048231 -17.623772 0.296 255 170 0
0.07486 -17.650808 0.133 255 170 0
0.049793 -17.653749 0.356 255 170 0
0.04221 -17.651009 0.414 255 170 0
0.034341 -17.686279 0.559 255 170 0
0.043237 -17.633574 0.363 255 170 0
0.035011 -17.715801 0.622 255 170 0
0.029957 -17.615583 0.433 255 170 0
0.06104 -17.64489 0.236 255 170 0
0.038277 -17.638903 0.421 255 170 0
0.037582 -17.730579 0.635 255 170 0
0.075984 -17.67944 0.191 255 170 0
0.03221 -17.613365 0.412 255 170 0
0.071898 -17.687458 0.243 255 170 0
0.064469 -17.664593 0.256 255 170 0
0.061546 -17.637291 0.219 255 170 0
0.062348 -17.708406 0.373 255 170 0
0.043255 -17.631338 0.361 255 170 0
0.049101 -17.685944 0.434 255 170 0
0.045053 -17.630009 0.338 255 170 0
0.060196 -17.697208 0.367 255 170 0
0.036321 -17.719837 0.625 255 170 0
0.039016 -17.659481 0.456 255 170 0
0.068907 -17.6691 0.227 255 170 0
0.047573 -17.651497 0.363 255 170 0
0.031671 -17.625435 0.437 255 170 0
0.045826 -17.646116 0.372 255 170 0
0.031116 -17.639744 0.481 255 170 0
0.03246 -17.639305 0.47 255 170 0
0.065712 -17.677572 0.273 255 170 0
0.044039 -17.704689 0.524 255 170 0
0.034849 -17.619198 0.401 255 170 0
0.044226 -17.680094 0.463 255 170 0
0.072908 -17.67226 0.203 255 170 0
0.03597 -17.707312 0.597 255 170 0
0.038456 -17.733269 0.638 255 170 0
0.075598 -17.671387 0.18 255 170 0
0.048244 -17.681019 0.426 255 170 0
0.041082 -17.681858 0.493 255 170 0
0.036127 -17.627707 0.409 255 170 0
0.042376 -17.688129 0.494 255 170 0
0.069628 -17.691914 0.275 255 170 0
0.069395 -17.663736 0.206 255 170 0
0.043267 -17.688583 0.487 255 170 0
0.037951 -17.740868 0.658 255 170 0
0.035787 -17.672426 0.518 255 170 0
0.03389 -17.627689 0.425 255 170 0
0.066671 -17.669083 0.248 255 170 0
0.050213 -17.65733 0.361 255 170 0
0.037887 -17.690331 0.538 255 170 0
0.053021 -17.640804 0.293 255 170 0
0.035184 -17.633961 0.428 255 170 0
0.037637 -17.664391 0.478 255 170 0
0.043454 -17.663986 0.426 255 170 0
0.04199 -17.680077 0.478 255 170 0
0.040356 -17.718525 0.585 255 170 0
0.063056 -17.673975 0.287 255 170 0
0.037018 -17.62816 0.402 255 170 0
0.055525 -17.664526 0.335 255 170 0
0.048868 -17.657768 0.369 255 170 0
0.04488 -17.711851 0.528 255 170 0
0.078758 -17.667385 0.142 255 170 0
0.065797 -17.666393 0.245 255 170 0
0.052216 -17.629169 0.28 255 170 0
0.045015 -17.693962 0.486 255 170 0
0.067715 -17.649412 0.19 255 170 0
0.043335 -17.679638 0.468 255 170 0
0.046467 -17.620628 0.302 255 170 0
0.031183 -17.630798 0.459 255 170 0
0.039304 -17.621469 0.367 255 170 0
0.030797 -17.622746 0.448 255 170 0
0.051218 -17.701612 0.45 255 170 0
0.080002 -17.680365 0.163 255 170 0
0.038812 -17.686314 0.526 255 170 0
0.056059 -17.711935 0.433 255 170 0
0.045215 -17.726612 0.566 255 170 0
0.040709 -17.73105 0.606 255 170 0
0.033487 -17.621872 0.419 255 170 0
0.037234 -17.658573 0.474 255 170 0
0.060264 -17.688265 0.345 255 170 0
0.076523 -17.667368 0.154 255 170 0
0.072959 -17.665552 0.184 255 170 0
0.048465 -17.651951 0.361 255 170 0
0.040933 -17.642502 0.402 255 170 0
0.052546 -17.703411 0.445 255 170 0
0.051537 -17.718611 0.494 255 170 0
0.055491 -17.668999 0.338 255 170 0
0.066467 -17.695915 0.307 255 170 0
0.068924 -17.666864 0.225 255 170 0
0.075666 -17.662443 0.151 255 170 0
0.062216 -17.666813 0.28 255 170 0
0.049924 -17.695343 0.448 255 170 0
0.041235 -17.661734 0.448 255 170 0
0.052216 -17.629169 0.275 255 170 0
0.054664 -17.71908 0.464 255 170 0
0.046649 -17.655514 0.381 255 170 0
0.066841 -17.646723 0.194 255 170 0
0.034764 -17.630379 0.421 255 170 0
0.056178 -17.696283 0.393 255 170 0
0.038125 -17.659027 0.464 255 170 0
0.052194 -17.690887 0.423 255 170 0
0.051638 -17.705194 0.455 255 170 0
0.052007 -17.715483 0.475 255 170 0
0.073498 -17.653482 0.153 255 170 0
0.062869 -17.69857 0.347 255 170 0
0.05704 -17.641729 0.266 255 170 0
0.039733 -17.741776 0.642 255 170 0
0.036665 -17.615635 0.372 255 170 0
0.035413 -17.721619 0.63 255 170 0
0.036525 -17.693005 0.56 255 170 0
0.035482 -17.712673 0.612 255 170 0
0.065106 -17.698587 0.329 255 170 0
0.036177 -17.620998 0.39 255 170 0
0.043416 -17.72794 0.581 255 170 0
0.035253 -17.625015 0.409 255 170 0
0.06541 -17.65834 0.232 255 170 0
0.055627 -17.65111 0.299 255 170 0
0.037739 -17.650974 0.45 255 170 0
0.052686 -17.626043 0.269 255 170 0
0.062114 -17.680229 0.31 255 170 0
0.039822 -17.671116 0.482 255 170 0
0.06057 -17.648016 0.249 255 170 0
0.071109 -17.67359 0.222 255 170 0
0.037755 -17.648739 0.444 255 170 0
0.064317 -17.684717 0.299 255 170 0
0.075025 -17.687929 0.219 255 170 0
0.043887 -17.724813 0.568 255 170 0
0.048393 -17.720375 0.521 255 170 0
0.06889 -17.671335 0.231 255 170 0
0.056416 -17.66498 0.323 255 170 0
0.05211 -17.702066 0.445 255 170 0
0.05082 -17.636314 0.303 255 170 0
0.080053 -17.673656 0.144 255 170 0
0.042932 -17.673822 0.458 255 170 0
0.046593 -17.721703 0.537 255 170 0
0.057001 -17.705681 0.409 255 170 0
0.077295 -17.683474 0.186 255 170 0
0.047807 -17.679672 0.429 255 170 0
0.060094 -17.710625 0.399 255 170 0
0.032626 -17.676426 0.55 255 170 0
0.032597 -17.621418 0.427 255 170 0
0.047103 -17.654623 0.376 255 170 0
0.039322 -17.619232 0.368 255 170 0
0.052852 -17.663164 0.349 255 170 0
0.047319 -17.685036 0.45 255 170 0
0.029134 -17.606186 0.414 255 170 0
0.059186 -17.712406 0.411 255 170 0
0.050599 -17.665382 0.376 255 170 0
0.075042 -17.685694 0.217 255 170 0
0.069026 -17.653448 0.19 255 170 0
0.040662 -17.678276 0.488 255 170 0
0.03577 -17.674662 0.52 255 170 0
0.085955 -17.662073 0.067 255 170 0
0.070808 -17.654356 0.176 255 170 0
0.077868 -17.666931 0.148 255 170 0
0.06595 -17.646269 0.203 255 170 0
0.045151 -17.676075 0.444 255 170 0
0.033959 -17.618744 0.405 255 170 0
0.078691 -17.676329 0.159 255 170 0
0.051744 -17.632298 0.285 255 170 0
-0.136615 -17.819149 0.673 255 170 0
-0.329891 -17.887896 0.654 255 170 0
-0.185145 -17.96726 0.657 255 170 0
-0.144018 -17.910774 0.665 255 170 0
-0.344822 -17.910591 0.651 255 170 0
-0.261267 -17.920618 0.656 255 170 0
-0.161919 -17.853394 0.669 255 170 0
-0.347206 -17.871218 0.654 255 170 0
-0.228571 -17.973192 0.654 255 170 0
-0.240735 -17.867105 0.662 255 170 0
-0.280211 -17.882908 0.658 255 170 0
-0.187661 -17.886292 0.664 255 170 0
-0.151804 -17.934866 0.662 255 170 0
-0.395207 -17.890532 0.649 255 170 0
-0.199817 -17.896935 0.662 255 170 0
-0.329 -17.88835 0.654 255 170 0
-0.14387 -17.950132 0.662 255 170 0
-0.150578 -17.950081 0.661 255 170 0
-0.268747 -17.904461 0.657 255 170 0
-0.180601 -17.89887 0.663 255 170 0
-0.281352 -17.856512 0.66 255 170 0
-0.155992 -17.956301 0.66 255 170 0
-0.359396 -17.886332 0.652 255 170 0
-0.352166 -17.876547 0.653 255 170 0
-0.314608 -17.877728 0.656 255 170 0
-0.140022 -17.973415 0.66 255 170 0
-0.222079 -17.942829 0.657 255 170 0
-0.144498 -18.032864 0.654 255 170 0
-0.269939 -17.884775 0.658 255 170 0
-0.174826 -18.0219 0.653 255 170 0
-0.219088 -17.961189 0.655 255 170 0
-0.272226 -17.891466 0.658 255 170 0
-0.332433 -17.928127 0.65 255 170 0
-0.247545 -17.880472 0.66 255 170 0
-0.372273 -17.874157 0.652 255 170 0
-0.14367 -17.98278 0.659 255 170 0
-0.339289 -17.88872 0.653 255 170 0
-0.164312 -17.932981 0.662 255 170 0
-0.297582 -17.932419 0.652 255 170 0
-0.143323 -17.819099 0.673 255 170 0
-0.163405 -17.9312 0.662 255 170 0
-0.192392 -17.97928 0.656 255 170 0
-0.345527 -17.885542 0.653 255 170 0
-0.175946 -17.933788 0.661 255 170 0
-0.151261 -17.863314 0.668 255 170 0
-0.178742 -18.007559 0.654 255 170 0
-0.176473 -18.003103 0.655 255 170 0
-0.158144 -17.945105 0.661 255 170 0
-0.173528 -17.968691 0.658 255 170 0
-0.172132 -17.961546 0.659 255 170 0
-0.148329 -18.007343 0.656 255 170 0
-0.147082 -17.96084 0.66 255 170 0
-0.139882 -17.896048 0.666 255 170 0
-0.253167 -17.973005 0.652 255 170 0
-0.304184 -17.85947 0.658 255 170 0
-0.319772 -17.909887 0.653 255 170 0
-0.273401 -17.869541 0.659 255 170 0
-0.228999 -17.852884 0.664 255 170 0
-0.147145 -17.910303 0.665 255 170 0
-0.342552 -17.906137 0.651 255 170 0
-0.296084 -17.911856 0.654 255 170 0
-0.151491 -18.011345 0.656 255 170 0
-0.17834 -18.013376 0.654 255 170 0
-0.169624 -17.925785 0.662 255 170 0
-0.189566 -17.960518 0.657 255 170 0
-0.394684 -17.880695 0.65 255 170 0
-0.246489 -17.918047 0.657 255 170 0
-0.233438 -17.848379 0.664 255 170 0
-0.140175 -17.993542 0.658 255 170 0
-0.276787 -17.962091 0.651 255 170 0
-0.258016 -17.845955 0.662 255 170 0
-0.147935 -17.896435 0.666 255 170 0
-0.141422 -18.040043 0.654 255 170 0
-0.221803 -17.847572 0.665 255 170 0
-0.143276 -17.871872 0.668 255 170 0
-0.1724 -17.937841 0.661 255 170 0
-0.169319 -17.885538 0.665 255 170 0
-0.208205 -17.882559 0.663 255 170 0
-0.182969 -17.85726 0.667 255 170 0
-0.192404 -17.922035 0.66 255 170 0
-0.134655 -17.914423 0.665 255 170 0
-0.173803 -17.828259 0.67 255 170 0
-0.166145 -17.938782 0.661 255 170 0
-0.23132 -17.864046 0.663 255 170 0
-0.286346 -17.866312 0.659 255 170 0
-0.337809 -17.870396 0.655 255 170 0
-0.255738 -17.958227 0.653 255 170 0
-0.239742 -17.854145 0.663 255 170 0
-0.278327 -17.870399 0.659 255 170 0
-0.194157 -17.976135 0.656 255 170 0
-0.366019 -17.875101 0.652 255 170 0
-0.207454 -17.960382 0.656 255 170 0
-0.209533 -17.88076 0.663 255 170 0
-0.333795 -17.930801 0.65 255 170 0
-0.178713 -17.82688 0.67 255 170 0
-0.393458 -17.895912 0.649 255 170 0
-0.247108 -17.881817 0.66 255 170 0
-0.157643 -17.996986 0.657 255 170 0
-0.308002 -17.891193 0.655 255 170 0
-0.156891 -17.839121 0.67 255 170 0
-0.186757 -17.943993 0.659 255 170 0
-0.359901 -17.89393 0.651 255 170 0
-0.165428 -18.021076 0.654 255 170 0
-0.316038 -17.889343 0.655 255 170 0
-0.263113 -17.869173 0.66 255 170 0
-0.248088 -17.952024 0.654 255 170 0
-0.213322 -17.967495 0.655 255 170 0
-0.156769 -17.999676 0.656 255 170 0
-0.216887 -17.965677 0.655 255 170 0
-0.194386 -17.888479 0.663 255 170 0
-0.225053 -17.922234 0.658 255 170 0
-0.166752 -17.959797 0.659 255 170 0
-0.139403 -18.009647 0.657 255 170 0
-0.134289 -17.984192 0.659 255 170 0
-0.261703 -17.919271 0.656 255 170 0
-0.20022 -17.891117 0.663 255 170 0
-0.23264 -17.978975 0.653 255 170 0
-0.204293 -17.956381 0.657 255 170 0
-0.21482 -17.988054 0.653 255 170 0
-0.244906 -17.886307 0.66 255 170 0
-0.302974 -17.876921 0.657 255 170 0
-0.278395 -17.879343 0.658 255 170 0
-0.277317 -17.855202 0.66 255 170 0
-0.397022 -17.894096 0.649 255 170 0
-0.159641 -17.965664 0.659 255 170 0
-0.15222 -17.871803 0.668 255 170 0
-0.136708 -17.949291 0.662 255 170 0
-0.158669 -18.01442 0.655 255 170 0
-0.135113 -17.974794 0.66 255 170 0
-0.318648 -17.938519 0.65 255 170 0
-0.263282 -17.891533 0.658 255 170 0
-0.305834 -17.900154 0.654 255 170 0
-0.242687 -17.888559 0.66 255 170 0
-0.165692 -17.937891 0.661 255 170 0
-0.158661 -17.895458 0.665 255 170 0
-0.184751 -17.856352 0.667 255 170 0
-0.218846 -17.870403 0.663 255 170 0
-0.247753 -17.966785 0.653 255 170 0
-0.146713 -17.97113 0.66 255 170 0
-0.133156 -17.893862 0.667 255 170 0
-0.21081 -17.872253 0.663 255 170 0
-0.277644 -17.957165 0.652 255 170 0
-0.259808 -17.96401 0.652 255 170 0
-0.249064 -17.962749 0.653 255 170 0
-0.142092 -18.010521 0.656 255 170 0
-0.302626 -17.948925 0.651 255 170 0
-0.319721 -17.903179 0.653 255 170 0
-0.182969 -17.85726 0.667 255 170 0
-0.138498 -17.831657 0.672 255 170 0
-0.178119 -17.984308 0.656 255 170 0
-0.36355 -17.903294 0.65 255 170 0
-0.142674 -17.910337 0.665 255 170 0
-0.207955 -17.908501 0.661 255 170 0
-0.204714 -17.952801 0.657 255 170 0
-0.280466 -17.916447 0.655 255 170 0
-0.149258 -17.835154 0.671 255 170 0
-0.151996 -18.018944 0.655 255 170 0
-0.367869 -17.883137 0.652 255 170 0
-0.277118 -17.88785 0.658 255 170 0
-0.327995 -17.932634 0.65 255 170 0
-0.340617 -17.886919 0.653 255 170 0
-0.1367 -17.83033 0.672 255 170 0
-0.344652 -17.888231 0.653 255 170 0
-0.210076 -17.952312 0.657 255 170 0
-0.343545 -17.919098 0.65 255 170 0
-0.317638 -17.923321 0.652 255 170 0
-0.307366 -17.925188 0.652 255 170 0
-0.314052 -17.863419 0.657 255 170 0
-0.203869 -17.90048 0.662 255 170 0
-0.282099 -17.954895 0.651 255 170 0
-0.202655 -17.85845 0.665 255 170 0
-0.257032 -17.951956 0.653 255 170 0
-0.206372 -17.876759 0.663 255 170 0
-0.228902 -17.898949 0.66 255 170 0
-0.189222 -17.856318 0.666 255 170 0
-0.21409 -17.891907 0.662 255 170 0
-0.228096 -17.910583 0.659 255 170 0
-0.249264 -17.930101 0.656 255 170 0
-0.367869 -17.883137 0.652 255 170 0
-0.315062 -17.878618 0.656 255 170 0
-0.29664 -17.926163 0.653 255 170 0
-0.305346 -17.894791 0.655 255 170 0
-0.210313 -17.983616 0.654 255 170 0
-0.174584 -17.931114 0.661 255 170 0
-0.2842 -17.936991 0.653 255 170 0
-0.13392 -17.994482 0.658 255 170 0
-0.186757 -17.943993 0.659 255 170 0
-0.17063 -17.881502 0.666 255 170 0
-0.341559 -17.893175 0.652 255 170 0
-0.262879 -17.89735 0.658 255 170 0
-0.192964 -17.995823 0.654 255 170 0
-0.232563 -17.851068 0.664 255 170 0
-0.186392 -18.013762 0.653 255 170 0
-0.267567 -17.866903 0.66 255 170 0
-0.152861 -17.897291 0.665 255 170 0
-0.37994 -17.882599 0.651 255 170 0
-0.151897 -17.829319 0.671 255 170 0
-0.16281 -17.85294 0.669 255 170 0
-0.270113 -17.966616 0.651 255 170 0
-0.242878 -17.972635 0.653 255 170 0
-0.298774 -17.912731 0.654 255 170 0
-0.184126 -17.833099 0.669 255 170 0
-0.337325 -17.924513 0.65 255 170 0
-0.180541 -18.008888 0.654 255 170 0
-0.143332 -17.938061 0.663 255 170 0
-0.202893 -17.889755 0.663 255 170 0
-0.219266 -17.866821 0.663 255 170 0
-0.149788 -17.963951 0.66 255 170 0
-0.194182 -17.861647 0.666 255 170 0
-0.267215 -17.879429 0.659 255 170 0
-0.356587 -17.869804 0.653 255 170 0
-0.138091 -18.013683 0.656 255 170 0
-0.165946 -17.97143 0.658 255 170 0
-0.162144 -17.941942 0.661 255 170 0
-0.146704 -17.852167 0.67 255 170 0
-0.189103 -17.840666 0.668 255 170 0
-0.180329 -17.863092 0.666 255 170 0
-0.167779 -17.97723 0.658 255 170 0
-0.350185 -17.910105 0.65 255 170 0
-0.305613 -17.871086 0.657 255 170 0
-0.171232 -17.843037 0.669 255 170 0
-0.195612 -17.873262 0.665 255 170 0
-0.224099 -17.973225 0.654 255 170 0
-0.272044 -17.92635 0.655 255 170 0
-0.157358 -18.018454 0.655 255 170 0
-0.201175 -17.840126 0.667 255 170 0
-0.191289 -17.833941 0.668 255 170 0
-0.298888 -17.8689 0.658 255 170 0
-0.298383 -17.861301 0.658 255 170 0
-0.223755 -17.869024 0.663 255 170 0
-0.235529 -17.947199 0.655 255 170 0
-0.137366 -17.977015 0.66 255 170 0
-0.213521 -17.934845 0.658 255 170 0
-0.244172 -17.966364 0.653 255 170 0
-0.175293 -17.965546 0.658 255 170 0
-0.344487 -17.925352 0.65 255 170 0
-0.388885 -17.88253 0.65 255 170 0
-0.195811 -17.840614 0.667 255 170 0
-0.158886 -17.984007 0.657 255 170 0
-0.178429 -17.848349 0.668 255 170 0
-0.161987 -17.862337 0.668 255 170 0
-0.149551 -17.932646 0.663 255 170 0
-0.238249 -17.893064 0.66 255 170 0
-0.218256 -17.851624 0.665 255 170 0
-0.141142 -17.885303 0.667 255 170 0
-0.201637 -17.95998 0.657 255 170 0
-0.303212 -17.908224 0.654 255 170 0
-0.195956 -17.977465 0.655 255 170 0
-0.213996 -17.997452 0.653 255 170 0
-0.224417 -17.956228 0.655 255 170 0
-0.259497 -17.864281 0.661 255 170 0
-0.202766 -17.990829 0.654 255 170 0
-0.258793 -17.88933 0.659 255 170 0
-0.167804 -17.86274 0.667 255 170 0
-0.219809 -17.938375 0.657 255 170 0
-0.323081 -17.874531 0.655 255 170 0
-0.193559 -17.838396 0.668 255 170 0
-0.315266 -17.905449 0.653 255 170 0
-0.152479 -17.964825 0.66 255 170 0
-0.292134 -17.921724 0.654 255 170 0
-0.205438 -17.989468 0.654 255 170 0
-0.303275 -17.857687 0.658 255 170 0
-0.139819 -17.946585 0.662 255 170 0
-0.208935 -17.978708 0.655 255 170 0
-0.156272 -17.875351 0.667 255 170 0
-0.20476 -17.900026 0.662 255 170 0
-0.249468 -17.956934 0.654 255 170 0
-0.166285 -18.016151 0.654 255 170 0
-0.147854 -17.944735 0.662 255 170 0
-0.257181 -17.912598 0.657 255 170 0
-0.258933 -17.9667 0.652 255 170 0
-0.172 -18.003138 0.655 255 170 0
-0.292601 -17.865372 0.658 255 170 0
-0.246871 -17.850513 0.663 255 170 0
-0.132703 -17.892971 0.667 255 170 0
-0.153943 -17.980913 0.658 255 170 0
-0.293428 -17.915455 0.654 255 170 0
-0.19282 -17.858973 0.666 255 170 0
-0.157202 -17.93885 0.662 255 170 0
-0.211048 -17.903557 0.661 255 170 0
-0.248254 -17.914904 0.657 255 170 0
-0.219237 -17.921833 0.659 255 170 0
-0.175442 -17.926189 0.661 255 170 0
-0.200241 -17.952835 0.657 255 170 0
-0.259705 -17.950594 0.653 255 170 0
-0.13274 -17.956924 0.662 255 170 0
-0.278412 -17.881578 0.658 255 170 0
-0.1982 -17.860722 0.665 255 170 0
-0.139241 -17.87056 0.669 255 170 0
-0.169132 -17.860943 0.667 255 170 0
-0.163167 -17.899897 0.664 255 170 0
-0.160841 -17.829252 0.671 255 170 0
-0.334516 -17.907986 0.652 255 170 0
-0.262743 -17.879461 0.659 255 170 0
-0.175068 -17.876997 0.666 255 170 0
-0.400115 -17.889153 0.649 255 170 0
-0.3079 -17.877777 0.656 255 170 0
-0.23485 -17.857759 0.663 255 170 0
-0.239594 -17.893501 0.66 255 170 0
-0.189048 -18.010164 0.653 255 170 0
-0.278731 -17.864582 0.659 255 170 0
-0.239327 -17.917206 0.658 255 170 0
-0.226216 -17.957558 0.655 255 170 0
-0.254915 -17.967625 0.652 255 170 0
-0.152895 -17.901764 0.665 255 170 0
-0.318711 -17.887981 0.655 255 170 0
-0.191373 -17.845121 0.667 255 170 0
-0.30972 -17.940823 0.651 255 170 0
-0.136522 -17.924696 0.664 255 170 0
-0.160298 -17.993387 0.657 255 170 0
-0.31177 -17.916208 0.653 255 170 0
-0.378714 -17.897812 0.65 255 170 0
-0.208896 -17.914753 0.66 255 170 0
-0.158177 -17.949577 0.661 255 170 0
-0.242839 -17.908682 0.658 255 170 0
-0.329119 -17.904001 0.652 255 170 0
-0.317939 -17.904087 0.653 255 170 0
-0.265522 -17.950996 0.653 255 170 0
-0.317519 -17.907669 0.653 255 170 0
-0.299699 -17.916748 0.653 255 170 0
-0.14362 -17.976072 0.659 255 170 0
-0.233424 -17.905622 0.659 255 170 0
-0.227603 -17.845739 0.665 255 170 0
-0.210976 -17.835133 0.667 255 170 0
-0.24755 -17.939953 0.655 255 170 0
-0.140255 -17.94524 0.662 255 170 0
-0.218617 -17.958061 0.656 255 170 0
-0.203267 -17.938948 0.658 255 170 0
-0.270291 -17.87225 0.659 255 170 0
-0.141999 -17.880379 0.668 255 170 0
-0.213182 -17.890125 0.662 255 170 0
-0.232024 -17.838997 0.665 255 170 0
-0.220132 -17.980858 0.654 255 170 0
-0.20355 -17.917477 0.66 255 170 0
-0.167049 -17.881083 0.666 255 170 0
-0.221235 -17.890511 0.661 255 170 0
-0.214951 -17.946461 0.657 255 170 0
-0.237456 -17.847454 0.664 255 170 0
-0.23533 -17.979849 0.653 255 170 0
-0.03221 -17.792662 0.679 255 170 0
-0.113576 -17.965567 0.662 255 170 0
-0.036754 -17.861052 0.673 255 170 0
-0.035926 -17.810968 0.677 255 170 0
-0.06897 -17.922077 0.667 255 170 0
-0.073739 -17.84333 0.673 255 170 0
-0.008437 -17.783449 0.68 255 170 0
-0.094882 -17.977337 0.661 255 170 0
-0.112188 -17.841696 0.672 255 170 0
-0.114267 -17.997763 0.659 255 170 0
0.019354 -17.775164 0.682 255 170 0
-0.074498 -17.884468 0.67 255 170 0
-0.045426 -17.825209 0.676 255 170 0
-0.086608 -17.947884 0.664 255 170 0
-0.03406 -17.800697 0.678 255 170 0
-0.131681 -17.935019 0.664 255 170 0
-0.122253 -17.989204 0.659 255 170 0
-0.011818 -17.816519 0.678 255 170 0
-0.069403 -17.861252 0.672 255 170 0
-0.084839 -17.891546 0.669 255 170 0
-0.121888 -17.823286 0.674 255 170 0
-0.064274 -17.833563 0.674 255 170 0
-0.008118 -17.800447 0.679 255 170 0
-0.098832 -17.967468 0.662 255 170 0
-0.0542 -17.80278 0.677 255 170 0
-0.032719 -17.859741 0.673 255 170 0
-0.017903 -17.793217 0.679 255 170 0
-0.075334 -17.817825 0.676 255 170 0
-0.13104 -17.909531 0.666 255 170 0
-0.120118 -18.002636 0.658 255 170 0
-0.019583 -17.778893 0.681 255 170 0
-0.093991 -17.977793 0.661 255 170 0
-0.127047 -18.031654 0.655 255 170 0
-0.012404 -17.775816 0.681 255 170 0
-0.077847 -17.913065 0.667 255 170 0
-0.084283 -17.877239 0.67 255 170 0
-0.106117 -17.807753 0.675 255 170 0
-0.087431 -17.938486 0.665 255 170 0
-0.122622 -17.978916 0.66 255 170 0
-0.102158 -17.934347 0.665 255 170 0
-0.035476 -17.869558 0.672 255 170 0
-0.05193 -17.798325 0.678 255 170 0
-0.13087 -17.887171 0.668 255 170 0
-0.10842 -17.816679 0.675 255 170 0
0.012714 -17.766169 0.683 255 170 0
-0.079051 -17.836134 0.674 255 170 0
-0.097966 -17.853432 0.672 255 170 0
-0.087792 -17.809235 0.676 255 170 0
-0.048842 -17.862749 0.672 255 170 0
-0.033122 -17.853924 0.674 255 170 0
-0.099638 -17.955835 0.663 255 170 0
-0.102519 -17.805098 0.676 255 170 0
-0.012307 -17.821882 0.677 255 170 0
-0.086506 -17.934465 0.665 255 170 0
-0.119393 -17.965971 0.661 255 170 0
-0.107432 -17.863199 0.671 255 170 0
-0.077558 -17.875053 0.67 255 170 0
-0.018073 -17.815577 0.677 255 170 0
-0.052737 -17.786692 0.679 255 170 0
-0.075891 -17.832132 0.674 255 170 0
-0.109587 -17.911484 0.666 255 170 0
-0.087626 -17.846355 0.673 255 170 0
-0.027237 -17.844576 0.675 255 170 0
-0.11784 -17.879221 0.669 255 170 0
-0.115769 -17.842115 0.672 255 170 0
-0.114157 -17.865385 0.67 255 170 0
-0.125855 -17.815653 0.674 255 170 0
-0.121824 -17.873823 0.669 255 170 0
-0.06328 -17.820601 0.676 255 170 0
-0.116278 -17.909197 0.666 255 170 0
-0.087677 -17.853062 0.672 255 170 0
-0.051969 -17.862278 0.672 255 170 0
-0.086986 -17.820868 0.675 255 170 0
-0.084372 -17.947901 0.664 255 170 0
-0.019502 -17.827194 0.676 255 170 0
-0.099502 -17.937946 0.664 255 170 0
-0.051714 -17.828739 0.675 255 170 0
-0.024008 -17.831633 0.676 255 170 0
0.00671 -17.791168 0.68 255 170 0
-0.119308 -17.95479 0.662 255 170 0
-0.051443 -17.792961 0.678 255 170 0
-0.112778 -17.860476 0.671 255 170 0
-0.1068 -17.956675 0.663 255 170 0
-0.087579 -17.899128 0.668 255 170 0
-0.111598 -17.822916 0.674 255 170 0
-0.109291 -17.990198 0.66 255 170 0
-0.096371 -17.878937 0.67 255 170 0
-0.116083 -18.001326 0.658 255 170 0
-0.051464 -17.854679 0.673 255 170 0
-0.124302 -17.964592 0.661 255 170 0
-0.034484 -17.856598 0.673 255 170 0
-0.062741 -17.808529 0.677 255 170 0
-0.11336 -17.995981 0.659 255 170 0
-0.071088 -17.906408 0.668 255 170 0
-0.075712 -17.926498 0.666 255 170 0
-0.130025 -17.834852 0.672 255 170 0
-0.072865 -17.84602 0.673 255 170 0
-0.050705 -17.813541 0.677 255 170 0
-0.084432 -17.837881 0.673 255 170 0
-0.040772 -17.860126 0.673 255 170 0
-0.082365 -17.860258 0.672 255 170 0
-0.068631 -17.877357 0.671 255 170 0
-0.111162 -17.824263 0.674 255 170 0
-0.108628 -17.902992 0.667 255 170 0
0.009451 -17.783585 0.681 255 170 0
-0.110376 -17.897614 0.667 255 170 0
-0.090422 -17.920126 0.666 255 170 0
-0.080082 -17.913048 0.667 255 170 0
-0.131265 -17.998081 0.658 255 170 0
-0.117802 -17.815268 0.674 255 170 0
-0.065381 -17.802696 0.677 255 170 0
-0.109762 -17.993324 0.659 255 170 0
-0.115723 -17.89489 0.668 255 170 0
-0.131256 -17.879118 0.668 255 170 0
-0.115018 -17.919939 0.665 255 170 0
-0.095399 -17.927691 0.665 255 170 0
-0.076123 -17.803955 0.677 255 170 0
-0.04109 -17.84313 0.674 255 170 0
-0.059403 -17.898895 0.669 255 170 0
0.011233 -17.784492 0.681 255 170 0
-0.113554 -17.903851 0.667 255 170 0
0.006341 -17.780878 0.681 255 170 0
-0.120348 -17.91498 0.666 255 170 0
-0.084372 -17.947901 0.664 255 170 0
-0.056089 -17.874769 0.671 255 170 0
-0.066951 -17.891682 0.669 255 170 0
-0.077889 -17.800812 0.677 255 170 0
-0.105434 -17.89452 0.668 255 170 0
-0.099612 -17.834637 0.673 255 170 0
-0.12372 -17.829086 0.673 255 170 0
-0.059008 -17.787985 0.679 255 170 0
-0.007461 -17.772724 0.681 255 170 0
-0.088433 -17.834721 0.674 255 170 0
-0.129346 -17.9811 0.66 255 170 0
-0.073001 -17.863907 0.672 255 170 0
-0.079391 -17.880854 0.67 255 170 0
-0.123648 -17.996349 0.659 255 170 0
-0.082009 -17.813303 0.676 255 170 0
-0.060862 -17.855503 0.673 255 170 0
-0.115227 -18.006252 0.658 255 170 0
-0.059084 -17.915892 0.668 255 170 0
-0.017801 -17.7798 0.68 255 170 0
-0.086065 -17.876331 0.67 255 170 0
-0.04874 -17.849333 0.674 255 170 0
-0.095484 -17.938871 0.664 255 170 0
-0.097763 -17.826599 0.674 255 170 0
-0.025655 -17.812836 0.677 255 170 0
-0.074986 -17.889832 0.669 255 170 0
-0.023754 -17.798092 0.679 255 170 0
-0.040649 -17.784994 0.679 255 170 0
-0.04336 -17.847586 0.674 255 170 0
-0.088878 -17.952337 0.663 255 170 0
-0.022799 -17.849083 0.674 255 170 0
-0.121108 -17.95612 0.662 255 170 0
-0.118226 -17.871168 0.67 255 170 0
-0.045477 -17.831917 0.675 255 170 0
-0.060361 -17.907385 0.668 255 170 0
-0.111879 -17.977655 0.661 255 170 0
-0.121595 -17.961481 0.662 255 170 0
-0.048592 -17.888691 0.67 255 170 0
-0.007631 -17.795084 0.68 255 170 0
0.025744 -17.758217 0.684 255 170 0
-0.065114 -17.826401 0.675 255 170 0
-0.090481 -17.810108 0.676 255 170 0
-0.041103 -17.785885 0.679 255 170 0
-0.044196 -17.780943 0.68 255 170 0
-0.102579 -17.930767 0.665 255 170 0
-0.108845 -17.87258 0.67 255 170 0
-0.102098 -17.808678 0.675 255 170 0
-0.043509 -17.808228 0.677 255 170 0
-0.075543 -17.904139 0.668 255 170 0
-0.108679 -17.9097 0.667 255 170 0
-0.097958 -17.970158 0.662 255 170 0
-0.041124 -17.847601 0.674 255 170 0
-0.081423 -17.854004 0.672 255 170 0
-0.086133 -17.885275 0.669 255 170 0
-0.072233 -17.939495 0.665 255 170 0
-0.078301 -17.913956 0.667 255 170 0
-0.097232 -17.933493 0.665 255 170 0
-0.098153 -17.878029 0.67 255 170 0
-0.075797 -17.937679 0.665 255 170 0
-0.080015 -17.904104 0.668 255 170 0
-0.114586 -17.980764 0.66 255 170 0
-0.113902 -17.831844 0.673 255 170 0
-0.099371 -17.97954 0.661 255 170 0
0.002425 -17.766539 0.682 255 170 0
-0.098034 -17.862375 0.671 255 170 0
-0.008708 -17.819225 0.677 255 170 0
-0.099282 -17.908878 0.667 255 170 0
-0.062322 -17.812111 0.676 255 170 0
-0.069921 -17.811605 0.676 255 170 0
-0.014152 -17.770437 0.681 255 170 0
-0.100228 -17.974613 0.661 255 170 0
-0.09587 -17.930819 0.665 255 170 0
-0.077172 -17.883106 0.67 255 170 0
-0.106087 -17.862762 0.671 255 170 0
0.07133 -17.644522 0.145 255 170 0
0.040598 -17.627739 0.292 255 170 0
0.051711 -17.636768 0.229 255 170 0
0.040144 -17.628632 0.29 255 170 0
0.043203 -17.638046 0.247 255 170 0
0.034917 -17.610254 0.373 255 170 0
0.052097 -17.644821 0.198 255 170 0
0.058805 -17.644873 0.181 255 170 0
0.039538 -17.649647 0.218 255 170 0
0.032143 -17.622309 0.339 255 170 0
0.035973 -17.647831 0.234 255 170 0
0.081954 -17.658913 0.063 255 170 0
0.033436 -17.62858 0.312 255 170 0
0.070791 -17.656591 0.102 255 170 0
0.033085 -17.616055 0.354 255 170 0
0.054872 -17.632767 0.234 255 170 0
0.030848 -17.616037 0.363 255 170 0
0.078861 -17.653971 0.088 255 170 0
0.054383 -17.63813 0.214 255 170 0
0.043255 -17.631338 0.271 255 170 0
0.05292 -17.654221 0.162 255 170 0
0.035303 -17.618307 0.344 255 170 0
0.037068 -17.621452 0.326 255 170 0
0.067277 -17.648067 0.144 255 170 0
0.064134 -17.649832 0.146 255 170 0
0.035218 -17.629488 0.304 255 170 0
0.036144 -17.625469 0.312 255 170 0
0.076188 -17.652607 0.101 255 170 0
0.03742 -17.633976 0.281 255 170 0
0.073952 -17.65259 0.107 255 170 0
0.040178 -17.624159 0.306 255 170 0
0.056217 -17.632332 0.233 255 170 0
0.048231 -17.623772 0.286 255 170 0
0.04065 -17.621033 0.318 255 170 0
0.073986 -17.648119 0.122 255 170 0
0.063663 -17.65296 0.136 255 170 0
0.044684 -17.61972 0.308 255 170 0
0.067765 -17.642704 0.158 255 170 0
0.06289 -17.636854 0.196 255 170 0
0.037018 -17.62816 0.302 255 170 0
0.037454 -17.629505 0.297 255 170 0
0.041592 -17.614779 0.335 255 170 0
0.065428 -17.656103 0.119 255 170 0
0.040933 -17.642502 0.239 255 170 0
0.053828 -17.652439 0.168 255 170 0
0.036245 -17.612053 0.36 255 170 0
0.042682 -17.647881 0.216 255 170 0
0.036649 -17.61787 0.337 255 170 0
0.054753 -17.64842 0.177 255 170 0
0.032193 -17.615601 0.361 255 170 0
0.032545 -17.628126 0.316 255 170 0
0.03927 -17.62594 0.305 255 170 0
0.054349 -17.642603 0.202 255 170 0
0.063646 -17.655195 0.131 255 170 0
0.051205 -17.644367 0.202 255 170 0
0.049105 -17.626463 0.271 255 170 0
0.067329 -17.641359 0.167 255 170 0
0.042783 -17.634464 0.264 255 170 0
0.050349 -17.639442 0.222 255 170 0
-0.324782 -17.921925 0.325 255 170 0
-0.407612 -17.875231 0.305 255 170 0
-0.405796 -17.871668 0.227 255 170 0
-0.332314 -17.912476 0.205 255 170 0
-0.395979 -17.874426 0.161 255 170 0
-0.287025 -17.955753 0.565 255 170 0
-0.372931 -17.901882 0.471 255 170 0
-0.256311 -17.97477 0.592 255 170 0
-0.218452 -17.995182 0.579 255 170 0
-0.327019 -17.921907 0.319 255 170 0
-0.254949 -17.972097 0.538 255 170 0
-0.28874 -17.945902 0.373 255 170 0
-0.393356 -17.882496 0.302 255 170 0
-0.206852 -17.998848 0.527 255 170 0
-0.401761 -17.870356 0.154 255 170 0
-0.334634 -17.923639 0.483 255 170 0
-0.178374 -18.017849 0.585 255 170 0
-0.410336 -17.880577 0.463 255 170 0
-0.299953 -17.950287 0.606 255 170 0
-0.386598 -17.875839 0.084 255 170 0
-0.32085 -17.934029 0.507 255 170 0
-0.285175 -17.947718 0.374 255 170 0
-0.392987 -17.892784 0.511 255 170 0
-0.408923 -17.871197 0.246 255 170 0
-0.394231 -17.879807 0.253 255 170 0
-0.393373 -17.884731 0.339 255 170 0
-0.339543 -17.922258 0.504 255 170 0
-0.294068 -17.940941 0.333 255 170 0
-0.370224 -17.898771 0.374 255 170 0
-0.162806 -18.029148 0.645 255 170 0
-0.371654 -17.910389 0.642 255 170 0
-0.229161 -17.99197 0.65 255 170 0
-0.283478 -17.959806 0.612 255 170 0
-0.398316 -17.887823 0.472 255 170 0
-0.359448 -17.89304 0.13 255 170 0
-0.360422 -17.903765 0.353 255 170 0
-0.336383 -17.918259 0.374 255 170 0
-0.321337 -17.939392 0.631 255 170 0
-0.292741 -17.942741 0.348 255 170 0
-0.37061 -17.890717 0.215 255 170 0
-0.389406 -17.892365 0.458 255 170 0
-0.353681 -17.899343 0.196 255 170 0
-0.273609 -17.955854 0.415 255 170 0
-0.271895 -17.965708 0.587 255 170 0
-0.341763 -17.920006 0.456 255 170 0
-0.347966 -17.912357 0.393 255 170 0
-0.377874 -17.904974 0.583 255 170 0
-0.321287 -17.932686 0.47 255 170 0
-0.344487 -17.925352 0.613 255 170 0
-0.282536 -17.95355 0.468 255 170 0
-0.354725 -17.919014 0.613 255 170 0
-0.304324 -17.93684 0.362 255 170 0
-0.213543 -17.996561 0.559 255 170 0
-0.354237 -17.913651 0.496 255 170 0
-0.397777 -17.875753 0.22 255 170 0
-0.355934 -17.901562 0.272 255 170 0
-0.301685 -17.942673 0.448 255 170 0
-0.33867 -17.92495 0.526 255 170 0
-0.365247 -17.891207 0.161 255 170 0
-0.301214 -17.939545 0.384 255 170 0
-0.295884 -17.944504 0.432 255 170 0
-0.270113 -17.966616 0.588 255 170 0
-0.286588 -17.957098 0.591 255 170 0
-0.240744 -17.986069 0.645 255 170 0
-0.293161 -17.939159 0.298 255 170 0
-0.338165 -17.917351 0.369 255 170 0
-0.373368 -17.900536 0.451 255 170 0
-0.306106 -17.93593 0.369 255 170 0
-0.396148 -17.896786 0.633 255 170 0
-0.376983 -17.905428 0.584 255 170 0
-0.305198 -17.934149 0.323 255 170 0
-0.3093 -17.944403 0.577 255 170 0
-0.318109 -17.926449 0.31 255 170 0
-0.3093 -17.944403 0.595 255 170 0
-0.257605 -17.9685 0.473 255 170 0
-0.394366 -17.897694 0.622 255 170 0
-0.373318 -17.893829 0.314 255 170 0
-0.399157 -17.880663 0.32 255 170 0
-0.222436 -17.989784 0.525 255 170 0
-0.315923 -17.933172 0.438 255 170 0
-0.376949 -17.900957 0.493 255 170 0
-0.345696 -17.907902 0.279 255 170 0
-0.183702 -18.012888 0.554 255 170 0
-0.225108 -17.988422 0.514 255 170 0
-0.161025 -18.030056 0.64 255 170 0
-0.378612 -17.884396 0.167 255 170 0
-0.377704 -17.882614 0.115 255 170 0
-0.34573 -17.912374 0.363 255 170 0
-0.346251 -17.922209 0.577 255 170 0
-0.404519 -17.880175 0.381 255 170 0
-0.384917 -17.890162 0.362 255 170 0
-0.325356 -17.938469 0.646 255 170 0
-0.372091 -17.909042 0.61 255 170 0
-0.21129 -17.994343 0.486 255 170 0
-0.311553 -17.946623 0.65 255 170 0
-0.260715 -17.965792 0.466 255 170 0
-0.242072 -17.98427 0.63 255 170 0
-0.364038 -17.908657 0.514 255 170 0
-0.307502 -17.943077 0.532 255 170 0
-0.380462 -17.892431 0.368 255 170 0
-0.307047 -17.942184 0.522 255 170 0
-0.256697 -17.966717 0.435 255 170 0
-0.275828 -17.953602 0.385 255 170 0
-0.367988 -17.898788 0.348 255 170 0
-0.289665 -17.949919 0.472 255 170 0
-0.238054 -17.985195 0.608 255 170 0
-0.317252 -17.931374 0.414 255 170 0
-0.327995 -17.932634 0.553 255 170 0
-0.34082 -17.913752 0.351 255 170 0
