ply
format ascii 1.0
element vertex 1303
property double x
property double y
property double z
property uchar red
property uchar green
property uchar blue
element face 0
property list uchar int vertex_indices
end_header
-0.923867 -18.897249 2.088 255 127 0
-0.9788 -19.005062 2.083 255 127 0
-1.126852 -19.302237 2.096 255 127 0
-0.932493 -18.914179 2.088 255 127 0
-1.043687 -19.128004 1.938 255 127 0
-0.837575 -18.723486 2.084 255 127 0
-1.085488 -19.214449 2.017 255 127 0
-1.001937 -19.048267 2.0 255 127 0
-0.969233 -18.981878 1.982 255 127 0
-1.074609 -19.195299 2.08 255 127 0
-1.021913 -19.087471 1.979 255 127 0
-1.078695 -19.20332 2.063 255 127 0
-0.984702 -19.016645 2.065 255 127 0
-1.05507 -19.154751 2.037 255 127 0
-0.98788 -19.022882 2.049 255 127 0
-1.019676 -19.087488 2.098 255 127 0
-0.984702 -19.016645 2.086 255 127 0
-1.021475 -19.088816 2.026 255 127 0
-0.830328 -18.711466 2.101 255 127 0
-0.949257 -18.942675 1.987 255 127 0
-1.008764 -19.063868 2.06 255 127 0
-1.025057 -19.089237 1.929 255 127 0
-0.983357 -19.016207 2.094 255 127 0
-1.030572 -19.108871 2.095 255 127 0
-0.931114 -18.909269 2.06 255 127 0
-0.999247 -19.047392 2.106 255 127 0
-0.985156 -19.017536 2.064 255 127 0
-1.004644 -19.051376 1.954 255 127 0
-1.094148 -19.235849 2.103 255 127 0
-0.914316 -18.876303 2.053 255 127 0
-1.031497 -19.11289 2.109 255 127 0
-0.980599 -19.00639 2.047 255 127 0
-1.085942 -19.21534 2.009 255 127 0
-0.926574 -18.90036 2.038 255 127 0
-0.974226 -18.99168 1.969 255 127 0
-0.976496 -18.996134 1.968 255 127 0
-0.979238 -19.003717 2.014 255 127 0
-1.038744 -19.12491 2.071 255 127 0
-1.080529 -19.20912 2.095 255 127 0
-1.100504 -19.248323 2.093 255 127 0
-1.024636 -19.092817 1.993 255 127 0
-0.901588 -18.849119 2.033 255 127 0
-1.009184 -19.060287 1.978 255 127 0
-0.913846 -18.873177 2.016 255 127 0
-1.093677 -19.232721 2.059 255 127 0
-0.937924 -18.922634 2.041 255 127 0
-1.047319 -19.135132 1.942 255 127 0
-0.903875 -18.85581 2.083 255 127 0
-1.00693 -19.058067 2.009 255 127 0
-0.88163 -18.812151 2.093 255 127 0
-1.004695 -19.058084 2.09 255 127 0
-1.061864 -19.16588 1.974 255 127 0
-0.886152 -18.818825 2.04 255 127 0
-1.097779 -19.242977 2.101 255 127 0
-0.973789 -18.993025 2.042 255 127 0
-0.990116 -19.022865 1.99 255 127 0
-0.84304 -18.736414 2.087 255 127 0
-1.100941 -19.246979 2.037 255 127 0
-1.046933 -19.143185 2.104 255 127 0
-0.90342 -18.854918 2.079 255 127 0
-0.978347 -19.004171 2.087 255 127 0
-0.971956 -18.987225 1.967 255 127 0
-1.065513 -19.175243 2.041 255 127 0
-0.974698 -18.994806 2.046 255 127 0
-1.032842 -19.113327 2.088 255 127 0
-1.110946 -19.268816 2.104 255 127 0
-1.011488 -19.069216 2.031 255 127 0
-0.833052 -18.716812 2.11 255 127 0
-1.072322 -19.188608 2.026 255 127 0
-1.000592 -19.047831 2.054 255 127 0
-1.016498 -19.081251 2.104 255 127 0
-1.008275 -19.058504 1.964 255 127 0
-1.024166 -19.089691 1.973 255 127 0
-0.99511 -19.032665 1.973 255 127 0
-1.029647 -19.104855 2.05 255 127 0
-0.924321 -18.89814 2.091 255 127 0
-0.898881 -18.84601 2.057 255 127 0
-1.015539 -19.072762 1.953 255 127 0
-1.025107 -19.095943 2.054 255 127 0
-0.949308 -18.949383 2.111 255 127 0
-0.920202 -18.885651 2.012 255 127 0
-1.071851 -19.185482 1.988 255 127 0
-1.05872 -19.164114 2.07 255 127 0
-1.079586 -19.202866 2.008 255 127 0
-0.982449 -19.014425 2.09 255 127 0
-1.066875 -19.177917 2.029 255 127 0
-0.998741 -19.039793 1.961 255 127 0
-1.069615 -19.185499 2.05 255 127 0
-0.971502 -18.986334 1.972 255 127 0
-1.098217 -19.241632 2.044 255 127 0
-1.073718 -19.195753 2.102 255 127 0
-0.946567 -18.941799 2.08 255 127 0
-1.056013 -19.161005 2.093 255 127 0
-1.070053 -19.184155 2.035 255 127 0
-1.040543 -19.126238 2.054 255 127 0
-0.978329 -19.001934 2.007 255 127 0
-1.01828 -19.080343 2.022 255 127 0
-0.996523 -19.042048 2.099 255 127 0
-0.897065 -18.842443 2.095 255 127 0
-1.074121 -19.189938 1.981 255 127 0
-0.949291 -18.947145 2.067 255 127 0
-0.915207 -18.875849 2.026 255 127 0
-1.080965 -19.207773 2.06 255 127 0
-0.846672 -18.743542 2.086 255 127 0
-1.047353 -19.139603 2.023 255 127 0
-1.025107 -19.095943 2.058 255 127 0
-0.850304 -18.750671 2.093 255 127 0
-1.026015 -19.097727 2.051 255 127 0
-0.8612 -18.772055 2.102 255 127 0
-0.954268 -18.954712 2.049 255 127 0
-1.018264 -19.078108 1.946 255 127 0
-0.951073 -18.946238 2.01 255 127 0
-0.962911 -18.973877 2.09 255 127 0
-1.077333 -19.200645 2.071 255 127 0
-1.080494 -19.204647 1.999 255 127 0
-0.993799 -19.036701 2.097 255 127 0
-0.993311 -19.03134 2.01 255 127 0
-1.083252 -19.214464 2.089 255 127 0
-1.007351 -19.054487 1.939 255 127 0
-0.964709 -18.975204 2.028 255 127 0
-1.072322 -19.188608 2.017 255 127 0
-0.871205 -18.793894 2.117 255 127 0
-1.07234 -19.190845 2.043 255 127 0
-0.961968 -18.967623 1.994 255 127 0
-0.937907 -18.920399 2.028 255 127 0
-0.905254 -18.860718 2.095 255 127 0
-0.915242 -18.880322 2.095 255 127 0
-1.000575 -19.045593 1.995 255 127 0
-0.910231 -18.868284 2.084 255 127 0
-0.869372 -18.788094 2.091 255 127 0
-0.935637 -18.915943 2.002 255 127 0
-1.080058 -19.205994 2.057 255 127 0
-1.009637 -19.061178 1.967 255 127 0
-0.989696 -19.026445 2.074 255 127 0
-0.988805 -19.026899 2.111 255 127 0
-0.971973 -18.98946 2.028 255 127 0
-1.046881 -19.136477 1.971 255 127 0
-0.90026 -18.850918 2.109 255 127 0
-1.029142 -19.097256 1.916 255 127 0
-1.085522 -19.21892 2.082 255 127 0
-0.91704 -18.881649 2.056 255 127 0
-0.961565 -18.973438 2.113 255 127 0
-1.021929 -19.089706 2.033 255 127 0
-1.088246 -19.224266 2.087 255 127 0
-0.844839 -18.737743 2.077 255 127 0
-0.931114 -18.909269 2.071 255 127 0
-1.077316 -19.19841 2.002 255 127 0
-1.006493 -19.059412 2.033 255 127 0
-0.827604 -18.70612 2.116 255 127 0
-1.073213 -19.188154 1.992 255 127 0
-1.108659 -19.262125 2.055 255 127 0
-0.920236 -18.890121 2.106 255 127 0
-0.873003 -18.795221 2.095 255 127 0
-0.83623 -18.723049 2.092 255 127 0
-1.003753 -19.05183 1.998 255 127 0
-0.929298 -18.905706 2.059 255 127 0
-1.106388 -19.257669 2.055 255 127 0
-1.089608 -19.226938 2.077 255 127 0
-0.813985 -18.67939 2.102 255 127 0
-1.013286 -19.070541 2.004 255 127 0
-0.930643 -18.906143 2.007 255 127 0
-1.059594 -19.161427 1.974 255 127 0
-1.049589 -19.139587 1.946 255 127 0
-1.016498 -19.081251 2.097 255 127 0
-1.013304 -19.072779 2.065 255 127 0
-0.970158 -18.985897 2.011 255 127 0
-1.00873 -19.059397 1.942 255 127 0
-0.900242 -18.84868 2.089 255 127 0
-1.045486 -19.129332 1.917 255 127 0
-0.928861 -18.907051 2.11 255 127 0
-1.000558 -19.04336 1.985 255 127 0
-0.997868 -19.042484 2.054 255 127 0
-1.068724 -19.185953 2.111 255 127 0
-1.024166 -19.089691 1.953 255 127 0
-0.877526 -18.801895 2.062 255 127 0
-1.12776 -19.30402 2.108 255 127 0
-0.991075 -19.031355 2.114 255 127 0
-1.066857 -19.17568 1.97 255 127 0
-1.005552 -19.05316 1.981 255 127 0
-1.044125 -19.126659 1.917 255 127 0
-0.960169 -18.966293 2.024 255 127 0
-1.08189 -19.211792 2.081 255 127 0
-1.035952 -19.11062 1.908 255 127 0
-1.009689 -19.067886 2.108 255 127 0
-1.013757 -19.073669 2.029 255 127 0
-0.966509 -18.976532 1.975 255 127 0
-1.062822 -19.17437 2.108 255 127 0
-1.078695 -19.20332 2.037 255 127 0
-0.906145 -18.860264 2.082 255 127 0
-1.0755 -19.194845 2.036 255 127 0
-0.952452 -18.951149 2.05 255 127 0
-0.874365 -18.797894 2.074 255 127 0
-1.05053 -19.14584 2.038 255 127 0
-0.879814 -18.808588 2.089 255 127 0
-1.015539 -19.072762 1.954 255 127 0
-0.962927 -18.976112 2.107 255 127 0
-0.976951 -18.997026 1.973 255 127 0
-1.017339 -19.074089 1.927 255 127 0
-0.988805 -19.026899 2.105 255 127 0
-1.002879 -19.054522 2.088 255 127 0
-0.907053 -18.862047 2.065 255 127 0
-0.858005 -18.763582 2.063 255 127 0
-0.998322 -19.043375 2.07 255 127 0
-0.954739 -18.95784 2.082 255 127 0
-0.907069 -18.864283 2.093 255 127 0
-0.883462 -18.817949 2.112 255 127 0
-0.968813 -18.98546 2.06 255 127 0
-1.025964 -19.091019 1.926 255 127 0
-0.958808 -18.963623 2.05 255 127 0
-0.983306 -19.009501 1.959 255 127 0
-0.980616 -19.008625 2.064 255 127 0
-1.024671 -19.09729 2.103 255 127 0
-1.038727 -19.122675 2.055 255 127 0
-0.941556 -18.929764 2.045 255 127 0
-1.101395 -19.247869 2.045 255 127 0
-0.995144 -19.037138 2.046 255 127 0
-0.984702 -19.016645 2.062 255 127 0
-0.863923 -18.777401 2.096 255 127 0
-0.93747 -18.921743 2.042 255 127 0
-1.071868 -19.187717 2.015 255 127 0
-1.122313 -19.293329 2.101 255 127 0
-1.051473 -19.152094 2.109 255 127 0
-1.043703 -19.130239 2.003 255 127 0
-0.877072 -18.801004 2.053 255 127 0
-1.091861 -19.229158 2.059 255 127 0
-0.920202 -18.885651 2.038 255 127 0
-0.925649 -18.896341 2.013 255 127 0
-1.064638 -19.177933 2.097 255 127 0
-0.918402 -18.884321 2.072 255 127 0
-1.055961 -19.154297 1.962 255 127 0
-0.954251 -18.952475 2.004 255 127 0
-1.050514 -19.143604 1.979 255 127 0
-0.957934 -18.966311 2.106 255 127 0
-1.098234 -19.243868 2.097 255 127 0
-0.862107 -18.773836 2.11 255 127 0
-1.016464 -19.076778 1.993 255 127 0
-1.029647 -19.104855 2.054 255 127 0
-0.989242 -19.025555 2.081 255 127 0
-0.941556 -18.929764 2.031 255 127 0
-1.022854 -19.093725 2.098 255 127 0
-0.930189 -18.905252 2.02 255 127 0
-1.075063 -19.19619 2.048 255 127 0
-1.030975 -19.103056 1.957 255 127 0
-1.001012 -19.044249 1.955 255 127 0
-0.979674 -19.002371 1.994 255 127 0
-1.005586 -19.057631 2.07 255 127 0
-1.039635 -19.124456 2.032 255 127 0
-1.016901 -19.075434 1.952 255 127 0
-0.907069 -18.864283 2.095 255 127 0
-0.994673 -19.03401 2.031 255 127 0
-0.965652 -18.981459 2.108 255 127 0
-0.954268 -18.954712 2.046 255 127 0
-1.042847 -19.135166 2.107 255 127 0
-1.038744 -19.12491 2.065 255 127 0
-0.999667 -19.043814 2.006 255 127 0
-1.082764 -19.209103 2.006 255 127 0
-0.983794 -19.014862 2.089 255 127 0
-0.954268 -18.954712 2.061 255 127 0
-1.0319 -19.107073 1.983 255 127 0
-0.978347 -19.004171 2.058 255 127 0
-1.037365 -19.120001 2.039 255 127 0
-1.114124 -19.275053 2.1 255 127 0
-0.935654 -18.91818 2.065 255 127 0
-0.967417 -18.978315 1.977 255 127 0
-1.093677 -19.232721 2.062 255 127 0
-1.037382 -19.122238 2.073 255 127 0
-0.96106 -18.965839 1.984 255 127 0
-1.004627 -19.049141 1.939 255 127 0
-0.984668 -19.012173 1.985 255 127 0
-0.978329 -19.001934 2.036 255 127 0
-0.894341 -18.837099 2.087 255 127 0
-1.050094 -19.147186 2.07 255 127 0
-1.007402 -19.061195 2.07 255 127 0
-1.098217 -19.241632 2.063 255 127 0
-0.931132 -18.911507 2.107 255 127 0
-1.049606 -19.141823 2.002 255 127 0
-1.021441 -19.084345 1.94 255 127 0
-0.966996 -18.981895 2.088 255 127 0
-0.998322 -19.043375 2.072 255 127 0
-1.023291 -19.092381 2.044 255 127 0
-0.940665 -18.930218 2.089 255 127 0
-0.959749 -18.969875 2.111 255 127 0
-0.954268 -18.954712 2.024 255 127 0
-1.060553 -19.169914 2.097 255 127 0
-1.032791 -19.106619 1.956 255 127 0
-1.031497 -19.11289 2.109 255 127 0
-0.934292 -18.915506 2.06 255 127 0
-0.927483 -18.902142 2.043 255 127 0
-1.025998 -19.09549 1.993 255 127 0
-0.965618 -18.976986 2.025 255 127 0
-0.874348 -18.795658 2.055 255 127 0
-0.942464 -18.931545 2.039 255 127 0
-0.998322 -19.043375 2.057 255 127 0
-0.909323 -18.866501 2.084 255 127 0
-0.951544 -18.949366 2.061 255 127 0
-1.075063 -19.19619 2.042 255 127 0
-1.009218 -19.064758 2.06 255 127 0
-0.956555 -18.961403 2.08 255 127 0
-1.006459 -19.054941 1.962 255 127 0
-1.023291 -19.092381 2.049 255 127 0
-1.083689 -19.21312 2.052 255 127 0
-0.922505 -18.894577 2.087 255 127 0
-0.931585 -18.912397 2.078 255 127 0
-1.056904 -19.160551 2.05 255 127 0
-1.02324 -19.085672 1.928 255 127 0
-1.030522 -19.102165 1.931 255 127 0
-1.012833 -19.069651 2.012 255 127 0
-1.071868 -19.187717 2.033 255 127 0
-0.935217 -18.919525 2.104 255 127 0
-0.97426 -18.996151 2.061 255 127 0
-1.031918 -19.10931 2.05 255 127 0
-1.07508 -19.198427 2.082 255 127 0
-0.810352 -18.672262 2.118 255 127 0
-0.950199 -18.948929 2.108 255 127 0
-1.057323 -19.156969 1.991 255 127 0
-1.07234 -19.190845 2.041 255 127 0
-1.094131 -19.233614 2.044 255 127 0
-1.080494 -19.204647 2.019 255 127 0
-1.039601 -19.119984 1.928 255 127 0
-1.009637 -19.061178 1.957 255 127 0
-0.963818 -18.975658 2.096 255 127 0
-1.087775 -19.22114 2.052 255 127 0
-1.049186 -19.145403 2.082 255 127 0
-1.065093 -19.178825 2.102 255 127 0
-0.891617 -18.831753 2.061 255 127 0
-0.944297 -18.937346 2.111 255 127 0
-1.04056 -19.128475 2.061 255 127 0
-1.067782 -19.179699 2.016 255 127 0
-1.078678 -19.201082 2.013 255 127 0
-1.016953 -19.082144 2.077 255 127 0
-0.873441 -18.793877 2.06 255 127 0
-1.07054 -19.189516 2.091 255 127 0
-1.063242 -19.170788 2.043 255 127 0
-1.076408 -19.196629 2.007 255 127 0
-1.036945 -19.123583 2.113 255 127 0
-0.99057 -19.023756 1.974 255 127 0
-0.981525 -19.010408 2.062 255 127 0
-0.926137 -18.901705 2.108 255 127 0
-1.030572 -19.108871 2.107 255 127 0
-0.984702 -19.016645 2.078 255 127 0
-1.007368 -19.056723 1.948 255 127 0
-1.052364 -19.15164 2.064 255 127 0
-0.869825 -18.788984 2.102 255 127 0
-0.976496 -18.996134 1.999 255 127 0
-1.014229 -19.076796 2.089 255 127 0
-1.024653 -19.095053 2.044 255 127 0
-1.027377 -19.100399 2.054 255 127 0
-1.04599 -19.13693 2.026 255 127 0
-1.022838 -19.09149 2.023 255 127 0
-1.071415 -19.186829 2.033 255 127 0
-1.006057 -19.060759 2.088 255 127 0
-1.057357 -19.161442 2.081 255 127 0
-1.086413 -19.218466 2.03 255 127 0
-1.046008 -19.139166 2.061 255 127 0
-0.997414 -19.041594 2.046 255 127 0
-0.882537 -18.813932 2.066 255 127 0
-0.935637 -18.915943 1.998 255 127 0
-1.01374 -19.071432 1.991 255 127 0
-1.021929 -19.089706 2.03 255 127 0
-0.950182 -18.946692 2.032 255 127 0
-0.889364 -18.829533 2.105 255 127 0
-0.928407 -18.90616 2.113 255 127 0
-0.888893 -18.826406 2.073 255 127 0
-1.062822 -19.17437 2.102 255 127 0
-1.023309 -19.094618 2.096 255 127 0
-1.102774 -19.252779 2.106 255 127 0
-0.923833 -18.892778 2.028 255 127 0
-1.114577 -19.275944 2.088 255 127 0
-0.962877 -18.969404 1.983 255 127 0
-0.910247 -18.87052 2.094 255 127 0
-0.917024 -18.879414 2.015 255 127 0
-1.006964 -19.06254 2.082 255 127 0
-0.861654 -18.772945 2.111 255 127 0
-1.004224 -19.054958 2.065 255 127 0
-1.087304 -19.218012 2.013 255 127 0
-1.052347 -19.149406 2.048 255 127 0
-0.956084 -18.958275 2.023 255 127 0
-0.955193 -18.958729 2.092 255 127 0
-0.987846 -19.01841 1.999 255 127 0
-0.945171 -18.934654 1.992 255 127 0
-0.943389 -18.935562 2.075 255 127 0
-1.07508 -19.198427 2.114 255 127 0
-1.029647 -19.104855 2.056 255 127 0
-1.00693 -19.058067 2.006 255 127 0
-0.932039 -18.913288 2.096 255 127 0
-0.981978 -19.011299 2.074 255 127 0
-1.070506 -19.185045 2.017 255 127 0
-0.85666 -18.763145 2.112 255 127 0
-0.953831 -18.956057 2.095 255 127 0
-0.947929 -18.944473 2.093 255 127 0
-0.934746 -18.916397 2.037 255 127 0
-0.909323 -18.866501 2.076 255 127 0
-1.033229 -19.105274 1.916 255 127 0
-1.039635 -19.124456 2.02 255 127 0
-1.082327 -19.210447 2.055 255 127 0
-0.932023 -18.911053 2.046 255 127 0
-0.821248 -18.693645 2.097 255 127 0
-0.97468 -18.992571 1.993 255 127 0
-0.86436 -18.776056 2.059 255 127 0
-0.998339 -19.04561 2.11 255 127 0
-0.958825 -18.965857 2.073 255 127 0
-0.992437 -19.034027 2.099 255 127 0
-1.036457 -19.118219 2.044 255 127 0
-1.050565 -19.150314 2.103 255 127 0
-1.049152 -19.140932 1.968 255 127 0
-1.075989 -19.200211 2.097 255 127 0
-1.031446 -19.106182 1.995 255 127 0
-1.048732 -19.144512 2.085 255 127 0
-1.026032 -19.099962 2.085 255 127 0
-0.856643 -18.760908 2.072 255 127 0
-1.04325 -19.129349 1.978 255 127 0
-1.125944 -19.300455 2.107 255 127 0
-0.943372 -18.933327 2.066 255 127 0
-1.073264 -19.194862 2.112 255 127 0
-1.029176 -19.101727 1.975 255 127 0
-1.058266 -19.163223 2.059 255 127 0
-0.917478 -18.880304 2.023 255 127 0
-1.043703 -19.130239 1.999 255 127 0
-1.053238 -19.148952 1.97 255 127 0
-0.912938 -18.871393 2.02 255 127 0
-0.848997 -18.814186 1.96 255 127 0
-0.764742 -18.673056 1.994 255 127 0
-0.817957 -18.731239 2.022 255 127 0
-0.893773 -18.880037 1.955 255 127 0
-0.80126 -18.711687 2.017 255 127 0
-0.8438 -18.777554 2.009 255 127 0
-0.86781 -18.818069 1.998 255 127 0
-0.830401 -18.779892 1.972 255 127 0
-0.77927 -18.701569 1.982 255 127 0
-0.89942 -18.85808 2.003 255 127 0
-0.767465 -18.678402 1.992 255 127 0
-0.905237 -18.858482 2.016 255 127 0
-0.991075 -19.031355 1.934 255 127 0
-0.855031 -18.784178 2.024 255 127 0
-0.788718 -18.709099 1.991 255 127 0
-0.74993 -18.666014 1.971 255 127 0
-0.815249 -18.728128 2.021 255 127 0
-0.840741 -18.786968 1.985 255 127 0
-0.920558 -18.932606 1.93 255 127 0
-0.928492 -18.917341 1.976 255 127 0
-0.88227 -18.837637 1.997 255 127 0
-0.823239 -18.779053 1.957 255 127 0
-0.854997 -18.779705 2.03 255 127 0
-0.755848 -18.679831 1.962 255 127 0
-0.787891 -18.659016 2.073 255 127 0
-0.789843 -18.680468 2.042 255 127 0
-0.975185 -19.00017 1.946 255 127 0
-0.899942 -18.867914 1.989 255 127 0
-0.897688 -18.865694 1.987 255 127 0
-0.790581 -18.659891 2.077 255 127 0
-0.773482 -18.646156 2.061 255 127 0
-0.773198 -18.667624 2.024 255 127 0
-0.957547 -18.974363 1.949 255 127 0
-0.928895 -18.911522 1.985 255 127 0
-0.832144 -18.715031 2.084 255 127 0
-0.802822 -18.681711 2.07 255 127 0
-0.800047 -18.669657 2.083 255 127 0
-0.850071 -18.778849 2.02 255 127 0
-0.769333 -18.688673 1.98 255 127 0
-0.95807 -18.9842 1.933 255 127 0
-0.910401 -18.890644 1.975 255 127 0
-0.910299 -18.877228 1.998 255 127 0
-0.810239 -18.716091 2.031 255 127 0
-0.87748 -18.854668 1.959 255 127 0
-0.804184 -18.684385 2.068 255 127 0
-0.865188 -18.826139 1.976 255 127 0
-0.791319 -18.639311 2.111 255 127 0
-0.898495 -18.854063 2.009 255 127 0
-0.870789 -18.856956 1.939 255 127 0
-0.78142 -18.690371 2.007 255 127 0
-0.850189 -18.7945 1.995 255 127 0
-0.859452 -18.777435 2.043 255 127 0
-0.761899 -18.652058 2.023 255 127 0
-0.83682 -18.741829 2.05 255 127 0
-0.917278 -18.912952 1.956 255 127 0
-0.8306 -18.747242 2.028 255 127 0
-0.838403 -18.773569 2.002 255 127 0
-0.863424 -18.829283 1.967 255 127 0
-0.841258 -18.737322 2.068 255 127 0
-0.75489 -18.671341 1.974 255 127 0
-0.806675 -18.717907 2.019 255 127 0
-0.868968 -18.793909 2.038 255 127 0
-0.775451 -18.669844 2.024 255 127 0
-0.790704 -18.735023 1.955 255 127 0
-1.007839 -19.059851 1.925 255 127 0
-0.857652 -18.776106 2.042 255 127 0
-0.880289 -18.871195 1.938 255 127 0
-0.952435 -18.948912 1.979 255 127 0
-0.854492 -18.772106 2.04 255 127 0
-0.798201 -18.721102 1.993 255 127 0
-0.801566 -18.751936 1.95 255 127 0
-0.819517 -18.701262 2.076 255 127 0
-0.754402 -18.665979 1.983 255 127 0
-0.795558 -18.667454 2.076 255 127 0
-0.763278 -18.656965 2.018 255 127 0
-0.854882 -18.823534 1.959 255 127 0
-0.782261 -18.68321 2.018 255 127 0
-0.795189 -18.677744 2.058 255 127 0
-0.931772 -18.936993 1.951 255 127 0
-0.78204 -18.65414 2.067 255 127 0
-0.88933 -18.825062 2.035 255 127 0
-0.893955 -18.845152 2.013 255 127 0
-0.740952 -18.66161 1.959 255 127 0
-0.922289 -18.92499 1.948 255 127 0
-0.766893 -18.66186 2.018 255 127 0
-0.815606 -18.775085 1.944 255 127 0
-0.814193 -18.765703 1.957 255 127 0
-0.828279 -18.73608 2.04 255 127 0
-0.765768 -18.690489 1.968 255 127 0
-0.866699 -18.789455 2.04 255 127 0
-0.853839 -18.803864 1.987 255 127 0
-0.832433 -18.753042 2.022 255 127 0
-0.785069 -18.699736 1.998 255 127 0
-0.762336 -18.650713 2.027 255 127 0
-0.927635 -18.922266 1.965 255 127 0
-0.795511 -18.720228 1.989 255 127 0
-0.769837 -18.696272 1.969 255 127 0
-0.801022 -18.680384 2.068 255 127 0
-0.865324 -18.844028 1.948 255 127 0
-0.867237 -18.801525 2.023 255 127 0
-0.777114 -18.653284 2.056 255 127 0
-0.746349 -18.665592 1.964 255 127 0
-0.890459 -18.855911 1.987 255 127 0
-0.774106 -18.669407 2.023 255 127 0
-0.871561 -18.840849 1.969 255 127 0
-0.962206 -18.998926 1.918 255 127 0
-0.793322 -18.667473 2.07 255 127 0
-0.90934 -18.868738 2.011 255 127 0
-0.941272 -18.951231 1.949 255 127 0
-0.959296 -18.968985 1.961 255 127 0
-0.897337 -18.878222 1.968 255 127 0
-0.92999 -18.937901 1.945 255 127 0
-0.856312 -18.83515 1.941 255 127 0
-0.825822 -18.707027 2.081 255 127 0
-0.791561 -18.730097 1.964 255 127 0
-0.793339 -18.669708 2.068 255 127 0
-0.821753 -18.701244 2.083 255 127 0
-0.811753 -18.73889 1.998 255 127 0
-0.806962 -18.755919 1.958 255 127 0
-0.782715 -18.684099 2.019 255 127 0
-0.82707 -18.753531 2.008 255 127 0
-0.920826 -18.908901 1.969 255 127 0
-0.831156 -18.761549 2.003 255 127 0
-0.800068 -18.731373 1.982 255 127 0
-0.788332 -18.717152 1.978 255 127 0
-0.797175 -18.703669 2.02 255 127 0
-0.869524 -18.808216 2.017 255 127 0
-0.924139 -18.933025 1.939 255 127 0
-0.761683 -18.68247 1.972 255 127 0
-0.861705 -18.779654 2.046 255 127 0
-0.784679 -18.648308 2.081 255 127 0
-0.85002 -18.772139 2.031 255 127 0
-0.780143 -18.698877 1.989 255 127 0
-0.82354 -18.759819 1.991 255 127 0
-0.937589 -18.937395 1.962 255 127 0
-0.955884 -18.990925 1.917 255 127 0
-0.884675 -18.85998 1.966 255 127 0
-0.831809 -18.729792 2.057 255 127 0
-0.875324 -18.806383 2.033 255 127 0
-0.922489 -18.892342 2.003 255 127 0
-0.902416 -18.899202 1.943 255 127 0
-0.903778 -18.901875 1.942 255 127 0
-0.886725 -18.835367 2.011 255 127 0
-0.936397 -18.957083 1.928 255 127 0
-0.801095 -18.748808 1.956 255 127 0
-0.859842 -18.828863 1.959 255 127 0
-0.795944 -18.659401 2.089 255 127 0
-0.758335 -18.653873 2.012 255 127 0
-0.760639 -18.662802 2.002 255 127 0
-0.942634 -18.953905 1.949 255 127 0
-1.01016 -19.071012 1.912 255 127 0
-0.855836 -18.772543 2.043 255 127 0
-0.905174 -18.909019 1.933 255 127 0
-0.899369 -18.851372 2.015 255 127 0
-0.777114 -18.653284 2.056 255 127 0
-0.760622 -18.660564 2.006 255 127 0
-0.815113 -18.710241 2.051 255 127 0
-0.819505 -18.758509 1.983 255 127 0
-0.75721 -18.682505 1.962 255 127 0
-0.879682 -18.85018 1.971 255 127 0
-0.903188 -18.883097 1.973 255 127 0
-0.829273 -18.749043 2.02 255 127 0
-0.93184 -18.945938 1.935 255 127 0
-0.928997 -18.92494 1.963 255 127 0
-0.804354 -18.706745 2.032 255 127 0
-0.813433 -18.724564 2.023 255 127 0
-0.839446 -18.79324 1.972 255 127 0
-0.766223 -18.691381 1.969 255 127 0
-0.786245 -18.677813 2.036 255 127 0
-0.781925 -18.697969 1.993 255 127 0
-0.93537 -18.939648 1.955 255 127 0
-0.783423 -18.718531 1.964 255 127 0
-0.837592 -18.725723 2.079 255 127 0
-0.77784 -18.689951 1.999 255 127 0
-0.820931 -18.710644 2.064 255 127 0
-0.807247 -18.734449 1.992 255 127 0
-0.798486 -18.699633 2.03 255 127 0
-0.902076 -18.854481 2.017 255 127 0
-0.902212 -18.87237 1.986 255 127 0
-0.860666 -18.819466 1.976 255 127 0
-0.836451 -18.752117 2.033 255 127 0
-0.830991 -18.798672 1.944 255 127 0
-0.8153 -18.734837 2.012 255 127 0
-0.857874 -18.805176 1.994 255 127 0
-0.816743 -18.689209 2.089 255 127 0
-0.826315 -18.771872 1.977 255 127 0
-0.811799 -18.686115 2.082 255 127 0
-0.820327 -18.749109 1.998 255 127 0
-0.81841 -18.73213 2.023 255 127 0
-0.899085 -18.872841 1.979 255 127 0
-0.889046 -18.846529 2.001 255 127 0
-0.960408 -18.997599 1.917 255 127 0
-0.817719 -18.699936 2.074 255 127 0
-0.894328 -18.894342 1.932 255 127 0
-0.885784 -18.829115 2.02 255 127 0
-0.919599 -18.924116 1.942 255 127 0
-0.828585 -18.776329 1.973 255 127 0
-0.873492 -18.800585 2.039 255 127 0
-0.866834 -18.807343 2.011 255 127 0
-0.836371 -18.800419 1.952 255 127 0
-0.849905 -18.815968 1.959 255 127 0
-0.922034 -18.891449 2.002 255 127 0
-0.815215 -18.723656 2.03 255 127 0
-1.016498 -19.081251 1.909 255 127 0
-0.815801 -18.682955 2.098 255 127 0
-0.789291 -18.725641 1.966 255 127 0
-0.899085 -18.872841 1.979 255 127 0
-0.773906 -18.702055 1.968 255 127 0
-0.848425 -18.797644 1.984 255 127 0
-0.866313 -18.797508 2.027 255 127 0
-0.85784 -18.800703 2.001 255 127 0
-0.853805 -18.799393 1.994 255 127 0
-0.922103 -18.900394 1.989 255 127 0
-0.945171 -18.934654 1.984 255 127 0
-0.885754 -18.884123 1.93 255 127 0
-0.911241 -18.883482 1.99 255 127 0
-0.991597 -19.041191 1.919 255 127 0
-0.806962 -18.755919 1.958 255 127 0
-0.877429 -18.84796 1.97 255 127 0
-0.853686 -18.783741 2.021 255 127 0
-0.777097 -18.651049 2.059 255 127 0
-0.793899 -18.743498 1.948 255 127 0
-0.818444 -18.736601 2.016 255 127 0
-0.817888 -18.722294 2.038 255 127 0
-0.874888 -18.80773 2.029 255 127 0
-0.788646 -18.640673 2.103 255 127 0
-0.955397 -18.985561 1.924 255 127 0
-0.811902 -18.699532 2.06 255 127 0
-0.861404 -18.798887 2.012 255 127 0
-0.851954 -18.791355 2.005 255 127 0
-0.925196 -18.895451 2.003 255 127 0
-0.844576 -18.820929 1.938 255 127 0
-0.942935 -18.934671 1.978 255 127 0
-1.030067 -19.101273 1.909 255 127 0
-0.876823 -18.826946 2.004 255 127 0
-0.90186 -18.884895 1.967 255 127 0
-0.857233 -18.779688 2.035 255 127 0
-0.882053 -18.86805 1.949 255 127 0
-0.797934 -18.744806 1.955 255 127 0
-1.008344 -19.06745 1.915 255 127 0
-0.80476 -18.760408 1.946 255 127 0
-0.929184 -18.949535 1.924 255 127 0
-0.876572 -18.852886 1.961 255 127 0
-0.870772 -18.854719 1.943 255 127 0
-0.880976 -18.843908 1.984 255 127 0
-0.82976 -18.754404 2.013 255 127 0
-0.902937 -18.909037 1.929 255 127 0
-0.751258 -18.664215 1.98 255 127 0
-0.916807 -18.909826 1.961 255 127 0
-0.75388 -18.656143 1.998 255 127 0
-0.878422 -18.860924 1.951 255 127 0
-0.997499 -19.052774 1.912 255 127 0
-0.845984 -18.770828 2.023 255 127 0
-0.919163 -18.925461 1.94 255 127 0
-0.787136 -18.677359 2.042 255 127 0
-0.821253 -18.753128 1.994 255 127 0
-0.860797 -18.777872 2.046 255 127 0
-0.896127 -18.895672 1.935 255 127 0
-0.743239 -18.668301 1.953 255 127 0
-0.81676 -18.691444 2.086 255 127 0
-0.910366 -18.886171 1.983 255 127 0
-0.849099 -18.827602 1.938 255 127 0
-0.782363 -18.696625 1.999 255 127 0
-0.86675 -18.796164 2.03 255 127 0
-0.778294 -18.690842 1.997 255 127 0
-0.929736 -18.904362 1.999 255 127 0
-0.870279 -18.789875 2.049 255 127 0
-0.909459 -18.88439 1.986 255 127 0
-0.796551 -18.680418 2.057 255 127 0
-0.858128 -18.838715 1.941 255 127 0
-0.771013 -18.674351 2.007 255 127 0
-0.988317 -19.021536 1.942 255 127 0
-0.920303 -18.899065 1.985 255 127 0
-0.804018 -18.721504 2.008 255 127 0
-0.87852 -18.814857 2.026 255 127 0
-0.857403 -18.802048 1.999 255 127 0
-0.766808 -18.650679 2.037 255 127 0
-0.776478 -18.687279 1.998 255 127 0
-0.847614 -18.749796 2.062 255 127 0
-0.907609 -18.876354 1.992 255 127 0
-0.950233 -18.9534 1.966 255 127 0
-0.817116 -18.7384 2.009 255 127 0
-1.001568 -19.058558 1.913 255 127 0
-0.8763 -18.81711 2.018 255 127 0
-0.82853 -18.71014 2.081 255 127 0
-0.891163 -18.830862 2.029 255 127 0
-0.823505 -18.755346 1.996 255 127 0
-0.927703 -18.93121 1.95 255 127 0
-0.851734 -18.762287 2.05 255 127 0
-0.836837 -18.744064 2.045 255 127 0
-0.817417 -18.719166 2.041 255 127 0
-0.821321 -18.762072 1.979 255 127 0
-0.767517 -18.68511 1.983 255 127 0
-1.002913 -19.058992 1.914 255 127 0
-0.887467 -18.874269 1.95 255 127 0
-0.830782 -18.712357 2.083 255 127 0
-0.76649 -18.667677 2.008 255 127 0
-0.796313 -18.649113 2.109 255 127 0
-0.88429 -18.868032 1.952 255 127 0
-0.927045 -18.903486 1.995 255 127 0
-0.858582 -18.839607 1.941 255 127 0
-0.74993 -18.666014 1.972 255 127 0
-0.787544 -18.731024 1.952 255 127 0
-0.862952 -18.826157 1.971 255 127 0
-0.948519 -18.963251 1.947 255 127 0
-0.8895 -18.847422 1.999 255 127 0
-0.831911 -18.743206 2.036 255 127 0
-0.867946 -18.835957 1.966 255 127 0
-0.898614 -18.869715 1.984 255 127 0
-0.799796 -18.695599 2.04 255 127 0
-0.936379 -18.954845 1.932 255 127 0
-0.995161 -19.039373 1.928 255 127 0
-0.893773 -18.880037 1.956 255 127 0
-0.874399 -18.802366 2.038 255 127 0
-0.880438 -18.831839 2.004 255 127 0
-0.944398 -18.95076 1.956 255 127 0
-0.87255 -18.794331 2.048 255 127 0
-0.953411 -18.959637 1.962 255 127 0
-0.762052 -18.672182 1.989 255 127 0
-0.786045 -18.710461 1.984 255 127 0
-0.786932 -18.650526 2.083 255 127 0
-0.839782 -18.778479 1.998 255 127 0
-0.759396 -18.675779 1.977 255 127 0
-0.933118 -18.937431 1.953 255 127 0
-0.811413 -18.694168 2.068 255 127 0
-0.879614 -18.841236 1.984 255 127 0
-0.830417 -18.782127 1.97 255 127 0
-0.992068 -19.044317 1.914 255 127 0
-0.915781 -18.892393 1.985 255 127 0
-0.852663 -18.825787 1.95 255 127 0
-0.78739 -18.710897 1.984 255 127 0
-0.815623 -18.777321 1.943 255 127 0
-0.963382 -18.977005 1.956 255 127 0
-0.967064 -18.990841 1.943 255 127 0
-0.853419 -18.807446 1.979 255 127 0
-0.933605 -18.942793 1.945 255 127 0
-0.87667 -18.806822 2.035 255 127 0
-0.918658 -18.917862 1.95 255 127 0
-0.821406 -18.773252 1.963 255 127 0
-0.737353 -18.658951 1.956 255 127 0
-0.941726 -18.952122 1.949 255 127 0
-0.831678 -18.771385 1.991 255 127 0
-0.945341 -18.957014 1.948 255 127 0
-0.958018 -18.977491 1.944 255 127 0
-0.851802 -18.771231 2.037 255 127 0
-0.775787 -18.655083 2.049 255 127 0
-0.87891 -18.866285 1.943 255 127 0
-0.800501 -18.670549 2.081 255 127 0
-0.938179 -18.956175 1.934 255 127 0
-0.938378 -18.923527 1.986 255 127 0
-0.921398 -18.925444 1.944 255 127 0
-0.804018 -18.721504 2.007 255 127 0
-0.795053 -18.659855 2.088 255 127 0
-0.801175 -18.700506 2.036 255 127 0
-0.786075 -18.655453 2.074 255 127 0
-0.864463 -18.789473 2.036 255 127 0
-0.816242 -18.741091 2.003 255 127 0
-0.873474 -18.798347 2.042 255 127 0
-0.947157 -18.960579 1.946 255 127 0
-0.903103 -18.871916 1.99 255 127 0
-0.793395 -18.735897 1.958 255 127 0
-0.883012 -18.876539 1.935 255 127 0
-0.786261 -18.680048 2.033 255 127 0
-0.823608 -18.768763 1.976 255 127 0
-0.81009 -18.755449 1.966 255 127 0
-0.806322 -18.730433 1.997 255 127 0
-0.836387 -18.802654 1.949 255 127 0
-0.804485 -18.665152 2.101 255 127 0
-0.9125 -18.872738 2.01 255 127 0
-0.99116 -19.042534 1.914 255 127 0
-0.937759 -18.959757 1.927 255 127 0
-0.903591 -18.877277 1.981 255 127 0
-0.822882 -18.732094 2.033 255 127 0
-0.887014 -18.873379 1.95 255 127 0
-0.964828 -18.990856 1.938 255 127 0
-0.826259 -18.705683 2.084 255 127 0
-0.766876 -18.659624 2.023 255 127 0
-0.830566 -18.742771 2.033 255 127 0
-0.874671 -18.83814 1.978 255 127 0
-0.840957 -18.756556 2.036 255 127 0
-0.947695 -18.972649 1.929 255 127 0
-0.799279 -18.745245 1.956 255 127 0
-0.821333 -18.704826 2.075 255 127 0
-0.852659 -18.766306 2.046 255 127 0
-0.978448 -19.017586 1.927 255 127 0
-0.84447 -18.748032 2.058 255 127 0
-0.914084 -18.90448 1.963 255 127 0
-0.837092 -18.777605 1.991 255 127 0
-0.869087 -18.809561 2.012 255 127 0
-0.941391 -18.966885 1.924 255 127 0
-0.857805 -18.79623 2.009 255 127 0
-0.800052 -18.729139 1.985 255 127 0
-0.845865 -18.755177 2.05 255 127 0
-0.877009 -18.851542 1.962 255 127 0
-0.862613 -18.781435 2.045 255 127 0
-0.812003 -18.712948 2.04 255 127 0
-0.853953 -18.760035 2.061 255 127 0
-0.862935 -18.823919 1.976 255 127 0
-0.885987 -18.855944 1.977 255 127 0
-0.843146 -18.809313 1.952 255 127 0
-0.850558 -18.78421 2.012 255 127 0
-0.78885 -18.667505 2.061 255 127 0
-0.893989 -18.849625 2.007 255 127 0
-0.964273 -18.976549 1.962 255 127 0
-0.84548 -18.763229 2.034 255 127 0
-0.952639 -18.975744 1.936 255 127 0
-0.749561 -18.676302 1.955 255 127 0
-0.754975 -18.682522 1.956 255 127 0
-0.81407 -18.690571 2.081 255 127 0
-0.977506 -19.011332 1.935 255 127 0
-0.943576 -18.960159 1.94 255 127 0
-0.862986 -18.830627 1.965 255 127 0
-0.863101 -18.7868 2.036 255 127 0
-0.825929 -18.779926 1.963 255 127 0
-0.867123 -18.845354 1.949 255 127 0
-1.000677 -19.059011 1.911 255 127 0
-0.858981 -18.774307 2.047 255 127 0
-0.898211 -18.87553 1.972 255 127 0
-0.956118 -18.962748 1.965 255 127 0
-0.83573 -18.774931 1.994 255 127 0
-0.856676 -18.765381 2.058 255 127 0
-0.81429 -18.719639 2.033 255 127 0
-0.856999 -18.807865 1.988 255 127 0
-0.865489 -18.806906 2.01 255 127 0
-0.785388 -18.682737 2.028 255 127 0
-0.787352 -18.646946 2.091 255 127 0
-0.927584 -18.915558 1.975 255 127 0
-0.91595 -18.914751 1.95 255 127 0
-0.908653 -18.896025 1.962 255 127 0
-0.914168 -18.915659 1.944 255 127 0
-0.994287 -19.042063 1.922 255 127 0
-0.821673 -18.749548 2.002 255 127 0
-0.782074 -18.658613 2.059 255 127 0
-1.012379 -19.068762 1.92 255 127 0
-0.800352 -18.709906 2.018 255 127 0
-0.964408 -18.994436 1.93 255 127 0
-0.773499 -18.648392 2.055 255 127 0
-0.78835 -18.719389 1.975 255 127 0
-0.840333 -18.733305 2.072 255 127 0
-0.751746 -18.669577 1.97 255 127 0
-0.830536 -18.797779 1.944 255 127 0
-0.769939 -18.70969 1.948 255 127 0
-0.858412 -18.817245 1.977 255 127 0
-0.899238 -18.892965 1.947 255 127 0
-0.876957 -18.844833 1.973 255 127 0
-0.856227 -18.823971 1.959 255 127 0
-0.805715 -18.709417 2.032 255 127 0
-0.990252 -19.040754 1.914 255 127 0
-0.950857 -18.976652 1.928 255 127 0
-0.792452 -18.729643 1.966 255 127 0
-0.785655 -18.659033 2.067 255 127 0
-0.809551 -18.743378 1.984 255 127 0
-0.907154 -18.875462 1.993 255 127 0
-0.860177 -18.814102 1.985 255 127 0
-0.868582 -18.801962 2.025 255 127 0
-0.848811 -18.789591 2.0 255 127 0
-0.807798 -18.689276 2.068 255 127 0
-0.830583 -18.745007 2.03 255 127 0
-0.850393 -18.821333 1.95 255 127 0
-0.807043 -18.707619 2.036 255 127 0
-0.75077 -18.65885 1.987 255 127 0
-0.912352 -18.912096 1.947 255 127 0
-0.789372 -18.677341 2.047 255 127 0
-0.963818 -18.975658 1.961 255 127 0
-0.968057 -19.003801 1.925 255 127 0
-0.793339 -18.669708 2.068 255 127 0
-0.88799 -18.884106 1.935 255 127 0
-0.804188 -18.743866 1.971 255 127 0
-0.936108 -18.919071 1.989 255 127 0
-0.796585 -18.684889 2.05 255 127 0
-0.877581 -18.868084 1.938 255 127 0
-0.914924 -18.897318 1.976 255 127 0
-0.89468 -18.881819 1.953 255 127 0
-0.86818 -18.807781 2.015 255 127 0
-0.918152 -18.910263 1.963 255 127 0
-0.837329 -18.808908 1.941 255 127 0
-0.829913 -18.774529 1.981 255 127 0
-0.765399 -18.700779 1.95 255 127 0
-0.797221 -18.650894 2.107 255 127 0
-0.95109 -18.948475 1.977 255 127 0
-0.776189 -18.649265 2.062 255 127 0
-0.907744 -18.894241 1.964 255 127 0
-1.004729 -19.062557 1.913 255 127 0
-0.762807 -18.653839 2.022 255 127 0
-0.80496 -18.727758 1.998 255 127 0
-0.983476 -19.031858 1.913 255 127 0
-0.960254 -18.977474 1.95 255 127 0
-0.827881 -18.801378 1.935 255 127 0
-0.805877 -18.848503 1.896 255 127 0
-0.771522 -18.74143 1.932 255 127 0
-0.857729 -18.904013 1.899 255 127 0
-0.916256 -18.955 1.911 255 127 0
-0.82797 -18.872038 1.897 255 127 0
-0.877654 -18.93651 1.895 255 127 0
-0.86874 -18.881569 1.919 255 127 0
-0.831585 -18.876932 1.897 255 127 0
-0.914525 -18.962616 1.905 255 127 0
-0.818517 -18.805027 1.928 255 127 0
-0.83609 -18.881369 1.897 255 127 0
-0.751848 -18.682993 1.95 255 127 0
-0.994456 -19.064425 1.903 255 127 0
-0.810781 -18.787643 1.932 255 127 0
-0.849625 -18.896919 1.898 255 127 0
-0.964679 -19.030212 1.902 255 127 0
-0.972279 -19.029709 1.907 255 127 0
-0.814549 -18.81266 1.92 255 127 0
-0.803993 -18.835997 1.901 255 127 0
-0.801638 -18.82036 1.908 255 127 0
-0.854649 -18.851711 1.926 255 127 0
-0.925824 -18.978184 1.904 255 127 0
-0.835064 -18.863935 1.907 255 127 0
-0.803954 -18.772041 1.936 255 127 0
-0.95686 -19.00165 1.912 255 127 0
-0.882342 -18.906063 1.915 255 127 0
-0.890043 -18.918974 1.913 255 127 0
-0.766142 -18.739681 1.929 255 127 0
-0.785409 -18.744455 1.939 255 127 0
-0.774076 -18.724415 1.942 255 127 0
-0.914406 -18.946964 1.913 255 127 0
-0.903879 -18.915291 1.924 255 127 0
-0.808427 -18.772009 1.939 255 127 0
-0.990791 -19.052824 1.907 255 127 0
-0.840194 -18.891624 1.895 255 127 0
-0.818131 -18.81308 1.923 255 127 0
-0.964039 -19.004726 1.915 255 127 0
-0.781208 -18.780264 1.916 255 127 0
-0.964714 -19.034687 1.899 255 127 0
-0.911817 -18.959505 1.905 255 127 0
-0.955078 -19.002558 1.91 255 127 0
-0.81625 -18.860052 1.896 255 127 0
-0.840172 -18.829906 1.929 255 127 0
-0.875248 -18.914165 1.905 255 127 0
-0.902823 -18.952868 1.903 255 127 0
-0.925824 -18.978184 1.904 255 127 0
-0.802512 -18.817671 1.91 255 127 0
-1.013423 -19.08843 1.902 255 127 0
-0.887591 -18.949404 1.894 255 127 0
-0.798341 -18.798471 1.918 255 127 0
-0.828457 -18.877401 1.894 255 127 0
-0.978584 -19.035475 1.908 255 127 0
-0.868336 -18.887384 1.916 255 127 0
-0.911228 -18.940727 1.915 255 127 0
-0.986772 -19.053749 1.903 255 127 0
-0.791799 -18.761402 1.934 255 127 0
-0.942451 -18.988791 1.909 255 127 0
-0.949681 -18.998573 1.909 255 127 0
-0.926647 -18.968786 1.91 255 127 0
-0.761852 -18.70483 1.945 255 127 0
-0.831296 -18.838919 1.918 255 127 0
-0.81527 -18.789845 1.934 255 127 0
-0.946083 -18.995918 1.908 255 127 0
-0.859779 -18.8794 1.914 255 127 0
-0.840643 -18.833035 1.927 255 127 0
-0.799432 -18.765369 1.936 255 127 0
-0.849455 -18.874557 1.91 255 127 0
-0.802041 -18.814543 1.912 255 127 0
-0.817744 -18.821133 1.918 255 127 0
-0.783712 -18.756544 1.931 255 127 0
-0.791867 -18.770346 1.929 255 127 0
-0.998474 -19.063498 1.906 255 127 0
-0.817591 -18.801008 1.929 255 127 0
-0.851255 -18.875887 1.911 255 127 0
-0.769269 -18.73921 1.931 255 127 0
-0.931136 -18.970987 1.912 255 127 0
-0.790742 -18.798975 1.912 255 127 0
-0.813136 -18.803278 1.925 255 127 0
-0.816637 -18.851999 1.901 255 127 0
-0.866623 -18.897238 1.909 255 127 0
-0.915632 -18.931749 1.923 255 127 0
-0.84159 -18.898769 1.892 255 127 0
-0.979946 -19.038149 1.907 255 127 0
-0.774632 -18.738724 1.934 255 127 0
-0.815979 -18.824276 1.916 255 127 0
-0.804158 -18.798874 1.921 255 127 0
-0.809912 -18.849815 1.897 255 127 0
-0.794052 -18.76362 1.934 255 127 0
-0.913684 -18.969778 1.901 255 127 0
-0.819883 -18.867182 1.894 255 127 0
-0.828691 -18.849224 1.91 255 127 0
-0.778264 -18.745852 1.933 255 127 0
-0.837936 -18.829926 1.927 255 127 0
-0.93929 -18.984789 1.909 255 127 0
-0.965957 -19.021706 1.907 255 127 0
-0.800475 -18.785038 1.927 255 127 0
-0.793971 -18.811922 1.907 255 127 0
-0.986688 -19.04257 1.91 255 127 0
-0.926782 -18.986673 1.9 255 127 0
-0.968715 -19.031525 1.903 255 127 0
-0.835297 -18.835758 1.922 255 127 0
-0.866907 -18.875769 1.921 255 127 0
-0.800849 -18.83423 1.9 255 127 0
-0.787713 -18.753382 1.935 255 127 0
-0.842646 -18.861193 1.913 255 127 0
-0.8872 -18.897974 1.922 255 127 0
-0.816331 -18.811752 1.922 255 127 0
-0.941476 -18.978064 1.915 255 127 0
-0.875112 -18.896278 1.915 255 127 0
-0.793092 -18.755129 1.938 255 127 0
-0.826001 -18.848351 1.908 255 127 0
-0.969521 -19.01989 1.911 255 127 0
-0.821576 -18.795612 1.935 255 127 0
-0.884073 -18.898447 1.921 255 127 0
-0.776278 -18.719927 1.947 255 127 0
-0.94832 -18.995901 1.91 255 127 0
-0.777272 -18.732889 1.939 255 127 0
-0.802563 -18.824377 1.906 255 127 0
-0.828033 -18.821501 1.925 255 127 0
-0.878074 -18.932928 1.897 255 127 0
-0.856634 -18.877634 1.914 255 127 0
-0.915348 -18.953217 1.911 255 127 0
-0.797416 -18.794453 1.92 255 127 0
-1.015658 -19.088413 1.904 255 127 0
-0.992539 -19.047445 1.91 255 127 0
-0.916341 -18.966181 1.904 255 127 0
-0.941141 -18.992826 1.906 255 127 0
-0.870017 -18.873062 1.925 255 127 0
-0.827749 -18.842972 1.913 255 127 0
-0.791498 -18.780634 1.923 255 127 0
-0.996727 -19.06888 1.902 255 127 0
-0.783241 -18.753416 1.933 255 127 0
-0.801672 -18.824831 1.906 255 127 0
-0.956355 -18.994051 1.916 255 127 0
-0.998004 -19.060373 1.907 255 127 0
-0.87745 -18.909678 1.909 255 127 0
-0.874472 -18.870792 1.929 255 127 0
-0.929069 -18.993364 1.898 255 127 0
-0.816603 -18.847527 1.903 255 127 0
-0.976717 -19.025204 1.912 255 127 0
-0.819577 -18.826933 1.916 255 127 0
-0.923065 -18.968365 1.907 255 127 0
-0.928798 -18.957588 1.917 255 127 0
-0.78647 -18.766359 1.928 255 127 0
-0.800123 -18.797564 1.92 255 127 0
-0.943847 -18.995935 1.906 255 127 0
-0.955044 -18.998087 1.913 255 127 0
-0.786974 -18.77396 1.924 255 127 0
-0.866419 -18.870405 1.924 255 127 0
-1.004762 -19.067028 1.908 255 127 0
-0.87434 -18.912384 1.906 255 127 0
-0.836998 -18.88315 1.897 255 127 0
-0.928463 -18.972349 1.909 255 127 0
-0.856987 -18.86511 1.92 255 127 0
-0.865006 -18.861025 1.928 255 127 0
-0.914758 -18.934439 1.921 255 127 0
-0.856583 -18.870926 1.917 255 127 0
-0.861578 -18.88073 1.915 255 127 0
-0.778973 -18.780281 1.915 255 127 0
-0.823091 -18.818409 1.923 255 127 0
-0.871328 -18.869026 1.928 255 127 0
-0.93946 -19.007149 1.898 255 127 0
-0.838679 -18.868828 1.906 255 127 0
-0.866402 -18.86817 1.925 255 127 0
-0.854314 -18.866472 1.918 255 127 0
-0.983578 -19.045277 1.906 255 127 0
-0.806344 -18.79215 1.927 255 127 0
-0.88278 -18.904718 1.916 255 127 0
-0.995717 -19.053682 1.909 255 127 0
-1.024234 -19.098635 1.904 255 127 0
-0.953364 -19.012409 1.904 255 127 0
-0.843388 -18.900097 1.892 255 127 0
-0.878863 -18.91906 1.905 255 127 0
-0.928831 -18.962059 1.915 255 127 0
-1.017878 -19.086161 1.907 255 127 0
-0.931674 -18.983059 1.906 255 127 0
-0.799873 -18.823505 1.905 255 127 0
-0.914541 -18.964851 1.904 255 127 0
-0.760996 -18.709757 1.942 255 127 0
-0.828318 -18.800034 1.937 255 127 0
-0.79429 -18.794924 1.917 255 127 0
-0.823345 -18.851948 1.905 255 127 0
-0.928968 -18.979948 1.906 255 127 0
-0.804562 -18.793058 1.925 255 127 0
-0.829832 -18.82283 1.925 255 127 0
-0.898601 -18.926958 1.914 255 127 0
-0.870254 -18.904366 1.907 255 127 0
-0.899458 -18.922033 1.918 255 127 0
-0.852515 -18.865143 1.918 255 127 0
-0.924461 -18.97551 1.905 255 127 0
-0.702825 -18.705727 1.875 255 127 0
-0.756545 -18.771507 1.893 255 127 0
-0.736077 -18.667458 1.946 255 127 0
-0.747966 -18.701805 1.936 255 127 0
-0.784085 -18.805735 1.902 255 127 0
-0.749599 -18.740255 1.908 255 127 0
-0.729288 -18.715811 1.9 255 127 0
-0.785566 -18.82406 1.89 255 127 0
-0.75074 -18.71386 1.929 255 127 0
-0.73867 -18.714399 1.914 255 127 0
-0.771255 -18.765135 1.916 255 127 0
-0.773979 -18.770481 1.915 255 127 0
-0.748186 -18.730873 1.913 255 127 0
-0.738953 -18.692928 1.93 255 127 0
-0.710407 -18.702984 1.887 255 127 0
-0.720361 -18.718115 1.887 255 127 0
-0.745246 -18.755939 1.891 255 127 0
-0.770801 -18.764244 1.917 255 127 0
-0.742085 -18.75194 1.89 255 127 0
-0.743799 -18.742088 1.899 255 127 0
-0.777445 -18.81473 1.886 255 127 0
-0.762645 -18.750441 1.917 255 127 0
-0.739327 -18.742121 1.893 255 127 0
-0.723251 -18.68634 1.915 255 127 0
-0.715032 -18.723076 1.877 255 127 0
-0.728783 -18.708212 1.905 255 127 0
-0.750354 -18.721912 1.922 255 127 0
-0.778285 -18.807568 1.893 255 127 0
-0.733039 -18.73859 1.889 255 127 0
-0.728444 -18.663492 1.939 255 127 0
-0.690147 -18.685249 1.875 255 127 0
-0.773575 -18.776297 1.911 255 127 0
-0.724243 -18.699303 1.908 255 127 0
-0.757703 -18.747349 1.913 255 127 0
-0.791451 -18.833406 1.89 255 127 0
-0.730362 -18.680471 1.93 255 127 0
-0.778149 -18.789679 1.907 255 127 0
-0.769472 -18.766043 1.913 255 127 0
-0.741881 -18.725107 1.91 255 127 0
-0.720476 -18.674286 1.922 255 127 0
-0.773729 -18.796423 1.895 255 127 0
-0.707649 -18.693167 1.89 255 127 0
-0.770534 -18.787949 1.898 255 127 0
-0.786826 -18.813318 1.899 255 127 0
-0.688785 -18.682577 1.875 255 127 0
-0.733573 -18.691181 1.925 255 127 0
-0.706186 -18.677078 1.9 255 127 0
-0.748538 -18.718348 1.923 255 127 0
-0.708387 -18.672588 1.907 255 127 0
-0.704085 -18.694983 1.885 255 127 0
-0.782758 -18.807535 1.899 255 127 0
-0.738538 -18.755993 1.882 255 127 0
-0.775812 -18.776281 1.914 255 127 0
-0.773712 -18.794186 1.897 255 127 0
-0.747884 -18.750107 1.899 255 127 0
-0.73956 -18.713945 1.915 255 127 0
-0.710203 -18.676153 1.906 255 127 0
-0.766952 -18.787529 1.894 255 127 0
-0.776889 -18.800423 1.896 255 127 0
-0.789567 -18.8209 1.898 255 127 0
-0.711617 -18.685534 1.901 255 127 0
-0.74393 -18.700495 1.931 255 127 0
-0.760444 -18.75493 1.91 255 127 0
-0.733557 -18.688946 1.926 255 127 0
-0.715299 -18.699371 1.895 255 127 0
-0.759383 -18.733025 1.925 255 127 0
-0.72636 -18.683632 1.922 255 127 0
-0.737511 -18.738558 1.893 255 127 0
-0.704993 -18.696766 1.885 255 127 0
-0.736115 -18.731413 1.898 255 127 0
-0.767572 -18.751299 1.923 255 127 0
-0.718948 -18.708735 1.893 255 127 0
-0.720378 -18.720352 1.886 255 127 0
-0.735152 -18.663441 1.948 255 127 0
-0.772718 -18.781223 1.906 255 127 0
-0.755132 -18.762127 1.899 255 127 0
-0.757487 -18.777763 1.89 255 127 0
-0.757873 -18.769711 1.896 255 127 0
-0.73578 -18.746174 1.886 255 127 0
-0.774216 -18.801785 1.893 255 127 0
-0.781429 -18.809334 1.895 255 127 0
-0.724091 -18.679178 1.922 255 127 0
-0.732989 -18.731884 1.893 255 127 0
-0.757987 -18.72588 1.93 255 127 0
-0.765692 -18.798273 1.884 255 127 0
-0.721333 -18.669361 1.926 255 127 0
-0.734096 -18.701017 1.918 255 127 0
-0.716929 -18.678339 1.913 255 127 0
-0.706168 -18.674841 1.903 255 127 0
-0.709364 -18.683315 1.9 255 127 0
-0.761182 -18.734352 1.928 255 127 0
-0.723488 -18.717646 1.892 255 127 0
-0.725656 -18.708683 1.902 255 127 0
-0.720327 -18.713642 1.891 255 127 0
-0.72362 -18.676052 1.924 255 127 0
-0.700556 -18.701271 1.875 255 127 0
-0.715567 -18.675665 1.914 255 127 0
-0.70358 -18.687384 1.889 255 127 0
-0.701293 -18.680693 1.892 255 127 0
-0.774183 -18.797314 1.896 255 127 0
-0.765641 -18.791563 1.889 255 127 0
-0.749803 -18.767088 1.888 255 127 0
-0.781378 -18.802626 1.9 255 127 0
-0.700034 -18.691437 1.883 255 127 0
-0.726615 -18.717173 1.897 255 127 0
-0.794175 -18.838753 1.89 255 127 0
-0.792359 -18.83519 1.89 255 127 0
-0.761521 -18.779072 1.894 255 127 0
-0.865273 -18.837318 1.67 255 127 0
-0.855959 -18.847675 1.705 255 127 0
-0.855523 -18.849022 1.709 255 127 0
-0.853656 -18.838749 1.661 255 127 0
-0.862078 -18.828846 1.627 255 127 0
-0.848378 -18.850416 1.704 255 127 0
-0.883479 -18.820187 1.618 255 127 0
-0.862363 -18.807377 1.529 255 127 0
-0.885481 -18.848345 1.751 255 127 0
-0.848679 -18.831184 1.618 255 127 0
-0.882338 -18.846582 1.735 255 127 0
-0.858111 -18.836479 1.656 255 127 0
-0.865256 -18.835083 1.658 255 127 0
-0.854866 -18.821299 1.582 255 127 0
-0.870784 -18.797474 1.498 255 127 0
-0.879966 -18.828711 1.652 255 127 0
-0.848679 -18.831184 1.618 255 127 0
-0.877611 -18.813074 1.578 255 127 0
-0.851993 -18.855309 1.731 255 127 0
-0.848412 -18.854889 1.725 255 127 0
-0.864399 -18.84001 1.681 255 127 0
-0.8531 -18.824442 1.592 255 127 0
-0.852782 -18.841438 1.668 255 127 0
-0.859927 -18.840044 1.673 255 127 0
-0.86722 -18.79929 1.501 255 127 0
-0.866516 -18.824341 1.611 255 127 0
-0.863559 -18.84717 1.714 255 127 0
-0.880959 -18.841673 1.712 255 127 0
-0.872096 -18.79344 1.483 255 127 0
-0.881748 -18.827803 1.653 255 127 0
-0.868939 -18.848919 1.73 255 127 0
-0.866079 -18.825686 1.618 255 127 0
-0.883497 -18.822424 1.627 255 127 0
-0.874837 -18.801022 1.521 255 127 0
-0.866766 -18.798399 1.498 255 127 0
-0.870279 -18.789875 1.463 255 127 0
-0.877395 -18.843489 1.715 255 127 0
-0.864938 -18.852081 1.736 255 127 0
-0.85705 -18.814573 1.553 255 127 0
-0.842998 -18.848669 1.69 255 127 0
-0.874468 -18.811312 1.567 255 127 0
-0.860483 -18.854351 1.738 255 127 0
-0.875274 -18.799677 1.516 255 127 0
-0.87983 -18.810822 1.573 255 127 0
-0.871578 -18.843084 1.704 255 127 0
-0.855909 -18.840969 1.671 255 127 0
-0.871306 -18.807308 1.541 255 127 0
-0.874739 -18.847086 1.727 255 127 0
-0.864582 -18.805124 1.524 255 127 0
-0.861488 -18.810066 1.542 255 127 0
-0.860012 -18.851223 1.723 255 127 0
-0.874904 -18.809965 1.558 255 127 0
-0.847521 -18.855343 1.724 255 127 0
-0.855506 -18.846785 1.7 255 127 0
-0.86613 -18.832394 1.648 255 127 0
-0.883127 -18.83271 1.676 255 127 0
-0.864547 -18.800652 1.505 255 127 0
-0.878706 -18.839453 1.699 255 127 0
-0.857674 -18.837824 1.659 255 127 0
-0.846528 -18.842381 1.663 255 127 0
-0.850949 -18.83564 1.643 255 127 0
-0.861289 -18.842716 1.689 255 127 0
-0.867289 -18.808235 1.542 255 127 0
-0.83903 -18.8563 1.715 255 127 0
-0.86613 -18.832394 1.65 255 127 0
-0.87075 -18.793001 1.479 255 127 0
-0.878167 -18.827381 1.643 255 127 0
-0.85268 -18.828024 1.611 255 127 0
-0.873411 -18.848885 1.736 255 127 0
-0.849133 -18.832075 1.62 255 127 0
-0.891248 -18.842043 1.729 255 127 0
-0.873055 -18.801929 1.521 255 127 0
-0.885448 -18.843874 1.73 255 127 0
-0.86201 -18.819902 1.585 255 127 0
-0.870097 -18.82476 1.618 255 127 0
-0.86734 -18.814943 1.571 255 127 0
-0.876317 -18.819347 1.605 255 127 0
-0.846613 -18.853561 1.714 255 127 0
-0.848679 -18.831184 1.618 255 127 0
-0.854178 -18.848583 1.702 255 127 0
-0.87294 -18.845758 1.719 255 127 0
-0.857305 -18.848114 1.708 255 127 0
-0.846999 -18.845509 1.679 255 127 0
-0.866652 -18.842228 1.695 255 127 0
-0.868616 -18.806435 1.534 255 127 0
-0.887196 -18.838493 1.706 255 127 0
-0.875965 -18.831871 1.661 255 127 0
-0.858179 -18.845423 1.698 255 127 0
-0.868433 -18.84132 1.695 255 127 0
-0.852413 -18.851728 1.715 255 127 0
-0.864887 -18.845371 1.704 255 127 0
-0.85352 -18.82086 1.578 255 127 0
-0.839871 -18.84914 1.687 255 127 0
-0.839956 -18.860321 1.738 255 127 0
-0.864196 -18.813177 1.559 255 127 0
-0.838997 -18.85183 1.697 255 127 0
-0.859473 -18.839153 1.671 255 127 0
