ply
format ascii 1.0
element vertex 1339
property double x
property double y
property double z
property uchar red
property uchar green
property uchar blue
element face 0
property list uchar int vertex_indices
end_header
1.480116 -16.463356 0.65 255 0 127
1.311176 -16.389624 0.654 255 0 127
1.382372 -16.437122 0.651 255 0 127
1.273457 -16.291842 0.663 255 0 127
1.373496 -16.42811 0.652 255 0 127
1.564057 -16.481436 0.649 255 0 127
1.469321 -16.471325 0.649 255 0 127
1.444964 -16.439835 0.651 255 0 127
1.417439 -16.471825 0.648 255 0 127
1.414015 -16.392639 0.656 255 0 127
1.278871 -16.521311 0.641 255 0 127
1.303726 -16.428474 0.651 255 0 127
1.279689 -16.354502 0.657 255 0 127
1.338288 -16.470778 0.647 255 0 127
1.303395 -16.589922 0.635 255 0 127
1.26918 -16.383938 0.654 255 0 127
1.315045 -16.58688 0.635 255 0 127
1.297052 -16.423954 0.651 255 0 127
1.450475 -16.479679 0.648 255 0 127
1.442409 -16.422819 0.653 255 0 127
1.305329 -16.570705 0.637 255 0 127
1.374222 -16.391443 0.655 255 0 127
1.388541 -16.449245 0.65 255 0 127
1.420838 -16.43652 0.651 255 0 127
1.451739 -16.430941 0.652 255 0 127
1.277471 -16.352247 0.658 255 0 127
1.279422 -16.330795 0.66 255 0 127
1.42363 -16.42223 0.653 255 0 127
1.350669 -16.371588 0.657 255 0 127
1.355239 -16.417686 0.652 255 0 127
1.392491 -16.459114 0.649 255 0 127
1.433643 -16.517118 0.644 255 0 127
1.256006 -16.52874 0.64 255 0 127
1.268548 -16.290462 0.663 255 0 127
1.402449 -16.384502 0.656 255 0 127
1.264037 -16.590071 0.634 255 0 127
1.350109 -16.445375 0.65 255 0 127
1.324261 -16.551172 0.639 255 0 127
1.480654 -16.451286 0.651 255 0 127
1.437763 -16.504627 0.645 255 0 127
1.263282 -16.57173 0.636 255 0 127
1.280903 -16.548159 0.639 255 0 127
1.269044 -16.401827 0.653 255 0 127
1.418687 -16.425323 0.652 255 0 127
1.417749 -16.372097 0.658 255 0 127
1.268492 -16.59234 0.634 255 0 127
1.424284 -16.453989 0.65 255 0 127
1.374981 -16.350306 0.659 255 0 127
1.306055 -16.534039 0.64 255 0 127
1.451615 -16.506075 0.645 255 0 127
1.318304 -16.393255 0.654 255 0 127
1.515318 -16.480171 0.648 255 0 127
1.518327 -16.496294 0.647 255 0 127
1.34612 -16.49946 0.644 255 0 127
1.461688 -16.475292 0.648 255 0 127
1.357131 -16.521904 0.642 255 0 127
1.455231 -16.501183 0.646 255 0 127
1.508916 -16.439873 0.652 255 0 127
1.28647 -16.286127 0.664 255 0 127
1.416735 -16.446775 0.65 255 0 127
1.268526 -16.35218 0.657 255 0 127
1.319441 -16.479132 0.646 255 0 127
1.270729 -16.592358 0.634 255 0 127
1.326926 -16.435808 0.65 255 0 127
1.438828 -16.423241 0.653 255 0 127
1.294654 -16.563023 0.637 255 0 127
1.446928 -16.475628 0.648 255 0 127
1.268361 -16.31506 0.661 255 0 127
1.273881 -16.47163 0.646 255 0 127
1.285778 -16.318321 0.661 255 0 127
1.302482 -16.415497 0.652 255 0 127
1.382886 -16.546249 0.64 255 0 127
1.291637 -16.430174 0.65 255 0 127
1.430079 -16.515303 0.644 255 0 127
1.29025 -16.554043 0.638 255 0 127
1.306178 -16.458904 0.648 255 0 127
1.281756 -16.376879 0.655 255 0 127
1.257517 -16.329735 0.66 255 0 127
1.271755 -16.339235 0.659 255 0 127
1.488355 -16.438374 0.652 255 0 127
1.256146 -16.45137 0.648 255 0 127
1.327236 -16.571768 0.637 255 0 127
1.487176 -16.475933 0.649 255 0 127
1.328271 -16.435371 0.65 255 0 127
1.27977 -16.402802 0.653 255 0 127
1.409318 -16.481155 0.647 255 0 127
1.435565 -16.440657 0.651 255 0 127
1.346905 -16.337122 0.66 255 0 127
1.442757 -16.494825 0.646 255 0 127
1.423511 -16.437881 0.651 255 0 127
1.354946 -16.515179 0.643 255 0 127
1.276333 -16.50206 0.643 255 0 127
1.37011 -16.52066 0.643 255 0 127
1.479093 -16.42131 0.654 255 0 127
1.510596 -16.454197 0.651 255 0 127
1.404375 -16.484249 0.647 255 0 127
1.369801 -16.384703 0.656 255 0 127
1.27375 -16.430037 0.65 255 0 127
1.411839 -16.502642 0.645 255 0 127
1.454429 -16.430067 0.652 255 0 127
1.521339 -16.452936 0.651 255 0 127
1.258862 -16.329298 0.66 255 0 127
1.469173 -16.431969 0.653 255 0 127
1.455099 -16.459589 0.65 255 0 127
1.286966 -16.39749 0.653 255 0 127
1.365515 -16.360071 0.658 255 0 127
1.25526 -16.391436 0.654 255 0 127
1.496256 -16.458113 0.65 255 0 127
1.310607 -16.346685 0.659 255 0 127
1.29549 -16.393976 0.654 255 0 127
1.468681 -16.496811 0.646 255 0 127
1.269451 -16.583851 0.635 255 0 127
1.2712 -16.353542 0.657 255 0 127
1.264169 -16.395975 0.653 255 0 127
1.321134 -16.315012 0.662 255 0 127
1.534132 -16.47629 0.649 255 0 127
1.525607 -16.479803 0.649 255 0 127
1.502005 -16.466654 0.65 255 0 127
1.352472 -16.546467 0.64 255 0 127
1.303709 -16.430712 0.65 255 0 127
1.383518 -16.404037 0.654 255 0 127
1.356821 -16.385944 0.656 255 0 127
1.296092 -16.432444 0.65 255 0 127
1.351607 -16.424814 0.652 255 0 127
1.392686 -16.551243 0.64 255 0 127
1.414262 -16.478062 0.647 255 0 127
1.339701 -16.461397 0.648 255 0 127
1.369142 -16.412424 0.653 255 0 127
1.366856 -16.419115 0.652 255 0 127
1.439392 -16.52566 0.643 255 0 127
1.267203 -16.290899 0.663 255 0 127
1.505869 -16.487701 0.648 255 0 127
1.400849 -16.41848 0.653 255 0 127
1.301027 -16.548311 0.639 255 0 127
1.341992 -16.395224 0.654 255 0 127
1.321177 -16.427267 0.651 255 0 127
1.327647 -16.458622 0.648 255 0 127
1.268323 -16.379011 0.655 255 0 127
1.390438 -16.493982 0.645 255 0 127
1.339358 -16.32991 0.661 255 0 127
1.29967 -16.491505 0.645 255 0 127
1.277373 -16.306183 0.662 255 0 127
1.444445 -16.390188 0.656 255 0 127
1.283631 -16.483332 0.645 255 0 127
1.257453 -16.514887 0.642 255 0 127
1.287106 -16.32012 0.661 255 0 127
1.352553 -16.359079 0.658 255 0 127
1.33573 -16.513245 0.643 255 0 127
1.27167 -16.586103 0.635 255 0 127
1.384663 -16.370951 0.657 255 0 127
1.404189 -16.508844 0.644 255 0 127
1.366291 -16.552385 0.639 255 0 127
1.274972 -16.269045 0.666 255 0 127
1.501584 -16.463074 0.65 255 0 127
1.309831 -16.39006 0.654 255 0 127
1.302151 -16.576942 0.636 255 0 127
1.259078 -16.5954 0.634 255 0 127
1.332658 -16.446585 0.649 255 0 127
1.425119 -16.520632 0.643 255 0 127
1.279898 -16.503876 0.643 255 0 127
1.264564 -16.285067 0.664 255 0 127
1.335878 -16.316914 0.662 255 0 127
1.301133 -16.475414 0.646 255 0 127
1.51394 -16.485081 0.648 255 0 127
1.285833 -16.487822 0.645 255 0 127
1.265844 -16.46978 0.646 255 0 127
1.260177 -16.509541 0.642 255 0 127
1.337869 -16.467196 0.647 255 0 127
1.282163 -16.558903 0.638 255 0 127
1.318516 -16.48315 0.646 255 0 127
1.333388 -16.350437 0.659 255 0 127
1.348451 -16.369333 0.657 255 0 127
1.380169 -16.432634 0.651 255 0 127
1.384506 -16.450556 0.65 255 0 127
1.279563 -16.489115 0.644 255 0 127
1.433863 -16.48805 0.647 255 0 127
1.433053 -16.535898 0.642 255 0 127
1.346371 -16.5254 0.642 255 0 127
1.475512 -16.42173 0.654 255 0 127
1.455019 -16.411287 0.654 255 0 127
1.265354 -16.298937 0.663 255 0 127
1.499115 -16.434879 0.653 255 0 127
1.443957 -16.395552 0.656 255 0 127
1.504024 -16.436258 0.653 255 0 127
1.527946 -16.466402 0.65 255 0 127
1.487612 -16.477278 0.648 255 0 127
1.273185 -16.327618 0.66 255 0 127
1.262892 -16.387468 0.654 255 0 127
1.268815 -16.314167 0.661 255 0 127
1.267916 -16.432676 0.65 255 0 127
1.331326 -16.504267 0.644 255 0 127
1.306365 -16.434309 0.65 255 0 127
1.453856 -16.446611 0.651 255 0 127
1.317825 -16.515345 0.642 255 0 127
1.36641 -16.536734 0.641 255 0 127
1.380636 -16.488987 0.646 255 0 127
1.34654 -16.738729 0.607 255 0 127
1.306496 -16.711592 0.607 255 0 127
1.288158 -16.652866 0.625 255 0 127
1.383004 -16.766287 0.606 255 0 127
1.267444 -16.671492 0.612 255 0 127
1.301218 -16.699923 0.61 255 0 127
1.322819 -16.741232 0.599 255 0 127
1.352442 -16.727146 0.614 255 0 127
1.258705 -16.644592 0.62 255 0 127
1.289618 -16.696259 0.608 255 0 127
1.280504 -16.71855 0.596 255 0 127
1.333561 -16.739973 0.603 255 0 127
1.266672 -16.655386 0.618 255 0 127
1.242242 -16.69232 0.596 255 0 127
1.256671 -16.617743 0.63 255 0 127
1.307943 -16.697739 0.612 255 0 127
1.34469 -16.746765 0.603 255 0 127
1.229331 -16.684618 0.596 255 0 127
1.316535 -16.685282 0.62 255 0 127
1.284895 -16.670282 0.617 255 0 127
1.339532 -16.719444 0.613 255 0 127
1.342591 -16.728859 0.61 255 0 127
1.323175 -16.694277 0.618 255 0 127
1.370632 -16.746515 0.611 255 0 127
1.346019 -16.748564 0.603 255 0 127
1.304565 -16.671326 0.622 255 0 127
1.284152 -16.709185 0.601 255 0 127
1.24715 -16.693699 0.597 255 0 127
1.248886 -16.641834 0.618 255 0 127
1.261526 -16.68531 0.605 255 0 127
1.288022 -16.670753 0.618 255 0 127
1.290259 -16.670771 0.618 255 0 127
1.294612 -16.686457 0.613 255 0 127
1.317909 -16.739853 0.598 255 0 127
1.244766 -16.654325 0.612 255 0 127
1.315355 -16.722839 0.604 255 0 127
1.372464 -16.740715 0.614 255 0 127
1.279346 -16.694389 0.606 255 0 127
1.274436 -16.693012 0.605 255 0 127
1.267665 -16.642424 0.624 255 0 127
1.289906 -16.658245 0.623 255 0 127
1.312568 -16.677649 0.622 255 0 127
1.244426 -16.699045 0.594 255 0 127
1.292592 -16.716852 0.6 255 0 127
1.288306 -16.692223 0.609 255 0 127
1.241605 -16.658325 0.61 255 0 127
1.283885 -16.68548 0.611 255 0 127
1.294612 -16.686457 0.613 255 0 127
1.251151 -16.696859 0.597 255 0 127
1.280576 -16.650124 0.624 255 0 127
1.277411 -16.713606 0.597 255 0 127
1.356341 -16.743723 0.608 255 0 127
1.351449 -16.740108 0.608 255 0 127
1.32393 -16.712618 0.611 255 0 127
1.37902 -16.760889 0.607 255 0 127
1.301791 -16.68338 0.616 255 0 127
1.282846 -16.645668 0.627 255 0 127
1.278403 -16.700644 0.603 255 0 127
1.366193 -16.742008 0.611 255 0 127
1.374196 -16.748331 0.611 255 0 127
1.272069 -16.651402 0.621 255 0 127
1.297387 -16.674402 0.619 255 0 127
1.278255 -16.661287 0.619 255 0 127
1.335781 -16.742226 0.603 255 0 127
1.284692 -16.697115 0.606 255 0 127
1.27669 -16.690792 0.607 255 0 127
1.230625 -16.690889 0.593 255 0 127
1.274555 -16.677359 0.611 255 0 127
1.252666 -16.674063 0.606 255 0 127
1.320905 -16.69873 0.616 255 0 127
1.272489 -16.654982 0.62 255 0 127
1.373288 -16.750113 0.61 255 0 127
1.296546 -16.66724 0.622 255 0 127
1.299924 -16.693653 0.612 255 0 127
1.249557 -16.671356 0.607 255 0 127
1.397663 -16.779367 0.605 255 0 127
1.316921 -16.693335 0.617 255 0 127
1.262939 -16.67593 0.609 255 0 127
1.383106 -16.752871 0.612 255 0 127
1.363118 -16.734829 0.613 255 0 127
1.250804 -16.624853 0.626 255 0 127
1.276456 -16.662615 0.618 255 0 127
1.275731 -16.699284 0.603 255 0 127
1.296813 -16.690945 0.612 255 0 127
1.407515 -16.777653 0.609 255 0 127
1.349769 -16.725784 0.613 255 0 127
1.275701 -16.644274 0.625 255 0 127
1.376278 -16.768471 0.603 255 0 127
1.381778 -16.751072 0.612 255 0 127
1.265544 -16.686235 0.605 255 0 127
1.278034 -16.690355 0.607 255 0 127
1.289486 -16.654663 0.625 255 0 127
1.256217 -16.618633 0.63 255 0 127
1.331143 -16.70507 0.616 255 0 127
1.373152 -16.768002 0.603 255 0 127
1.346273 -16.715023 0.616 255 0 127
1.259328 -16.62134 0.63 255 0 127
1.286962 -16.692659 0.609 255 0 127
1.297938 -16.719576 0.601 255 0 127
1.35377 -16.728945 0.613 255 0 127
1.348743 -16.743217 0.606 255 0 127
1.304935 -16.681616 0.618 255 0 127
1.229262 -16.693563 0.592 255 0 127
1.295266 -16.718214 0.601 255 0 127
1.295838 -16.701672 0.608 255 0 127
1.251695 -16.625307 0.626 255 0 127
1.392823 -16.297668 0.636 255 0 127
1.387256 -16.324011 0.649 255 0 127
1.567927 -16.443005 0.635 255 0 127
1.380212 -16.3092 0.646 255 0 127
1.532779 -16.360001 0.612 255 0 127
1.58763 -16.439575 0.626 255 0 127
1.497371 -16.370018 0.629 255 0 127
1.545078 -16.448198 0.645 255 0 127
1.598526 -16.418192 0.613 255 0 127
1.406807 -16.340708 0.65 255 0 127
1.405797 -16.355906 0.656 255 0 127
1.552274 -16.442884 0.641 255 0 127
1.564769 -16.387524 0.612 255 0 127
1.586523 -16.408709 0.613 255 0 127
1.462372 -16.32637 0.623 255 0 127
1.45756 -16.371058 0.644 255 0 127
1.424865 -16.318483 0.633 255 0 127
1.38448 -16.336065 0.656 255 0 127
1.545066 -16.390951 0.62 255 0 127
1.456571 -16.324537 0.624 255 0 127
1.313739 -16.287676 0.66 255 0 127
1.331122 -16.29541 0.658 255 0 127
1.46975 -16.355944 0.633 255 0 127
1.549504 -16.395458 0.621 255 0 127
1.546644 -16.418692 0.632 255 0 127
1.431148 -16.374434 0.655 255 0 127
1.594712 -16.390434 0.603 255 0 127
1.573582 -16.345999 0.591 255 0 127
1.302156 -16.281775 0.662 255 0 127
1.53173 -16.439152 0.646 255 0 127
1.42856 -16.361893 0.651 255 0 127
1.510855 -16.361176 0.62 255 0 127
1.531276 -16.440042 0.647 255 0 127
1.552122 -16.463009 0.649 255 0 127
1.549605 -16.382042 0.616 255 0 127
1.581682 -16.398386 0.611 255 0 127
1.432964 -16.370871 0.653 255 0 127
1.415081 -16.311253 0.634 255 0 127
1.508182 -16.359814 0.621 255 0 127
1.467196 -16.33893 0.627 255 0 127
1.437004 -16.310078 0.625 255 0 127
1.539312 -16.441893 0.645 255 0 127
1.457005 -16.385365 0.65 255 0 127
1.612366 -16.362392 0.584 255 0 127
1.468626 -16.327312 0.621 255 0 127
1.438951 -16.348108 0.641 255 0 127
1.427067 -16.322971 0.634 255 0 127
1.404588 -16.338455 0.649 255 0 127
1.499302 -16.410282 0.646 255 0 127
1.467276 -16.387232 0.647 255 0 127
1.549635 -16.437052 0.639 255 0 127
1.532694 -16.37118 0.617 255 0 127
1.58424 -16.355919 0.591 255 0 127
1.537314 -16.41057 0.632 255 0 127
1.300828 -16.279974 0.662 255 0 127
1.513108 -16.358955 0.619 255 0 127
1.500855 -16.323532 0.608 255 0 127
1.541824 -16.346651 0.603 255 0 127
1.437339 -16.324839 0.631 255 0 127
1.422862 -16.346643 0.646 255 0 127
1.511495 -16.335688 0.609 255 0 127
1.618603 -16.365572 0.583 255 0 127
1.544158 -16.392735 0.622 255 0 127
1.455528 -16.344208 0.633 255 0 127
1.486009 -16.335047 0.618 255 0 127
1.400553 -16.339766 0.651 255 0 127
1.595988 -16.398941 0.606 255 0 127
1.587261 -16.429287 0.622 255 0 127
1.555554 -16.423231 0.631 255 0 127
1.412408 -16.309891 0.634 255 0 127
1.495182 -16.422773 0.652 255 0 127
1.589344 -16.449429 0.63 255 0 127
1.519732 -16.370188 0.621 255 0 127
1.351582 -16.310324 0.656 255 0 127
1.506782 -16.426439 0.65 255 0 127
1.539219 -16.336346 0.599 255 0 127
1.525383 -16.332663 0.603 255 0 127
1.554913 -16.448719 0.642 255 0 127
1.288388 -16.269148 0.662 255 0 127
1.520469 -16.390764 0.629 255 0 127
1.518535 -16.409981 0.638 255 0 127
1.265238 -16.255108 0.664 255 0 127
1.50929 -16.39068 0.633 255 0 127
1.48592 -16.405708 0.649 255 0 127
1.620385 -16.36648 0.583 255 0 127
1.542694 -16.408823 0.629 255 0 127
1.548362 -16.369062 0.61 255 0 127
1.535095 -16.408319 0.632 255 0 127
1.581932 -16.424328 0.622 255 0 127
1.343664 -16.292822 0.652 255 0 127
1.40553 -16.332199 0.646 255 0 127
1.499357 -16.344093 0.617 255 0 127
1.486951 -16.328793 0.615 255 0 127
1.560679 -16.455025 0.643 255 0 127
1.325726 -16.299395 0.661 255 0 127
1.45588 -16.356733 0.639 255 0 127
1.397777 -16.35182 0.657 255 0 127
1.347194 -16.29911 0.653 255 0 127
1.399173 -16.344675 0.654 255 0 127
1.282588 -16.267313 0.663 255 0 127
1.558855 -16.341862 0.594 255 0 127
1.43332 -16.323914 0.633 255 0 127
1.549571 -16.386515 0.617 255 0 127
1.527025 -16.41094 0.636 255 0 127
1.562551 -16.385271 0.612 255 0 127
1.443274 -16.308784 0.622 255 0 127
1.533983 -16.436934 0.645 255 0 127
1.305334 -16.275537 0.658 255 0 127
1.568198 -16.407227 0.619 255 0 127
1.312462 -16.279169 0.657 255 0 127
1.461408 -16.394342 0.653 255 0 127
1.431572 -16.318535 0.631 255 0 127
1.536202 -16.439184 0.645 255 0 127
1.328938 -16.288685 0.655 255 0 127
1.610278 -16.401733 0.601 255 0 127
1.502229 -16.378105 0.631 255 0 127
1.561252 -16.43848 0.635 255 0 127
1.600966 -16.391376 0.601 255 0 127
1.425786 -16.373947 0.657 255 0 127
1.610046 -16.373556 0.59 255 0 127
1.550577 -16.430798 0.636 255 0 127
1.535447 -16.420843 0.637 255 0 127
1.451192 -16.326286 0.627 255 0 127
1.58259 -16.396603 0.61 255 0 127
1.422612 -16.320702 0.635 255 0 127
1.559271 -16.404924 0.622 255 0 127
1.482474 -16.388241 0.643 255 0 127
1.627128 -16.362059 0.579 255 0 127
1.500095 -16.364672 0.625 255 0 127
1.377387 -16.327963 0.655 255 0 127
1.529159 -16.424374 0.641 255 0 127
1.351195 -16.302271 0.653 255 0 127
1.288859 -16.26602 0.66 255 0 127
1.47143 -16.370268 0.639 255 0 127
1.534789 -16.448566 0.649 255 0 127
1.50021 -16.408501 0.645 255 0 127
1.41402 -16.33316 0.643 255 0 127
1.476021 -16.35465 0.63 255 0 127
1.507876 -16.400061 0.638 255 0 127
1.502734 -16.370506 0.627 255 0 127
1.5973 -16.402977 0.607 255 0 127
1.395024 -16.302156 0.637 255 0 127
1.547734 -16.451796 0.646 255 0 127
1.460268 -16.367947 0.642 255 0 127
1.502195 -16.382576 0.633 255 0 127
1.464655 -16.37916 0.645 255 0 127
1.442027 -16.355286 0.643 255 0 127
1.520418 -16.397472 0.633 255 0 127
1.473416 -16.344343 0.627 255 0 127
1.617088 -16.388369 0.593 255 0 127
1.628018 -16.362513 0.578 255 0 127
1.467413 -16.369343 0.639 255 0 127
1.55093 -16.443321 0.641 255 0 127
1.46684 -16.385885 0.647 255 0 127
1.479165 -16.352884 0.629 255 0 127
1.391342 -16.315992 0.644 255 0 127
1.434411 -16.357018 0.646 255 0 127
1.467633 -16.340275 0.627 255 0 127
1.552172 -16.456301 0.646 255 0 127
1.562983 -16.446096 0.638 255 0 127
1.483467 -16.375278 0.636 255 0 127
1.600881 -16.402555 0.606 255 0 127
1.537582 -16.434277 0.642 255 0 127
1.465346 -16.346966 0.631 255 0 127
1.588843 -16.397545 0.608 255 0 127
1.375168 -16.325708 0.654 255 0 127
1.495352 -16.400414 0.643 255 0 127
1.579929 -16.452486 0.634 255 0 127
1.4853 -16.369478 0.633 255 0 127
1.541281 -16.418203 0.634 255 0 127
1.555889 -16.437992 0.637 255 0 127
1.515726 -16.426508 0.647 255 0 127
1.482729 -16.3547 0.628 255 0 127
1.336031 -16.296789 0.656 255 0 127
1.539736 -16.385992 0.62 255 0 127
1.398266 -16.346457 0.655 255 0 127
1.46748 -16.360399 0.636 255 0 127
1.580069 -16.375118 0.601 255 0 127
1.36498 -16.312662 0.652 255 0 127
1.452465 -16.394274 0.656 255 0 127
1.519498 -16.34201 0.609 255 0 127
1.439256 -16.307859 0.623 255 0 127
1.364157 -16.303263 0.649 255 0 127
1.50371 -16.359779 0.622 255 0 127
1.482373 -16.401657 0.648 255 0 127
1.558096 -16.383001 0.613 255 0 127
1.464909 -16.345621 0.63 255 0 127
1.377119 -16.304256 0.644 255 0 127
1.625294 -16.367857 0.581 255 0 127
1.477905 -16.342142 0.624 255 0 127
1.40785 -16.321037 0.64 255 0 127
1.570939 -16.399647 0.615 255 0 127
1.434678 -16.380722 0.657 255 0 127
1.455227 -16.324976 0.625 255 0 127
1.543313 -16.445053 0.645 255 0 127
1.568194 -16.466709 0.645 255 0 127
1.517745 -16.396111 0.633 255 0 127
1.488274 -16.390074 0.641 255 0 127
1.563335 -16.458622 0.643 255 0 127
1.494817 -16.353003 0.623 255 0 127
1.477638 -16.318438 0.614 255 0 127
1.611408 -16.370882 0.588 255 0 127
1.566059 -16.453276 0.64 255 0 127
1.535833 -16.428896 0.64 255 0 127
1.481469 -16.343958 0.623 255 0 127
1.402721 -16.348726 0.654 255 0 127
1.491232 -16.412905 0.649 255 0 127
1.510987 -16.402769 0.638 255 0 127
1.500617 -16.354836 0.622 255 0 127
1.548465 -16.355646 0.604 255 0 127
1.444331 -16.346359 0.638 255 0 127
1.447275 -16.311945 0.622 255 0 127
1.525349 -16.337135 0.605 255 0 127
1.546245 -16.353394 0.604 255 0 127
1.552533 -16.349863 0.6 255 0 127
1.602128 -16.356054 0.585 255 0 127
1.487184 -16.356972 0.627 255 0 127
1.300022 -16.268341 0.657 255 0 127
1.409734 -16.308529 0.635 255 0 127
1.561473 -16.409412 0.623 255 0 127
1.524318 -16.414049 0.638 255 0 127
1.538222 -16.408789 0.631 255 0 127
1.353783 -16.314814 0.658 255 0 127
1.386165 -16.290909 0.636 255 0 127
1.42772 -16.354731 0.648 255 0 127
1.335089 -16.303043 0.659 255 0 127
1.462457 -16.315191 0.618 255 0 127
1.503252 -16.420151 0.648 255 0 127
1.369435 -16.314932 0.652 255 0 127
1.557591 -16.3906 0.616 255 0 127
1.474756 -16.403387 0.652 255 0 127
1.580154 -16.363937 0.596 255 0 127
1.578457 -16.351849 0.592 255 0 127
1.421568 -16.340372 0.644 255 0 127
1.506719 -16.375902 0.628 255 0 127
1.574435 -16.410404 0.618 255 0 127
1.57326 -16.388483 0.609 255 0 127
1.575076 -16.384918 0.607 255 0 127
1.454688 -16.337046 0.63 255 0 127
1.560225 -16.455915 0.643 255 0 127
1.581983 -16.417618 0.619 255 0 127
1.512888 -16.388023 0.631 255 0 127
1.604347 -16.358307 0.585 255 0 127
1.395241 -16.332569 0.65 255 0 127
1.491788 -16.398598 0.643 255 0 127
1.465562 -16.377378 0.644 255 0 127
1.324414 -16.295359 0.66 255 0 127
1.582772 -16.431488 0.625 255 0 127
1.577567 -16.351395 0.592 255 0 127
1.496179 -16.35033 0.621 255 0 127
1.496192 -16.407576 0.645 255 0 127
1.478427 -16.332306 0.619 255 0 127
1.471079 -16.357742 0.633 255 0 127
1.580239 -16.352757 0.591 255 0 127
1.499925 -16.387032 0.636 255 0 127
1.539639 -16.339926 0.601 255 0 127
1.456669 -16.370604 0.644 255 0 127
1.36994 -16.307333 0.648 255 0 127
1.472555 -16.398899 0.65 255 0 127
1.589535 -16.365351 0.594 255 0 127
1.589955 -16.368931 0.595 255 0 127
1.478758 -16.406548 0.651 255 0 127
1.505424 -16.369631 0.626 255 0 127
1.285697 -16.270021 0.663 255 0 127
1.396705 -16.316481 0.643 255 0 127
1.360712 -16.285795 0.643 255 0 127
1.44907 -16.370098 0.647 255 0 127
1.371972 -16.334181 0.659 255 0 127
1.335527 -16.304388 0.66 255 0 127
1.439337 -16.356161 0.644 255 0 127
1.409395 -16.353249 0.654 255 0 127
1.586892 -16.418999 0.618 255 0 127
1.387256 -16.324011 0.649 255 0 127
1.53641 -16.352873 0.607 255 0 127
1.603621 -16.394974 0.601 255 0 127
1.462821 -16.38496 0.648 255 0 127
1.43697 -16.31455 0.627 255 0 127
1.51136 -16.353577 0.617 255 0 127
1.34363 -16.297295 0.654 255 0 127
1.452936 -16.391148 0.654 255 0 127
1.518051 -16.355864 0.616 255 0 127
1.569446 -16.360725 0.599 255 0 127
1.479301 -16.334997 0.621 255 0 127
1.475584 -16.353304 0.63 255 0 127
1.389258 -16.295851 0.637 255 0 127
1.550814 -16.399492 0.623 255 0 127
1.515004 -16.403694 0.637 255 0 127
1.26702 -16.256016 0.664 255 0 127
1.315101 -16.285002 0.659 255 0 127
1.300845 -16.277739 0.661 255 0 127
1.459245 -16.325899 0.624 255 0 127
1.333023 -16.280666 0.651 255 0 127
1.601908 -16.385122 0.597 255 0 127
1.58239 -16.363955 0.596 255 0 127
1.348658 -16.28302 0.645 255 0 127
1.562597 -16.438044 0.635 255 0 127
1.389526 -16.319557 0.646 255 0 127
1.619358 -16.383913 0.591 255 0 127
1.460721 -16.367056 0.641 255 0 127
1.481511 -16.6919 0.633 255 0 127
1.321597 -16.666536 0.626 255 0 127
1.434045 -16.758623 0.615 255 0 127
1.501249 -16.684 0.637 255 0 127
1.413938 -16.756235 0.614 255 0 127
1.42993 -16.711634 0.625 255 0 127
1.527661 -16.680622 0.64 255 0 127
1.478311 -16.759853 0.618 255 0 127
1.380186 -16.666086 0.631 255 0 127
1.494418 -16.759081 0.62 255 0 127
1.466682 -16.70118 0.63 255 0 127
1.494269 -16.719725 0.628 255 0 127
1.586938 -16.707458 0.639 255 0 127
1.286982 -16.630941 0.631 255 0 127
1.567098 -16.728775 0.632 255 0 127
1.418619 -16.669956 0.633 255 0 127
1.455655 -16.680969 0.634 255 0 127
1.327532 -16.65048 0.63 255 0 127
1.611148 -16.699593 0.642 255 0 127
1.276694 -16.631311 0.63 255 0 127
1.513014 -16.724787 0.629 255 0 127
1.347083 -16.667177 0.628 255 0 127
1.46285 -16.675659 0.635 255 0 127
1.43859 -16.690233 0.63 255 0 127
1.400446 -16.648352 0.636 255 0 127
1.329582 -16.675093 0.625 255 0 127
1.417541 -16.694098 0.628 255 0 127
1.527054 -16.701637 0.635 255 0 127
1.489377 -16.71611 0.629 255 0 127
1.479304 -16.746893 0.621 255 0 127
1.414851 -16.694971 0.627 255 0 127
1.566059 -16.688965 0.641 255 0 127
1.483293 -16.692808 0.633 255 0 127
1.466207 -16.763786 0.616 255 0 127
1.458141 -16.706928 0.628 255 0 127
1.425522 -16.762136 0.613 255 0 127
1.402631 -16.655075 0.635 255 0 127
1.57275 -16.691252 0.641 255 0 127
1.470717 -16.699869 0.631 255 0 127
1.542672 -16.706228 0.635 255 0 127
1.281569 -16.637161 0.629 255 0 127
1.36285 -16.711124 0.62 255 0 127
1.354564 -16.683334 0.625 255 0 127
1.373576 -16.712101 0.62 255 0 127
1.49407 -16.687075 0.635 255 0 127
1.322271 -16.636576 0.632 255 0 127
1.596001 -16.691875 0.643 255 0 127
1.562427 -16.696093 0.639 255 0 127
1.45708 -16.728834 0.623 255 0 127
1.34621 -16.664488 0.628 255 0 127
1.382724 -16.685337 0.627 255 0 127
1.552843 -16.721512 0.633 255 0 127
1.511903 -16.753401 0.622 255 0 127
1.44103 -16.663418 0.636 255 0 127
1.391816 -16.724762 0.619 255 0 127
1.466364 -16.684181 0.634 255 0 127
1.407214 -16.758421 0.613 255 0 127
1.325449 -16.630339 0.634 255 0 127
1.344309 -16.679232 0.625 255 0 127
1.398201 -16.767296 0.61 255 0 127
1.335637 -16.643387 0.632 255 0 127
1.44279 -16.726042 0.623 255 0 127
1.41334 -16.658287 0.635 255 0 127
1.368854 -16.686125 0.625 255 0 127
1.412644 -16.749964 0.615 255 0 127
1.406526 -16.731134 0.619 255 0 127
1.39953 -16.769094 0.61 255 0 127
1.38064 -16.665195 0.631 255 0 127
1.313798 -16.633383 0.632 255 0 127
1.536754 -16.720047 0.632 255 0 127
1.45162 -16.682281 0.633 255 0 127
1.435777 -16.766239 0.613 255 0 127
1.381409 -16.740782 0.614 255 0 127
1.415152 -16.714205 0.623 255 0 127
1.39849 -16.729284 0.618 255 0 127
1.384621 -16.730074 0.617 255 0 127
1.310267 -16.627094 0.634 255 0 127
1.427927 -16.739794 0.618 255 0 127
1.53773 -16.709322 0.634 255 0 127
1.465264 -16.770042 0.615 255 0 127
1.338962 -16.676508 0.625 255 0 127
1.355404 -16.690495 0.623 255 0 127
1.417303 -16.725401 0.621 255 0 127
1.277114 -16.634892 0.629 255 0 127
1.424783 -16.74156 0.618 255 0 127
1.436875 -16.68038 0.632 255 0 127
1.515234 -16.727039 0.629 255 0 127
1.422713 -16.778664 0.61 255 0 127
1.387298 -16.671955 0.63 255 0 127
1.52769 -16.735632 0.628 255 0 127
1.472665 -16.737898 0.623 255 0 127
1.529006 -16.680185 0.64 255 0 127
1.54933 -16.712988 0.634 255 0 127
1.470008 -16.734299 0.623 255 0 127
1.320235 -16.669209 0.625 255 0 127
1.571757 -16.704214 0.638 255 0 127
1.439188 -16.788179 0.609 255 0 127
1.490926 -16.688841 0.635 255 0 127
1.304735 -16.648966 0.628 255 0 127
1.410718 -16.650217 0.637 255 0 127
1.433592 -16.759514 0.615 255 0 127
1.586064 -16.704769 0.639 255 0 127
1.49247 -16.721052 0.628 255 0 127
1.578045 -16.700682 0.639 255 0 127
1.363355 -16.703526 0.621 255 0 127
1.310116 -16.647219 0.629 255 0 127
1.530313 -16.743702 0.626 255 0 127
1.404927 -16.765112 0.611 255 0 127
1.609753 -16.706738 0.641 255 0 127
1.30045 -16.624336 0.633 255 0 127
1.513065 -16.718079 0.63 255 0 127
1.524462 -16.748577 0.625 255 0 127
1.513774 -16.683649 0.638 255 0 127
1.591411 -16.707493 0.639 255 0 127
1.473504 -16.74506 0.621 255 0 127
1.571201 -16.718519 0.635 255 0 127
1.496352 -16.739866 0.624 255 0 127
1.556258 -16.683971 0.641 255 0 127
1.468027 -16.700743 0.63 255 0 127
1.394472 -16.728359 0.618 255 0 127
1.564074 -16.714888 0.635 255 0 127
1.48168 -16.66954 0.638 255 0 127
1.531255 -16.737448 0.627 255 0 127
1.519204 -16.675192 0.64 255 0 127
1.43111 -16.674076 0.633 255 0 127
1.537139 -16.7281 0.63 255 0 127
1.421241 -16.678026 0.631 255 0 127
1.322419 -16.675934 0.624 255 0 127
1.513939 -16.72077 0.63 255 0 127
1.55804 -16.684879 0.641 255 0 127
1.447415 -16.705952 0.628 255 0 127
1.383093 -16.695625 0.625 255 0 127
1.359138 -16.669952 0.628 255 0 127
1.362294 -16.725431 0.616 255 0 127
1.534772 -16.686489 0.639 255 0 127
1.289151 -16.639904 0.629 255 0 127
1.514109 -16.698408 0.635 255 0 127
1.438654 -16.740768 0.619 255 0 127
1.450355 -16.731018 0.622 255 0 127
1.519892 -16.702478 0.634 255 0 127
1.464747 -16.720396 0.626 255 0 127
1.44375 -16.717552 0.625 255 0 127
1.412089 -16.764271 0.612 255 0 127
1.391884 -16.715818 0.621 255 0 127
1.514126 -16.696173 0.635 255 0 127
1.517385 -16.738237 0.626 255 0 127
1.398673 -16.76417 0.611 255 0 127
1.401672 -16.663567 0.633 255 0 127
1.484201 -16.691027 0.634 255 0 127
1.338759 -16.703339 0.619 255 0 127
1.465303 -16.706089 0.629 255 0 127
1.46599 -16.733376 0.623 255 0 127
1.36139 -16.667732 0.629 255 0 127
1.372685 -16.711647 0.62 255 0 127
1.293657 -16.635466 0.63 255 0 127
1.428114 -16.715199 0.624 255 0 127
1.508021 -16.734589 0.626 255 0 127
1.360075 -16.723179 0.617 255 0 127
1.496421 -16.730921 0.626 255 0 127
1.322453 -16.671461 0.625 255 0 127
1.454624 -16.757885 0.617 255 0 127
1.605768 -16.701342 0.641 255 0 127
1.45316 -16.773975 0.613 255 0 127
1.36652 -16.640043 0.635 255 0 127
1.355811 -16.636831 0.635 255 0 127
1.470462 -16.733408 0.623 255 0 127
1.48701 -16.6745 0.638 255 0 127
1.483793 -16.74469 0.622 255 0 127
1.573608 -16.696177 0.64 255 0 127
1.342798 -16.642546 0.633 255 0 127
1.592857 -16.69364 0.642 255 0 127
1.288697 -16.640795 0.629 255 0 127
1.435256 -16.776075 0.611 255 0 127
1.40407 -16.760185 0.612 255 0 127
1.485648 -16.677174 0.637 255 0 127
1.455667 -16.738216 0.621 255 0 127
1.365964 -16.65435 0.632 255 0 127
1.421525 -16.699495 0.627 255 0 127
1.530669 -16.696745 0.636 255 0 127
1.527236 -16.736523 0.627 255 0 127
1.477578 -16.679794 0.636 255 0 127
1.406497 -16.676125 0.631 255 0 127
1.466949 -16.724884 0.625 255 0 127
1.370717 -16.735334 0.615 255 0 127
1.409288 -16.661835 0.634 255 0 127
1.608459 -16.700466 0.642 255 0 127
1.284225 -16.64076 0.628 255 0 127
1.404256 -16.73559 0.617 255 0 127
1.354899 -16.698093 0.622 255 0 127
1.445043 -16.723824 0.624 255 0 127
1.510291 -16.730133 0.627 255 0 127
1.416493 -16.773249 0.61 255 0 127
1.37753 -16.662487 0.631 255 0 127
1.499514 -16.735865 0.625 255 0 127
1.551179 -16.704952 0.636 255 0 127
1.355654 -16.716436 0.618 255 0 127
1.334763 -16.640697 0.632 255 0 127
1.615166 -16.700518 0.642 255 0 127
1.566343 -16.710434 0.636 255 0 127
1.517826 -16.680101 0.639 255 0 127
1.467267 -16.741882 0.621 255 0 127
1.418308 -16.769686 0.611 255 0 127
1.495919 -16.679039 0.637 255 0 127
1.553585 -16.68261 0.641 255 0 127
1.402631 -16.655075 0.635 255 0 127
1.375205 -16.733131 0.616 255 0 127
1.588267 -16.709257 0.638 255 0 127
1.612964 -16.69603 0.643 255 0 127
1.556661 -16.689787 0.64 255 0 127
1.570713 -16.723883 0.634 255 0 127
1.373143 -16.651274 0.633 255 0 127
1.377611 -16.710789 0.621 255 0 127
1.519552 -16.747198 0.624 255 0 127
1.294951 -16.641735 0.629 255 0 127
1.429561 -16.701345 0.627 255 0 127
1.42721 -16.657499 0.636 255 0 127
1.302834 -16.66371 0.625 255 0 127
1.507554 -16.678234 0.639 255 0 127
1.298146 -16.633263 0.631 255 0 127
1.439918 -16.692032 0.63 255 0 127
1.581643 -16.698027 0.64 255 0 127
1.291841 -16.639029 0.629 255 0 127
1.444267 -16.767199 0.614 255 0 127
1.426252 -16.665989 0.635 255 0 127
1.518343 -16.729746 0.628 255 0 127
1.31852 -16.659357 0.627 255 0 127
1.469186 -16.724901 0.625 255 0 127
1.505267 -16.684925 0.637 255 0 127
1.400358 -16.719011 0.621 255 0 127
1.557751 -16.722891 0.633 255 0 127
1.364178 -16.712923 0.619 255 0 127
1.340443 -16.658182 0.629 255 0 127
1.390522 -16.718491 0.62 255 0 127
1.491227 -16.708075 0.631 255 0 127
1.57485 -16.709156 0.637 255 0 127
1.357792 -16.670389 0.628 255 0 127
1.428602 -16.709835 0.625 255 0 127
1.350834 -16.644396 0.633 255 0 127
1.423807 -16.752285 0.616 255 0 127
1.48894 -16.714766 0.629 255 0 127
1.54585 -16.699991 0.637 255 0 127
1.357033 -16.711527 0.619 255 0 127
1.475007 -16.665016 0.639 255 0 127
1.586451 -16.712822 0.637 255 0 127
1.339183 -16.64744 0.631 255 0 127
1.467305 -16.677929 0.635 255 0 127
1.516044 -16.679193 0.639 255 0 127
1.283873 -16.628235 0.631 255 0 127
1.38089 -16.691135 0.625 255 0 127
1.561973 -16.696983 0.639 255 0 127
1.405687 -16.723972 0.62 255 0 127
1.491983 -16.726416 0.627 255 0 127
1.539274 -16.741533 0.627 255 0 127
1.490587 -16.733561 0.625 255 0 127
1.472096 -16.69496 0.632 255 0 127
1.449884 -16.734146 0.622 255 0 127
1.298215 -16.624319 0.633 255 0 127
1.485092 -16.691481 0.634 255 0 127
1.399347 -16.734209 0.617 255 0 127
1.434555 -16.691544 0.63 255 0 127
1.540908 -16.703085 0.636 255 0 127
1.50668 -16.675543 0.639 255 0 127
1.333468 -16.634426 0.634 255 0 127
1.423676 -16.710691 0.624 255 0 127
1.382389 -16.670576 0.63 255 0 127
1.384956 -16.744835 0.614 255 0 127
1.475133 -16.76609 0.617 255 0 127
1.306988 -16.646748 0.629 255 0 127
1.321109 -16.6719 0.625 255 0 127
1.475524 -16.714663 0.628 255 0 127
1.342845 -16.69532 0.621 255 0 127
1.333383 -16.645605 0.631 255 0 127
1.487833 -16.683897 0.636 255 0 127
1.446117 -16.759163 0.616 255 0 127
1.413188 -16.678411 0.631 255 0 127
1.507418 -16.696123 0.635 255 0 127
1.461506 -16.676096 0.635 255 0 127
1.409598 -16.562105 0.64 255 0 127
1.56154 -16.636158 0.643 255 0 127
1.465901 -16.568348 0.642 255 0 127
1.48424 -16.627073 0.641 255 0 127
1.540042 -16.581432 0.644 255 0 127
1.431555 -16.556459 0.641 255 0 127
1.468642 -16.560764 0.642 255 0 127
1.440241 -16.649548 0.638 255 0 127
1.408992 -16.58312 0.639 255 0 127
1.553101 -16.62849 0.643 255 0 127
1.369749 -16.627098 0.636 255 0 127
1.560879 -16.487673 0.648 255 0 127
1.51321 -16.581228 0.643 255 0 127
1.576285 -16.638058 0.644 255 0 127
1.557727 -16.6084 0.644 255 0 127
1.567077 -16.554804 0.646 255 0 127
1.465176 -16.605015 0.641 255 0 127
1.432073 -16.606104 0.639 255 0 127
1.410689 -16.595209 0.639 255 0 127
1.413765 -16.602388 0.639 255 0 127
1.476823 -16.661453 0.639 255 0 127
1.57219 -16.52935 0.647 255 0 127
1.501202 -16.631227 0.641 255 0 127
1.507927 -16.629042 0.642 255 0 127
1.435675 -16.543966 0.642 255 0 127
1.598509 -16.656116 0.644 255 0 127
1.418038 -16.569773 0.64 255 0 127
1.449842 -16.621893 0.64 255 0 127
1.544577 -16.632004 0.643 255 0 127
1.547136 -16.589537 0.644 255 0 127
1.507202 -16.665709 0.64 255 0 127
1.516791 -16.580809 0.644 255 0 127
1.419497 -16.613165 0.639 255 0 127
1.609621 -16.665144 0.644 255 0 127
1.454217 -16.575861 0.641 255 0 127
1.300535 -16.613155 0.634 255 0 127
1.587571 -16.565245 0.647 255 0 127
1.473178 -16.611336 0.641 255 0 127
1.519044 -16.578588 0.644 255 0 127
1.591452 -16.584059 0.646 255 0 127
1.582509 -16.58399 0.646 255 0 127
1.308673 -16.601589 0.635 255 0 127
1.497906 -16.653116 0.64 255 0 127
1.568439 -16.552132 0.646 255 0 127
1.606227 -16.640968 0.645 255 0 127
1.372138 -16.606991 0.637 255 0 127
1.481384 -16.590826 0.642 255 0 127
1.516875 -16.569628 0.644 255 0 127
1.529061 -16.613997 0.643 255 0 127
1.577948 -16.654617 0.643 255 0 127
1.450351 -16.554811 0.642 255 0 127
1.555172 -16.591387 0.645 255 0 127
1.600945 -16.688782 0.643 255 0 127
1.536075 -16.573799 0.645 255 0 127
1.459733 -16.556225 0.642 255 0 127
1.561316 -16.489017 0.648 255 0 127
1.591771 -16.601055 0.646 255 0 127
1.259849 -16.611506 0.632 255 0 127
1.553555 -16.627598 0.643 255 0 127
1.54314 -16.526894 0.646 255 0 127
1.377297 -16.634312 0.636 255 0 127
1.442532 -16.583376 0.641 255 0 127
1.588564 -16.552284 0.647 255 0 127
1.507859 -16.637985 0.641 255 0 127
1.592 -16.688715 0.643 255 0 127
1.523058 -16.638996 0.642 255 0 127
1.555138 -16.595858 0.645 255 0 127
1.442732 -16.616024 0.639 255 0 127
1.586645 -16.569263 0.647 255 0 127
1.52778 -16.66497 0.641 255 0 127
1.46025 -16.605871 0.64 255 0 127
1.403391 -16.613937 0.638 255 0 127
1.579034 -16.511513 0.648 255 0 127
1.487727 -16.521107 0.644 255 0 127
1.539032 -16.59663 0.644 255 0 127
1.567523 -16.672874 0.642 255 0 127
1.576043 -16.493155 0.649 255 0 127
1.408079 -16.644384 0.637 255 0 127
1.262069 -16.613758 0.632 255 0 127
1.601737 -16.643171 0.645 255 0 127
1.300636 -16.599739 0.634 255 0 127
1.425547 -16.64094 0.638 255 0 127
1.473751 -16.594793 0.641 255 0 127
1.571554 -16.495358 0.649 255 0 127
1.566199 -16.611595 0.644 255 0 127
1.415275 -16.639071 0.638 255 0 127
1.501478 -16.535971 0.644 255 0 127
1.518534 -16.64567 0.641 255 0 127
1.412776 -16.555868 0.64 255 0 127
1.36728 -16.598904 0.637 255 0 127
1.486281 -16.53496 0.644 255 0 127
1.448972 -16.559721 0.642 255 0 127
1.485431 -16.646759 0.64 255 0 127
1.460785 -16.653282 0.639 255 0 127
1.34391 -16.613932 0.636 255 0 127
1.338008 -16.625515 0.635 255 0 127
1.491486 -16.615053 0.641 255 0 127
1.58536 -16.679718 0.643 255 0 127
1.589034 -16.549156 0.647 255 0 127
1.519629 -16.619291 0.642 255 0 127
1.35341 -16.599693 0.636 255 0 127
1.532515 -16.512503 0.646 255 0 127
1.601907 -16.62081 0.646 255 0 127
1.456384 -16.584822 0.641 255 0 127
1.418101 -16.62031 0.638 255 0 127
1.512551 -16.608952 0.642 255 0 127
1.556152 -16.521179 0.647 255 0 127
1.384964 -16.625872 0.637 255 0 127
1.553771 -16.658012 0.642 255 0 127
1.573604 -16.51997 0.648 255 0 127
1.468778 -16.542877 0.643 255 0 127
1.551739 -16.631163 0.643 255 0 127
1.464374 -16.533899 0.643 255 0 127
1.564443 -16.489489 0.648 255 0 127
1.568181 -16.645153 0.643 255 0 127
1.490998 -16.620415 0.641 255 0 127
1.396951 -16.63759 0.637 255 0 127
1.33833 -16.583031 0.636 255 0 127
1.527385 -16.540192 0.645 255 0 127
1.559691 -16.644194 0.643 255 0 127
1.46129 -16.645683 0.639 255 0 127
1.570943 -16.575853 0.646 255 0 127
1.418152 -16.613602 0.639 255 0 127
1.539587 -16.582323 0.644 255 0 127
1.586964 -16.58626 0.646 255 0 127
1.543657 -16.57654 0.645 255 0 127
1.543275 -16.509007 0.647 255 0 127
1.577133 -16.526258 0.648 255 0 127
1.516358 -16.519983 0.646 255 0 127
1.416188 -16.577808 0.64 255 0 127
1.614059 -16.669651 0.644 255 0 127
1.527754 -16.55048 0.645 255 0 127
1.394854 -16.560205 0.639 255 0 127
1.439435 -16.637913 0.639 255 0 127
1.317634 -16.599422 0.635 255 0 127
1.561685 -16.499306 0.648 255 0 127
1.561829 -16.598145 0.645 255 0 127
1.470858 -16.622499 0.64 255 0 127
1.559021 -16.614672 0.644 255 0 127
1.33559 -16.590612 0.636 255 0 127
1.398817 -16.627319 0.637 255 0 127
1.413395 -16.592098 0.639 255 0 127
1.435217 -16.60434 0.64 255 0 127
1.451794 -16.600441 0.64 255 0 127
1.439927 -16.573069 0.641 255 0 127
1.582118 -16.63542 0.644 255 0 127
1.285303 -16.616619 0.633 255 0 127
1.49715 -16.634773 0.641 255 0 127
1.591266 -16.608656 0.645 255 0 127
1.453427 -16.561991 0.642 255 0 127
1.295155 -16.614904 0.634 255 0 127
1.570489 -16.576744 0.646 255 0 127
1.548939 -16.528727 0.647 255 0 127
1.605904 -16.683453 0.644 255 0 127
1.552639 -16.512655 0.647 255 0 127
1.498211 -16.612867 0.642 255 0 127
1.585076 -16.658251 0.644 255 0 127
1.519332 -16.540577 0.645 255 0 127
1.501338 -16.613338 0.642 255 0 127
1.542897 -16.61768 0.643 255 0 127
1.535727 -16.501793 0.647 255 0 127
1.543377 -16.49559 0.647 255 0 127
1.431988 -16.617285 0.639 255 0 127
1.520418 -16.633162 0.642 255 0 127
1.578979 -16.577703 0.646 255 0 127
1.544569 -16.515276 0.647 255 0 127
1.538947 -16.607811 0.643 255 0 127
1.403692 -16.633169 0.637 255 0 127
1.567154 -16.662586 0.643 255 0 127
1.429875 -16.542135 0.641 255 0 127
1.282698 -16.606312 0.633 255 0 127
1.568003 -16.550785 0.647 255 0 127
1.334177 -16.599995 0.636 255 0 127
1.43402 -16.644133 0.638 255 0 127
1.571498 -16.561546 0.646 255 0 127
1.485457 -16.525562 0.644 255 0 127
1.57903 -16.570995 0.646 255 0 127
1.578571 -16.631367 0.644 255 0 127
1.459728 -16.615705 0.64 255 0 127
1.372006 -16.565399 0.638 255 0 127
1.6131 -16.678141 0.644 255 0 127
1.59811 -16.590818 0.646 255 0 127
1.379384 -16.594971 0.638 255 0 127
1.529604 -16.542444 0.645 255 0 127
1.431589 -16.551987 0.641 255 0 127
1.568839 -16.61743 0.644 255 0 127
1.407643 -16.643038 0.637 255 0 127
1.585572 -16.533924 0.648 255 0 127
1.352587 -16.590296 0.637 255 0 127
1.601924 -16.618574 0.646 255 0 127
1.487536 -16.605185 0.642 255 0 127
1.539855 -16.606028 0.644 255 0 127
1.449796 -16.569118 0.641 255 0 127
1.357411 -16.602854 0.637 255 0 127
1.414269 -16.59479 0.639 255 0 127
1.310539 -16.591318 0.635 255 0 127
1.563263 -16.527046 0.647 255 0 127
1.532761 -16.597925 0.644 255 0 127
1.574537 -16.632677 0.644 255 0 127
1.474187 -16.596138 0.641 255 0 127
1.505127 -16.526606 0.645 255 0 127
1.377013 -16.612843 0.637 255 0 127
1.522243 -16.510635 0.646 255 0 127
1.423048 -16.557735 0.641 255 0 127
1.509908 -16.6626 0.64 255 0 127
1.529226 -16.651117 0.642 255 0 127
1.430138 -16.62532 0.639 255 0 127
1.525816 -16.629177 0.642 255 0 127
1.526236 -16.632759 0.642 255 0 127
1.365515 -16.59576 0.637 255 0 127
1.558464 -16.628979 0.644 255 0 127
1.527729 -16.671679 0.641 255 0 127
1.543363 -16.674034 0.641 255 0 127
1.435302 -16.593161 0.64 255 0 127
1.572941 -16.607174 0.645 255 0 127
1.407897 -16.609499 0.638 255 0 127
1.514576 -16.519075 0.645 255 0 127
1.504266 -16.58116 0.643 255 0 127
1.503362 -16.523462 0.645 255 0 127
1.457042 -16.557098 0.642 255 0 127
1.361934 -16.59618 0.637 255 0 127
1.594474 -16.657427 0.644 255 0 127
1.550615 -16.602531 0.644 255 0 127
1.350096 -16.623819 0.636 255 0 127
1.419263 -16.584988 0.64 255 0 127
1.569861 -16.659475 0.643 255 0 127
1.412136 -16.581356 0.639 255 0 127
1.496107 -16.654444 0.64 255 0 127
1.574626 -16.562017 0.646 255 0 127
1.4238 -16.635559 0.638 255 0 127
1.544213 -16.562233 0.645 255 0 127
1.529511 -16.672586 0.641 255 0 127
1.421805 -16.544756 0.641 255 0 127
1.528849 -16.524103 0.646 255 0 127
1.563972 -16.492615 0.648 255 0 127
1.541217 -16.603355 0.644 255 0 127
1.566165 -16.616068 0.644 255 0 127
1.500197 -16.586943 0.643 255 0 127
1.413022 -16.641291 0.637 255 0 127
1.464455 -16.582199 0.641 255 0 127
1.468155 -16.566128 0.642 255 0 127
1.586764 -16.553612 0.647 255 0 127
1.290212 -16.617996 0.633 255 0 127
1.518534 -16.64567 0.641 255 0 127
1.442701 -16.561016 0.641 255 0 127
1.605993 -16.612791 0.646 255 0 127
1.560306 -16.504215 0.648 255 0 127
1.530401 -16.67304 0.641 255 0 127
1.487405 -16.563591 0.643 255 0 127
1.455193 -16.565136 0.642 255 0 127
1.472915 -16.528151 0.644 255 0 127
1.444097 -16.553871 0.642 255 0 127
1.46092 -16.635393 0.639 255 0 127
1.53705 -16.563074 0.645 255 0 127
1.550645 -16.657541 0.642 255 0 127
1.547132 -16.649017 0.642 255 0 127
1.387285 -16.61471 0.637 255 0 127
1.321147 -16.607946 0.635 255 0 127
1.459474 -16.649246 0.639 255 0 127
1.484027 -16.537178 0.644 255 0 127
1.454836 -16.612091 0.64 255 0 127
1.381587 -16.599461 0.638 255 0 127
1.488596 -16.583279 0.642 255 0 127
1.551413 -16.49744 0.648 255 0 127
1.351242 -16.590733 0.637 255 0 127
1.586833 -16.544668 0.647 255 0 127
1.560687 -16.571751 0.646 255 0 127
1.544492 -16.643183 0.642 255 0 127
1.386259 -16.632143 0.637 255 0 127
1.527479 -16.645737 0.642 255 0 127
1.584826 -16.632309 0.644 255 0 127
1.31903 -16.592278 0.635 255 0 127
1.538277 -16.578289 0.644 255 0 127
1.543284 -16.625732 0.643 255 0 127
1.550508 -16.67543 0.642 255 0 127
1.447576 -16.566866 0.641 255 0 127
1.565754 -16.493525 0.648 255 0 127
1.569228 -16.566002 0.646 255 0 127
1.51425 -16.62104 0.642 255 0 127
1.576102 -16.603172 0.645 255 0 127
1.578814 -16.540583 0.647 255 0 127
1.521449 -16.556246 0.645 255 0 127
1.545545 -16.504551 0.647 255 0 127
1.39687 -16.589291 0.639 255 0 127
1.470789 -16.631443 0.64 255 0 127
1.56191 -16.646446 0.643 255 0 127
1.532421 -16.642645 0.642 255 0 127
1.49729 -16.557405 0.644 255 0 127
1.417562 -16.632381 0.638 255 0 127
1.435115 -16.617756 0.639 255 0 127
1.509561 -16.590593 0.643 255 0 127
1.525416 -16.563879 0.644 255 0 127
1.504736 -16.578033 0.643 255 0 127
1.417948 -16.640434 0.638 255 0 127
1.347894 -16.619329 0.636 255 0 127
1.53537 -16.54875 0.645 255 0 127
1.570947 -16.516373 0.648 255 0 127
1.391137 -16.578514 0.639 255 0 127
1.502297 -16.604849 0.642 255 0 127
1.394765 -16.630867 0.637 255 0 127
1.490709 -16.658428 0.64 255 0 127
1.349676 -16.620237 0.636 255 0 127
1.454301 -16.564682 0.642 255 0 127
1.525124 -16.661373 0.641 255 0 127
1.58152 -16.537472 0.648 255 0 127
1.535799 -16.669056 0.641 255 0 127
1.543397 -16.669561 0.642 255 0 127
1.320574 -16.624489 0.634 255 0 127
1.570489 -16.576744 0.646 255 0 127
1.516248 -16.652361 0.641 255 0 127
1.590672 -16.686914 0.643 255 0 127
1.50828 -16.641567 0.641 255 0 127
1.537263 -16.652967 0.642 255 0 127
1.597435 -16.620777 0.645 255 0 127
1.530109 -16.534845 0.646 255 0 127
1.559656 -16.648666 0.643 255 0 127
1.42755 -16.61278 0.639 255 0 127
1.449142 -16.537361 0.642 255 0 127
1.469788 -16.527679 0.643 255 0 127
1.516383 -16.634474 0.642 255 0 127
1.500731 -16.634354 0.641 255 0 127
1.38577 -16.637506 0.636 255 0 127
1.37061 -16.572544 0.638 255 0 127
1.602526 -16.657042 0.644 255 0 127
1.516778 -16.523563 0.645 255 0 127
1.596731 -16.595726 0.646 255 0 127
1.569937 -16.53157 0.647 255 0 127
1.589764 -16.688696 0.643 255 0 127
1.56698 -16.508739 0.648 255 0 127
1.579293 -16.654181 0.643 255 0 127
1.59626 -16.598854 0.646 255 0 127
1.402063 -16.612139 0.638 255 0 127
1.49208 -16.536793 0.644 255 0 127
1.588157 -16.605947 0.645 255 0 127
1.411257 -16.638147 0.637 255 0 127
1.621926 -16.693861 0.644 255 0 127
1.557799 -16.539974 0.647 255 0 127
1.588564 -16.552284 0.647 255 0 127
1.470806 -16.629208 0.64 255 0 127
1.462457 -16.550879 0.642 255 0 127
1.415802 -16.569756 0.64 255 0 127
1.39376 -16.586582 0.638 255 0 127
1.375736 -16.604336 0.637 255 0 127
1.52052 -16.619745 0.642 255 0 127
1.626868 -16.690767 0.644 255 0 127
1.622935 -16.678661 0.644 255 0 127
1.570896 -16.523079 0.648 255 0 127
1.485334 -16.600695 0.642 255 0 127
1.42937 -16.549734 0.641 255 0 127
1.447021 -16.581173 0.641 255 0 127
1.378188 -16.634766 0.636 255 0 127
1.417061 -16.5805 0.64 255 0 127
1.405631 -16.554474 0.64 255 0 127
1.366775 -16.606503 0.637 255 0 127
1.510252 -16.558397 0.644 255 0 127
1.376071 -16.619097 0.637 255 0 127
1.564337 -16.562386 0.646 255 0 127
1.556648 -16.632542 0.643 255 0 127
1.563136 -16.661661 0.643 255 0 127
1.608127 -16.626225 0.646 255 0 127
1.545608 -16.555088 0.646 255 0 127
1.487201 -16.590424 0.642 255 0 127
1.513952 -16.542326 0.645 255 0 127
1.431386 -16.578817 0.64 255 0 127
1.558113 -16.616453 0.644 255 0 127
1.450483 -16.596405 0.64 255 0 127
1.440346 -16.576651 0.641 255 0 127
1.471595 -16.643078 0.64 255 0 127
1.508784 -16.633966 0.641 255 0 127
1.504851 -16.621862 0.642 255 0 127
1.579773 -16.532091 0.648 255 0 127
1.441217 -16.638821 0.639 255 0 127
1.451849 -16.534252 0.643 255 0 127
1.52478 -16.529886 0.646 255 0 127
1.478961 -16.615406 0.641 255 0 127
1.519595 -16.623764 0.642 255 0 127
1.497575 -16.578875 0.643 255 0 127
1.583629 -16.672102 0.643 255 0 127
1.383657 -16.562355 0.639 255 0 127
1.574982 -16.51506 0.648 255 0 127
1.406047 -16.617535 0.638 255 0 127
1.481231 -16.61095 0.641 255 0 127
1.479512 -16.66058 0.639 255 0 127
1.613253 -16.422327 0.604 255 0 127
1.615485 -16.481827 0.614 255 0 127
1.625519 -16.514997 0.612 255 0 127
1.602863 -16.436113 0.616 255 0 127
1.625438 -16.466696 0.603 255 0 127
1.593261 -16.463768 0.63 255 0 127
1.622014 -16.623199 0.636 255 0 127
1.588381 -16.517399 0.644 255 0 127
1.618416 -16.625856 0.639 255 0 127
1.594012 -16.541592 0.644 255 0 127
1.582365 -16.485153 0.643 255 0 127
1.612429 -16.41293 0.604 255 0 127
1.606303 -16.513063 0.628 255 0 127
1.595343 -16.48391 0.632 255 0 127
1.609566 -16.495646 0.622 255 0 127
1.615413 -16.550251 0.627 255 0 127
1.628371 -16.375036 0.583 255 0 127
1.619176 -16.584717 0.631 255 0 127
1.618794 -16.517183 0.618 255 0 127
1.579992 -16.503023 0.648 255 0 127
1.618425 -16.506893 0.617 255 0 127
1.616724 -16.554287 0.627 255 0 127
1.608921 -16.580614 0.639 255 0 127
1.602955 -16.541658 0.637 255 0 127
1.609591 -16.610136 0.644 255 0 127
1.625777 -16.657665 0.639 255 0 127
1.624725 -16.560608 0.621 255 0 127
1.626041 -16.505163 0.609 255 0 127
1.577036 -16.480192 0.646 255 0 127
1.600253 -16.485289 0.628 255 0 127
1.612837 -16.594954 0.638 255 0 127
1.626287 -16.590584 0.626 255 0 127
1.576077 -16.488682 0.649 255 0 127
1.594736 -16.504925 0.636 255 0 127
1.607873 -16.424076 0.609 255 0 127
1.620152 -16.57399 0.628 255 0 127
1.592671 -16.482548 0.634 255 0 127
1.614203 -16.532801 0.625 255 0 127
1.61324 -16.600771 0.639 255 0 127
1.631052 -16.493126 0.603 255 0 127
1.617054 -16.628529 0.641 255 0 127
1.623525 -16.659883 0.642 255 0 127
1.612998 -16.455868 0.611 255 0 127
1.61041 -16.443327 0.611 255 0 127
1.603473 -16.591307 0.645 255 0 127
1.62876 -16.559298 0.617 255 0 127
1.606994 -16.480867 0.621 255 0 127
1.627912 -16.43541 0.595 255 0 127
1.598204 -16.460676 0.625 255 0 127
1.614903 -16.617331 0.64 255 0 127
1.594079 -16.532648 0.642 255 0 127
1.595793 -16.5425 0.642 255 0 127
1.6022 -16.523317 0.633 255 0 127
1.588653 -16.481623 0.637 255 0 127
1.593612 -16.476294 0.631 255 0 127
1.609718 -16.475521 0.618 255 0 127
1.61428 -16.404894 0.6 255 0 127
1.621608 -16.441175 0.601 255 0 127
1.613265 -16.479574 0.615 255 0 127
1.62868 -16.510996 0.608 255 0 127
1.602222 -16.461599 0.621 255 0 127
1.628569 -16.643375 0.634 255 0 127
1.628315 -16.441225 0.596 255 0 127
1.600532 -16.566238 0.643 255 0 127
1.617394 -16.583809 0.632 255 0 127
1.626202 -16.601765 0.628 255 0 127
1.62826 -16.507416 0.608 255 0 127
1.595408 -16.534447 0.641 255 0 127
1.605497 -16.501429 0.627 255 0 127
1.603995 -16.58147 0.643 255 0 127
1.594381 -16.551882 0.646 255 0 127
1.600151 -16.498705 0.63 255 0 127
1.598152 -16.467382 0.626 255 0 127
1.62815 -16.404104 0.588 255 0 127
1.621489 -16.456827 0.604 255 0 127
1.621696 -16.606203 0.632 255 0 127
1.626635 -16.426901 0.594 255 0 127
1.595577 -16.512087 0.636 255 0 127
