ply
format ascii 1.0
element vertex 1337
property double x
property double y
property double z
property uchar red
property uchar green
property uchar blue
element face 0
property list uchar int vertex_indices
end_header
3.257943 -12.267111 0.504 0 170 255
3.292654 -12.348769 0.517 0 170 255
3.346916 -12.447124 0.526 0 170 255
3.212269 -12.215779 0.511 0 170 255
3.300087 -12.312153 0.497 0 170 255
3.30806 -12.263466 0.469 0 170 255
3.240763 -12.232544 0.499 0 170 255
3.33325 -12.421081 0.523 0 170 255
3.34171 -12.36703 0.494 0 170 255
3.311938 -12.34176 0.502 0 170 255
3.249975 -12.256316 0.504 0 170 255
3.275631 -12.234596 0.478 0 170 255
3.341354 -12.413986 0.515 0 170 255
3.341024 -12.339745 0.482 0 170 255
3.309405 -12.263028 0.468 0 170 255
3.302052 -12.347946 0.511 0 170 255
3.257812 -12.225516 0.485 0 170 255
3.244663 -12.24912 0.504 0 170 255
3.342092 -12.434565 0.523 0 170 255
3.251689 -12.266169 0.507 0 170 255
3.342916 -12.443962 0.527 0 170 255
3.301437 -12.252234 0.468 0 170 255
3.279514 -12.253409 0.483 0 170 255
3.318205 -12.399947 0.524 0 170 255
3.235905 -12.224457 0.499 0 170 255
3.331536 -12.411228 0.52 0 170 255
3.272959 -12.233234 0.479 0 170 255
3.234056 -12.232492 0.504 0 170 255
3.324311 -12.361532 0.502 0 170 255
3.303049 -12.275502 0.478 0 170 255
3.291012 -12.270492 0.484 0 170 255
3.265708 -12.304736 0.516 0 170 255
3.297177 -12.342095 0.512 0 170 255
3.361257 -12.443207 0.515 0 170 255
3.332482 -12.345494 0.49 0 170 255
3.287147 -12.249443 0.476 0 170 255
3.274753 -12.291389 0.503 0 170 255
3.300525 -12.313498 0.497 0 170 255
3.246293 -12.270152 0.513 0 170 255
3.251252 -12.264823 0.507 0 170 255
3.311925 -12.284514 0.476 0 170 255
3.247654 -12.26748 0.51 0 170 255
3.329661 -12.304774 0.474 0 170 255
3.351796 -12.393493 0.499 0 170 255
3.297431 -12.308555 0.497 0 170 255
3.29607 -12.311228 0.499 0 170 255
3.336478 -12.408135 0.516 0 170 255
3.297385 -12.255782 0.472 0 170 255
3.085885 -12.545321 0.556 0 170 255
3.049803 -12.585298 0.542 0 170 255
3.058459 -12.623377 0.525 0 170 255
3.177595 -12.541545 0.549 0 170 255
3.193633 -12.549717 0.544 0 170 255
3.113655 -12.598752 0.53 0 170 255
3.059978 -12.541099 0.56 0 170 255
3.094592 -12.576693 0.542 0 170 255
3.032454 -12.573091 0.549 0 170 255
3.130736 -12.587253 0.534 0 170 255
3.22492 -12.55219 0.54 0 170 255
3.096191 -12.542716 0.556 0 170 255
3.010162 -12.563976 0.555 0 170 255
3.085766 -12.560973 0.549 0 170 255
3.16367 -12.608523 0.522 0 170 255
3.173 -12.616644 0.517 0 170 255
3.181643 -12.597478 0.524 0 170 255
3.121538 -12.620726 0.52 0 170 255
3.121772 -12.648902 0.508 0 170 255
3.004663 -12.581376 0.548 0 170 255
3.088388 -12.569042 0.545 0 170 255
3.18247 -12.547395 0.546 0 170 255
3.207923 -12.552508 0.541 0 170 255
3.255032 -12.532741 0.545 0 170 255
3.00359 -12.546037 0.563 0 170 255
3.205666 -12.614209 0.515 0 170 255
3.131394 -12.55953 0.545 0 170 255
3.258477 -12.550209 0.537 0 170 255
3.191749 -12.562224 0.538 0 170 255
3.165049 -12.603614 0.523 0 170 255
3.086305 -12.548902 0.554 0 170 255
3.117282 -12.651105 0.508 0 170 255
2.993182 -12.562058 0.557 0 170 255
3.146053 -12.572611 0.538 0 170 255
3.203214 -12.583778 0.528 0 170 255
3.244858 -12.576939 0.527 0 170 255
3.107638 -12.566505 0.545 0 170 255
3.214309 -12.595042 0.522 0 170 255
3.231929 -12.571474 0.531 0 170 255
3.226397 -12.593346 0.522 0 170 255
3.084014 -12.615074 0.526 0 170 255
3.222718 -12.547701 0.542 0 170 255
3.316647 -12.546178 0.533 0 170 255
3.115844 -12.545995 0.553 0 170 255
3.095834 -12.589672 0.536 0 170 255
3.057301 -12.599218 0.536 0 170 255
3.190472 -12.553718 0.542 0 170 255
2.991922 -12.551315 0.562 0 170 255
3.147025 -12.621367 0.518 0 170 255
3.19281 -12.540318 0.547 0 170 255
3.252389 -12.586388 0.522 0 170 255
3.015661 -12.546576 0.562 0 170 255
3.291898 -12.566114 0.527 0 170 255
3.246237 -12.57203 0.529 0 170 255
3.171336 -12.600083 0.525 0 170 255
3.165622 -12.58707 0.53 0 170 255
3.377155 -12.528749 0.535 0 170 255
3.174345 -12.616207 0.517 0 170 255
3.28872 -12.572351 0.525 0 170 255
3.210562 -12.558343 0.538 0 170 255
3.097196 -12.586999 0.537 0 170 255
3.058629 -12.601017 0.535 0 170 255
3.032789 -12.587851 0.543 0 170 255
3.194338 -12.574766 0.533 0 170 255
3.078015 -12.580592 0.541 0 170 255
3.139714 -12.58285 0.535 0 170 255
3.080869 -12.616838 0.526 0 170 255
3.106833 -12.554872 0.55 0 170 255
3.052408 -12.595603 0.537 0 170 255
3.155066 -12.563735 0.541 0 170 255
3.010497 -12.578737 0.549 0 170 255
3.291716 -12.53123 0.542 0 170 255
3.314781 -12.55645 0.529 0 170 255
3.159707 -12.541409 0.55 0 170 255
3.116247 -12.551812 0.55 0 170 255
3.227742 -12.592909 0.522 0 170 255
3.121339 -12.588077 0.534 0 170 255
3.092907 -12.62185 0.523 0 170 255
3.272648 -12.568652 0.528 0 170 255
3.108359 -12.589319 0.535 0 170 255
3.131394 -12.55953 0.545 0 170 255
3.146303 -12.598552 0.527 0 170 255
2.959743 -12.548388 0.566 0 170 255
3.119642 -12.575988 0.539 0 170 255
3.080251 -12.580608 0.541 0 170 255
3.090086 -12.581131 0.54 0 170 255
3.025963 -12.603453 0.537 0 170 255
3.268227 -12.56191 0.531 0 170 255
3.050729 -12.581279 0.543 0 170 255
3.165452 -12.609431 0.521 0 170 255
3.150708 -12.607531 0.523 0 170 255
3.090035 -12.587838 0.537 0 170 255
3.32692 -12.548045 0.532 0 170 255
3.217367 -12.604459 0.518 0 170 255
3.258091 -12.542155 0.541 0 170 255
3.110074 -12.599172 0.531 0 170 255
3.032789 -12.587851 0.543 0 170 255
3.29158 -12.549118 0.535 0 170 255
3.129243 -12.548333 0.55 0 170 255
3.228586 -12.54059 0.544 0 170 255
2.985952 -12.571842 0.554 0 170 255
3.136321 -12.558673 0.545 0 170 255
3.088435 -12.621816 0.523 0 170 255
3.119913 -12.540212 0.555 0 170 255
3.296371 -12.566149 0.527 0 170 255
3.258172 -12.590457 0.52 0 170 255
3.129794 -12.593507 0.531 0 170 255
3.151688 -12.537323 0.553 0 170 255
3.057987 -12.626504 0.524 0 170 255
3.33958 -12.529804 0.538 0 170 255
3.119267 -12.62518 0.518 0 170 255
3.258142 -12.535447 0.544 0 170 255
3.209315 -12.604844 0.519 0 170 255
3.039867 -12.598191 0.538 0 170 255
3.150207 -12.555648 0.545 0 170 255
3.027341 -12.598543 0.538 0 170 255
3.104558 -12.618807 0.523 0 170 255
3.210711 -12.597699 0.522 0 170 255
3.064497 -12.593905 0.537 0 170 255
3.363671 -12.53759 0.533 0 170 255
3.093718 -12.574002 0.543 0 170 255
3.167794 -12.536551 0.552 0 170 255
3.124529 -12.639085 0.512 0 170 255
3.337225 -12.54544 0.532 0 170 255
3.157433 -12.605345 0.523 0 170 255
3.056058 -12.586239 0.541 0 170 255
2.97627 -12.551197 0.564 0 170 255
3.138641 -12.54751 0.55 0 170 255
3.032539 -12.56191 0.554 0 170 255
3.32596 -12.556535 0.528 0 170 255
3.147445 -12.624947 0.516 0 170 255
3.234602 -12.572836 0.53 0 170 255
3.193578 -12.615906 0.515 0 170 255
3.127945 -12.601543 0.528 0 170 255
2.991451 -12.554442 0.561 0 170 255
3.156304 -12.636195 0.51 0 170 255
3.11416 -12.591152 0.533 0 170 255
3.021558 -12.594475 0.541 0 170 255
3.146638 -12.613314 0.521 0 170 255
3.123876 -12.607326 0.526 0 170 255
3.255838 -12.544374 0.54 0 170 255
3.1213 -12.652029 0.507 0 170 255
3.277575 -12.567796 0.528 0 170 255
3.246861 -12.548779 0.539 0 170 255
3.284469 -12.543251 0.538 0 170 255
3.017121 -12.589968 0.543 0 170 255
3.017103 -12.592205 0.543 0 170 255
3.288521 -12.539703 0.539 0 170 255
3.002648 -12.552292 0.561 0 170 255
3.141178 -12.56676 0.542 0 170 255
3.063673 -12.584507 0.541 0 170 255
3.250221 -12.577427 0.526 0 170 255
3.341697 -12.545474 0.531 0 170 255
3.192182 -12.623051 0.512 0 170 255
3.089449 -12.547137 0.555 0 170 255
3.201885 -12.581979 0.529 0 170 255
3.087209 -12.606601 0.53 0 170 255
3.024605 -12.546644 0.561 0 170 255
3.036052 -12.570434 0.55 0 170 255
3.036235 -12.605319 0.535 0 170 255
3.185996 -12.613164 0.517 0 170 255
3.245969 -12.548325 0.539 0 170 255
2.989533 -12.571423 0.554 0 170 255
3.038458 -12.548091 0.559 0 170 255
3.217185 -12.569573 0.533 0 170 255
3.153262 -12.624544 0.515 0 170 255
3.14921 -12.62809 0.515 0 170 255
3.126447 -12.622104 0.519 0 170 255
3.066885 -12.573799 0.545 0 170 255
3.253903 -12.563591 0.532 0 170 255
3.094706 -12.620522 0.523 0 170 255
3.337679 -12.544548 0.532 0 170 255
3.029191 -12.590508 0.542 0 170 255
3.090051 -12.585603 0.538 0 170 255
3.021864 -12.554227 0.558 0 170 255
3.05907 -12.542881 0.559 0 170 255
3.192738 -12.608744 0.518 0 170 255
3.002058 -12.571071 0.553 0 170 255
3.223592 -12.550391 0.541 0 170 255
3.182936 -12.603749 0.521 0 170 255
3.226838 -12.535211 0.547 0 170 255
3.096929 -12.563293 0.547 0 170 255
3.172244 -12.598301 0.525 0 170 255
3.070921 -12.572488 0.546 0 170 255
3.13408 -12.618136 0.52 0 170 255
3.276128 -12.581648 0.522 0 170 255
2.973597 -12.549834 0.565 0 170 255
2.967814 -12.545766 0.567 0 170 255
3.111792 -12.549542 0.551 0 170 255
3.201665 -12.611048 0.517 0 170 255
3.201715 -12.60434 0.52 0 170 255
3.07944 -12.628456 0.521 0 170 255
3.084014 -12.615074 0.526 0 170 255
3.185966 -12.558155 0.541 0 170 255
3.164175 -12.600924 0.524 0 170 255
3.111588 -12.576375 0.54 0 170 255
3.273205 -12.554345 0.534 0 170 255
3.160174 -12.597763 0.527 0 170 255
3.115895 -12.539288 0.556 0 170 255
3.101503 -12.549911 0.552 0 170 255
3.097917 -12.609813 0.527 0 170 255
3.109298 -12.642547 0.512 0 170 255
3.100506 -12.622355 0.521 0 170 255
3.316194 -12.547069 0.533 0 170 255
3.047164 -12.579463 0.545 0 170 255
3.234756 -12.552711 0.538 0 170 255
3.281105 -12.574083 0.525 0 170 255
3.086233 -12.617326 0.525 0 170 255
3.098974 -12.647388 0.511 0 170 255
3.03696 -12.568652 0.55 0 170 255
3.234569 -12.577308 0.528 0 170 255
3.086555 -12.574842 0.543 0 170 255
3.068918 -12.600648 0.534 0 170 255
3.277053 -12.57763 0.524 0 170 255
3.313486 -12.550179 0.532 0 170 255
3.003153 -12.544693 0.564 0 170 255
3.236368 -12.57598 0.528 0 170 255
3.068366 -12.555473 0.553 0 170 255
3.262847 -12.563659 0.531 0 170 255
3.157734 -12.624578 0.515 0 170 255
3.159067 -12.566895 0.54 0 170 255
3.048624 -12.622855 0.526 0 170 255
3.033985 -12.548058 0.559 0 170 255
3.120375 -12.656047 0.505 0 170 255
3.219223 -12.536941 0.547 0 170 255
3.243297 -12.546963 0.54 0 170 255
3.201177 -12.61641 0.514 0 170 255
3.036404 -12.582959 0.544 0 170 255
3.156372 -12.627251 0.514 0 170 255
3.155638 -12.547192 0.548 0 170 255
3.223592 -12.550391 0.54 0 170 255
3.245061 -12.550106 0.539 0 170 255
3.083072 -12.621327 0.524 0 170 255
3.062918 -12.566166 0.549 0 170 255
2.987013 -12.549937 0.563 0 170 255
3.145663 -12.624039 0.516 0 170 255
3.260442 -12.586002 0.522 0 170 255
3.246288 -12.565322 0.532 0 170 255
3.185241 -12.594822 0.525 0 170 255
3.108126 -12.561143 0.547 0 170 255
2.986979 -12.554409 0.561 0 170 255
3.094273 -12.559695 0.549 0 170 255
3.10152 -12.547676 0.553 0 170 255
3.224211 -12.586621 0.525 0 170 255
3.145582 -12.575738 0.537 0 170 255
3.164162 -12.543678 0.549 0 170 255
3.057755 -12.598327 0.536 0 170 255
3.302238 -12.559038 0.529 0 170 255
3.187345 -12.553246 0.543 0 170 255
3.096611 -12.546296 0.554 0 170 255
3.114727 -12.63409 0.515 0 170 255
3.223172 -12.546809 0.542 0 170 255
3.26527 -12.53908 0.541 0 170 255
3.330449 -12.554333 0.529 0 170 255
3.078179 -12.617713 0.526 0 170 255
3.115102 -12.584898 0.536 0 170 255
3.153165 -12.578479 0.535 0 170 255
3.067289 -12.579616 0.543 0 170 255
3.090943 -12.586057 0.538 0 170 255
3.069236 -12.617645 0.526 0 170 255
3.005741 -12.557235 0.558 0 170 255
3.090556 -12.578003 0.541 0 170 255
3.214393 -12.583863 0.527 0 170 255
3.249012 -12.559976 0.534 0 170 255
3.095346 -12.595035 0.534 0 170 255
3.10337 -12.539639 0.556 0 170 255
3.15871 -12.613853 0.52 0 170 255
3.316227 -12.542597 0.535 0 170 255
3.22722 -12.602744 0.518 0 170 255
3.201364 -12.591814 0.525 0 170 255
3.293698 -12.564787 0.528 0 170 255
3.058425 -12.627849 0.523 0 170 255
3.194355 -12.57253 0.534 0 170 255
3.26384 -12.550696 0.536 0 170 255
3.196302 -12.610559 0.517 0 170 255
3.173594 -12.538383 0.55 0 170 255
2.993301 -12.546407 0.564 0 170 255
3.177069 -12.61086 0.519 0 170 255
3.146355 -12.591845 0.53 0 170 255
3.222196 -12.557536 0.538 0 170 255
3.135866 -12.559565 0.545 0 170 255
3.163114 -12.622829 0.515 0 170 255
3.058493 -12.618905 0.527 0 170 255
3.028152 -12.550695 0.559 0 170 255
3.221725 -12.560663 0.536 0 170 255
3.147733 -12.586935 0.532 0 170 255
3.139918 -12.556017 0.546 0 170 255
3.140185 -12.579721 0.536 0 170 255
3.101163 -12.594631 0.533 0 170 255
3.127058 -12.541608 0.554 0 170 255
3.224466 -12.553081 0.539 0 170 255
3.21315 -12.570884 0.533 0 170 255
3.297346 -12.555423 0.532 0 170 255
3.084319 -12.574825 0.543 0 170 255
3.05142 -12.549084 0.557 0 170 255
3.224602 -12.535192 0.547 0 170 255
3.044708 -12.608515 0.533 0 170 255
3.095762 -12.658097 0.507 0 170 255
3.173777 -12.573269 0.535 0 170 255
3.246979 -12.533127 0.545 0 170 255
3.044712 -12.549033 0.558 0 170 255
3.056074 -12.584002 0.542 0 170 255
3.108156 -12.616151 0.523 0 170 255
3.189649 -12.544319 0.546 0 170 255
3.064365 -12.552313 0.555 0 170 255
3.084786 -12.63118 0.519 0 170 255
3.212951 -12.538236 0.547 0 170 255
3.149847 -12.426396 0.078 0 170 255
3.172376 -12.404207 0.12 0 170 255
3.113599 -12.429253 0.141 0 170 255
3.146249 -12.429052 0.076 0 170 255
3.112322 -12.420745 0.174 0 170 255
3.158489 -12.407231 0.136 0 170 255
3.15938 -12.407685 0.132 0 170 255
3.16286 -12.420681 0.076 0 170 255
3.131573 -12.418208 0.145 0 170 255
3.131925 -12.430733 0.097 0 170 255
3.131487 -12.429388 0.105 0 170 255
3.145006 -12.416074 0.128 0 170 255
3.125772 -12.416375 0.163 0 170 255
3.141879 -12.415603 0.138 0 170 255
3.17098 -12.411352 0.093 0 170 255
3.135942 -12.431658 0.087 0 170 255
3.168745 -12.411334 0.101 0 170 255
3.150805 -12.417907 0.11 0 170 255
3.11049 -12.426545 0.158 0 170 255
3.127033 -12.427118 0.122 0 170 255
3.123418 -12.432011 0.111 0 170 255
3.108691 -12.427873 0.156 0 170 255
3.104673 -12.426949 0.167 0 170 255
3.15748 -12.42243 0.082 0 170 255
3.156623 -12.417503 0.101 0 170 255
3.13865 -12.428548 0.092 0 170 255
3.121182 -12.431993 0.115 0 170 255
3.149915 -12.417453 0.111 0 170 255
3.144013 -12.429036 0.081 0 170 255
3.163801 -12.414428 0.098 0 170 255
3.152151 -12.41747 0.108 0 170 255
3.147593 -12.428616 0.076 0 170 255
3.119871 -12.427958 0.133 0 170 255
3.169181 -12.41268 0.092 0 170 255
3.160743 -12.405012 0.139 0 170 255
3.14983 -12.428633 0.071 0 170 255
3.109598 -12.426091 0.161 0 170 255
3.106874 -12.431437 0.147 0 170 255
3.126158 -12.424428 0.135 0 170 255
3.165617 -12.410864 0.107 0 170 255
3.143593 -12.425455 0.094 0 170 255
3.165129 -12.416226 0.087 0 170 255
3.1252 -12.432919 0.103 0 170 255
3.133672 -12.436112 0.076 0 170 255
3.157934 -12.421538 0.082 0 170 255
3.15341 -12.428212 0.066 0 170 255
3.168779 -12.406862 0.115 0 170 255
3.137322 -12.426748 0.104 0 170 255
3.141289 -12.434381 0.066 0 170 255
3.177302 -12.40335 0.111 0 170 255
3.123906 -12.426647 0.131 0 170 255
3.118963 -12.42974 0.13 0 170 255
3.154421 -12.413014 0.12 0 170 255
3.141356 -12.425438 0.098 0 170 255
3.136516 -12.415114 0.147 0 170 255
3.140988 -12.415149 0.138 0 170 255
3.173267 -12.40466 0.114 0 170 255
3.135154 -12.417788 0.143 0 170 255
3.118963 -12.42974 0.128 0 170 255
3.159784 -12.413503 0.111 0 170 255
3.107363 -12.426074 0.165 0 170 255
3.136919 -12.420932 0.127 0 170 255
3.120291 -12.431539 0.118 0 170 255
3.134263 -12.417334 0.142 0 170 255
3.117232 -12.422124 0.16 0 170 255
3.111868 -12.421636 0.171 0 170 255
3.230945 -12.465474 0.065 0 170 255
3.249843 -12.450412 0.088 0 170 255
3.232545 -12.431497 0.097 0 170 255
3.207376 -12.447853 0.07 0 170 255
3.187994 -12.408797 0.097 0 170 255
3.193052 -12.449533 0.062 0 170 255
3.209629 -12.445634 0.073 0 170 255
3.290256 -12.487839 0.072 0 170 255
3.222421 -12.468987 0.058 0 170 255
3.204368 -12.431729 0.083 0 170 255
3.195678 -12.398122 0.11 0 170 255
3.227836 -12.462767 0.065 0 170 255
3.204589 -12.402661 0.111 0 170 255
3.225145 -12.46364 0.064 0 170 255
3.261744 -12.47331 0.072 0 170 255
3.194248 -12.409739 0.099 0 170 255
3.240814 -12.461524 0.073 0 170 255
3.247437 -12.472754 0.066 0 170 255
3.287952 -12.496765 0.063 0 170 255
3.191978 -12.414194 0.094 0 170 255
3.213092 -12.460866 0.061 0 170 255
3.172054 -12.446691 0.055 0 170 255
3.176242 -12.425255 0.076 0 170 255
3.236847 -12.453891 0.079 0 170 255
3.177065 -12.434653 0.068 0 170 255
3.217632 -12.451956 0.071 0 170 255
3.198063 -12.437496 0.076 0 170 255
3.18337 -12.428887 0.077 0 170 255
3.157395 -12.43361 0.059 0 170 255
3.165095 -12.420698 0.076 0 170 255
3.245876 -12.442779 0.093 0 170 255
3.166254 -12.444858 0.054 0 170 255
3.247035 -12.466938 0.071 0 170 255
3.200282 -12.439749 0.074 0 170 255
3.246614 -12.463356 0.074 0 170 255
3.226859 -12.473493 0.055 0 170 255
3.270587 -12.486794 0.064 0 170 255
3.214402 -12.464901 0.058 0 170 255
3.245621 -12.476318 0.061 0 170 255
3.247437 -12.472754 0.066 0 170 255
3.203913 -12.432621 0.083 0 170 255
3.252465 -12.458481 0.081 0 170 255
3.257358 -12.462096 0.081 0 170 255
3.255859 -12.482657 0.061 0 170 255
3.224509 -12.429646 0.095 0 170 255
3.164205 -12.420244 0.075 0 170 255
3.168019 -12.448001 0.051 0 170 255
3.240933 -12.445871 0.088 0 170 255
3.217075 -12.466263 0.057 0 170 255
3.182848 -12.438722 0.068 0 170 255
3.216201 -12.463573 0.06 0 170 255
3.202654 -12.421878 0.092 0 170 255
3.219714 -12.472097 0.054 0 170 255
3.185708 -12.415488 0.09 0 170 255
3.204385 -12.429494 0.085 0 170 255
3.206871 -12.455452 0.063 0 170 255
3.194448 -12.442388 0.069 0 170 255
3.19926 -12.397702 0.113 0 170 255
3.280926 -12.479717 0.076 0 170 255
3.230644 -12.446241 0.083 0 170 255
3.198551 -12.432134 0.081 0 170 255
3.172979 -12.442672 0.059 0 170 255
3.189407 -12.399416 0.107 0 170 255
3.193171 -12.433881 0.076 0 170 255
3.244043 -12.448579 0.087 0 170 255
3.19211 -12.455787 0.055 0 170 255
3.241791 -12.450798 0.083 0 170 255
3.242562 -12.466904 0.069 0 170 255
3.189306 -12.412832 0.094 0 170 255
3.170289 -12.443546 0.057 0 170 255
3.1964 -12.420937 0.089 0 170 255
3.230962 -12.463237 0.067 0 170 255
3.184108 -12.449466 0.058 0 170 255
3.191087 -12.41374 0.094 0 170 255
3.243101 -12.454832 0.08 0 170 255
3.206217 -12.423695 0.092 0 170 255
3.451487 -12.457756 0.847 0 170 255
3.455318 -12.483277 0.805 0 170 255
3.411955 -12.539745 0.698 0 170 255
3.395327 -12.550353 0.676 0 170 255
3.450307 -12.495315 0.782 0 170 255
3.486019 -12.445048 0.878 0 170 255
3.426517 -12.506762 0.758 0 170 255
3.398993 -12.538753 0.696 0 170 255
3.414276 -12.528583 0.718 0 170 255
3.464517 -12.449805 0.864 0 170 255
3.464648 -12.491399 0.793 0 170 255
3.451503 -12.455521 0.851 0 170 255
3.465776 -12.460548 0.846 0 170 255
3.431192 -12.479963 0.804 0 170 255
3.412125 -12.517385 0.736 0 170 255
3.489447 -12.464753 0.844 0 170 255
3.462832 -12.494963 0.788 0 170 255
3.446458 -12.47203 0.821 0 170 255
3.443298 -12.476031 0.815 0 170 255
3.509219 -12.45238 0.872 0 170 255
3.456595 -12.491784 0.791 0 170 255
3.400254 -12.549496 0.677 0 170 255
3.41364 -12.494589 0.774 0 170 255
3.427243 -12.470095 0.82 0 170 255
3.439008 -12.510882 0.754 0 170 255
3.414225 -12.535291 0.706 0 170 255
3.41759 -12.504457 0.759 0 170 255
3.437311 -12.498794 0.775 0 170 255
3.452899 -12.448376 0.864 0 170 255
3.472921 -12.461945 0.846 0 170 255
3.463808 -12.484236 0.805 0 170 255
3.471895 -12.479378 0.816 0 170 255
3.508765 -12.453272 0.87 0 170 255
3.495333 -12.455405 0.863 0 170 255
3.481848 -12.464248 0.845 0 170 255
3.423203 -12.530887 0.716 0 170 255
3.419741 -12.515655 0.741 0 170 255
3.433127 -12.460747 0.836 0 170 255
3.405214 -12.544167 0.689 0 170 255
3.439416 -12.457217 0.845 0 170 255
3.463155 -12.452478 0.858 0 170 255
3.433462 -12.475509 0.812 0 170 255
3.443837 -12.46396 0.835 0 170 255
3.481446 -12.458431 0.855 0 170 255
3.498023 -12.454532 0.864 0 170 255
3.488993 -12.465644 0.844 0 170 255
3.462009 -12.485564 0.802 0 170 255
3.459692 -12.437246 0.884 0 170 255
3.444761 -12.459941 0.842 0 170 255
3.459739 -12.490019 0.795 0 170 255
3.421391 -12.47497 0.811 0 170 255
3.442271 -12.493464 0.784 0 170 255
3.44673 -12.436254 0.882 0 170 255
3.455641 -12.440793 0.877 0 170 255
3.468619 -12.439549 0.883 0 170 255
3.480924 -12.468266 0.837 0 170 255
3.485968 -12.451756 0.867 0 170 255
3.459136 -12.451553 0.86 0 170 255
3.398034 -12.547243 0.682 0 170 255
3.399396 -12.54457 0.687 0 170 255
3.450897 -12.476536 0.816 0 170 255
3.417942 -12.516982 0.738 0 170 255
3.50115 -12.455003 0.864 0 170 255
3.443196 -12.489446 0.792 0 170 255
3.417573 -12.506694 0.756 0 170 255
3.443938 -12.450543 0.857 0 170 255
3.462229 -12.456496 0.853 0 170 255
3.424667 -12.514797 0.743 0 170 255
3.463693 -12.440407 0.88 0 170 255
3.431125 -12.488908 0.788 0 170 255
3.470635 -12.468636 0.834 0 170 255
3.420784 -12.495985 0.775 0 170 255
3.452106 -12.493986 0.787 0 170 255
3.413436 -12.521421 0.729 0 170 255
3.445568 -12.471576 0.822 0 170 255
3.423674 -12.52776 0.721 0 170 255
3.438202 -12.499248 0.774 0 170 255
3.429962 -12.52423 0.73 0 170 255
3.481985 -12.44636 0.875 0 170 255
3.441749 -12.5033 0.768 0 170 255
3.413118 -12.504424 0.757 0 170 255
3.415757 -12.510258 0.749 0 170 255
3.483363 -12.44145 0.884 0 170 255
3.476957 -12.460633 0.85 0 170 255
3.459505 -12.461842 0.842 0 170 255
3.46097 -12.445753 0.869 0 170 255
3.435766 -12.466581 0.827 0 170 255
3.455806 -12.477914 0.814 0 170 255
3.484153 -12.45532 0.86 0 170 255
3.410831 -12.511115 0.746 0 170 255
3.435245 -12.476417 0.811 0 170 255
3.453807 -12.446593 0.867 0 170 255
3.412647 -12.507551 0.752 0 170 255
3.487631 -12.468317 0.839 0 170 255
3.429462 -12.472347 0.817 0 170 255
3.493198 -12.441973 0.885 0 170 255
3.435007 -12.507721 0.757 0 170 255
3.421027 -12.4052 0.583 0 170 255
3.41765 -12.378787 0.595 0 170 255
3.407166 -12.287026 0.608 0 170 255
3.423513 -12.431158 0.586 0 170 255
3.395654 -12.2127 0.645 0 170 255
3.408829 -12.303587 0.606 0 170 255
3.409822 -12.290625 0.596 0 170 255
3.399083 -12.232404 0.631 0 170 255
3.416423 -12.363572 0.589 0 170 255
3.40955 -12.326401 0.613 0 170 255
3.414913 -12.326888 0.582 0 170 255
3.400292 -12.249855 0.633 0 170 255
3.397772 -12.228369 0.638 0 170 255
3.407301 -12.269138 0.597 0 170 255
3.406444 -12.264212 0.598 0 170 255
3.399838 -12.250745 0.634 0 170 255
3.401637 -12.249417 0.623 0 170 255
3.397755 -12.230604 0.637 0 170 255
3.402091 -12.248527 0.621 0 170 255
3.397704 -12.237312 0.641 0 170 255
3.413636 -12.318381 0.588 0 170 255
3.409669 -12.310748 0.604 0 170 255
3.415936 -12.368936 0.597 0 170 255
3.411888 -12.313002 0.594 0 170 255
3.410123 -12.309857 0.601 0 170 255
3.390462 -12.189851 0.659 0 170 255
3.415566 -12.358647 0.592 0 170 255
3.414675 -12.358192 0.602 0 170 255
3.409265 -12.304932 0.603 0 170 255
3.404226 -12.26196 0.614 0 170 255
3.408897 -12.294642 0.601 0 170 255
3.409822 -12.290625 0.595 0 170 255
3.39994 -12.237329 0.632 0 170 255
3.400173 -12.265507 0.64 0 170 255
3.411502 -12.304949 0.592 0 170 255
3.400343 -12.243147 0.631 0 170 255
3.411502 -12.304949 0.593 0 170 255
3.415147 -12.355066 0.593 0 170 255
3.394258 -12.219845 0.654 0 170 255
3.421447 -12.408781 0.584 0 170 255
3.410072 -12.316566 0.606 0 170 255
3.408778 -12.310294 0.613 0 170 255
3.422271 -12.418179 0.588 0 170 255
3.416844 -12.367154 0.593 0 170 255
3.406831 -12.272265 0.601 0 170 255
3.397318 -12.229259 0.641 0 170 255
3.398947 -12.250292 0.642 0 170 255
3.408964 -12.285699 0.593 0 170 255
3.395956 -12.231933 0.648 0 170 255
3.413416 -12.347449 0.601 0 170 255
3.417196 -12.379679 0.596 0 170 255
3.404459 -12.290136 0.626 0 170 255
3.391756 -12.196122 0.655 0 170 255
3.404459 -12.290136 0.628 0 170 255
3.413381 -12.351922 0.604 0 170 255
3.412643 -12.331344 0.598 0 170 255
3.413852 -12.348795 0.599 0 170 255
3.413886 -12.344323 0.594 0 170 255
3.416929 -12.355974 0.585 0 170 255
3.415198 -12.348357 0.592 0 170 255
3.41081 -12.337144 0.612 0 170 255
3.416844 -12.367154 0.589 0 170 255
3.398998 -12.243584 0.635 0 170 255
3.402125 -12.244055 0.616 0 170 255
3.41975 -12.396692 0.586 0 170 255
3.409033 -12.276754 0.592 0 170 255
3.415214 -12.346121 0.591 0 170 255
3.392579 -12.205521 0.656 0 170 255
3.413131 -12.32598 0.595 0 170 255
3.39826 -12.223005 0.632 0 170 255
3.417179 -12.381915 0.594 0 170 255
3.394292 -12.215373 0.65 0 170 255
3.408193 -12.269593 0.593 0 170 255
3.41728 -12.368498 0.587 0 170 255
3.420221 -12.393565 0.587 0 170 255
3.409935 -12.334454 0.617 0 170 255
3.412223 -12.327763 0.597 0 170 255
3.432763 -12.155289 0.87 0 170 255
3.424439 -12.191451 0.787 0 170 255
3.447906 -12.222487 0.829 0 170 255
3.444762 -12.224254 0.817 0 170 255
3.414905 -12.210163 0.72 0 170 255
3.447015 -12.222034 0.828 0 170 255
3.407175 -12.168064 0.755 0 170 255
3.401693 -12.183228 0.71 0 170 255
3.428996 -12.180305 0.821 0 170 255
3.424307 -12.149858 0.846 0 170 255
3.466226 -12.28345 0.811 0 170 255
3.420726 -12.150278 0.834 0 170 255
3.470381 -12.266487 0.854 0 170 255
3.457338 -12.217193 0.875 0 170 255
3.418923 -12.211087 0.735 0 170 255
3.464598 -12.262418 0.836 0 170 255
3.431923 -12.148127 0.879 0 170 255
3.417412 -12.174402 0.785 0 170 255
3.42345 -12.144933 0.851 0 170 255
3.470936 -12.252179 0.877 0 170 255
3.455556 -12.216285 0.871 0 170 255
3.475472 -12.302751 0.818 0 170 255
3.43802 -12.228674 0.783 0 170 255
3.435835 -12.221949 0.785 0 170 255
3.488888 -12.302853 0.871 0 170 255
3.465556 -12.253928 0.852 0 170 255
3.489796 -12.301071 0.877 0 170 255
3.420789 -12.200815 0.759 0 170 255
3.503831 -12.337402 0.877 0 170 255
3.402266 -12.166685 0.738 0 170 255
3.415613 -12.175732 0.774 0 170 255
3.441567 -12.232726 0.792 0 170 255
3.419899 -12.200361 0.755 0 170 255
3.427379 -12.216518 0.761 0 170 255
3.486317 -12.288074 0.885 0 170 255
3.44878 -12.225178 0.83 0 170 255
3.444563 -12.191604 0.863 0 170 255
3.439234 -12.186644 0.85 0 170 255
3.474784 -12.275464 0.857 0 170 255
3.457991 -12.248951 0.832 0 170 255
3.427413 -12.212046 0.768 0 170 255
3.491947 -12.312268 0.871 0 170 255
3.464529 -12.271362 0.822 0 170 255
3.429887 -12.180758 0.823 0 170 255
3.465539 -12.256165 0.849 0 170 255
3.412923 -12.176605 0.766 0 170 255
3.400819 -12.180538 0.711 0 170 255
3.475472 -12.302751 0.821 0 170 255
3.394127 -12.178252 0.69 0 170 255
3.435245 -12.240728 0.756 0 170 255
3.405591 -12.199805 0.7 0 170 255
3.412554 -12.166317 0.778 0 170 255
3.448008 -12.209071 0.849 0 170 255
3.451232 -12.255608 0.798 0 170 255
3.394127 -12.178252 0.691 0 170 255
3.483003 -12.3122 0.835 0 170 255
3.442259 -12.200531 0.841 0 170 255
3.403139 -12.169375 0.737 0 170 255
3.443803 -12.232743 0.8 0 170 255
3.431469 -12.149018 0.875 0 170 255
3.441401 -12.195604 0.844 0 170 255
3.452191 -12.247118 0.812 0 170 255
3.471323 -12.260233 0.865 0 170 255
3.433989 -12.170504 0.853 0 170 255
3.445012 -12.250194 0.778 0 170 255
3.442106 -12.220655 0.812 0 170 255
3.428219 -12.22368 0.752 0 170 255
3.417599 -12.149807 0.822 0 170 255
3.451249 -12.253371 0.801 0 170 255
3.425512 -12.226789 0.74 0 170 255
3.460715 -12.243606 0.848 0 170 255
3.481811 -12.292512 0.858 0 170 255
3.424205 -12.163274 0.828 0 170 255
3.436259 -12.166049 0.87 0 170 255
3.404518 -12.164467 0.749 0 170 255
3.433752 -12.201808 0.807 0 170 255
3.445101 -12.179533 0.883 0 170 255
3.410721 -12.172116 0.762 0 170 255
3.437502 -12.179029 0.855 0 170 255
3.458428 -12.250296 0.832 0 170 255
3.396448 -12.167089 0.714 0 170 255
3.419767 -12.158769 0.816 0 170 255
3.421919 -12.169966 0.811 0 170 255
3.436629 -12.176337 0.856 0 170 255
3.434159 -12.148144 0.885 0 170 255
3.407896 -12.190878 0.724 0 170 255
3.449081 -12.244411 0.803 0 170 255
3.435771 -12.171412 0.858 0 170 255
3.400364 -12.18143 0.708 0 170 255
3.454126 -12.227901 0.849 0 170 255
3.440897 -12.203204 0.833 0 170 255
3.449132 -12.237703 0.812 0 170 255
3.438627 -12.207659 0.818 0 170 255
3.464933 -12.277179 0.815 0 170 255
3.409529 -12.15243 0.787 0 170 255
3.459438 -12.235098 0.856 0 170 255
3.436794 -12.213459 0.801 0 170 255
3.431316 -12.169142 0.847 0 170 255
3.390143 -12.172854 0.681 0 170 255
3.422759 -12.177127 0.801 0 170 255
3.407373 -12.200713 0.707 0 170 255
3.486317 -12.288074 0.884 0 170 255
3.442594 -12.215292 0.822 0 170 255
3.476414 -12.296497 0.832 0 170 255
3.451032 -12.222959 0.843 0 170 255
3.47302 -12.272321 0.856 0 170 255
3.480801 -12.307711 0.833 0 170 255
3.484382 -12.307291 0.847 0 170 255
3.458665 -12.218992 0.88 0 170 255
3.435465 -12.21166 0.799 0 170 255
3.417548 -12.156515 0.81 0 170 255
3.398515 -12.189466 0.687 0 170 255
3.417327 -12.185583 0.768 0 170 255
3.425279 -12.198613 0.778 0 170 255
3.44589 -12.193403 0.866 0 170 255
3.442577 -12.217528 0.818 0 170 255
3.425546 -12.222318 0.746 0 170 255
3.45853 -12.23688 0.854 0 170 255
3.442055 -12.227363 0.803 0 170 255
3.428655 -12.225025 0.754 0 170 255
3.486685 -12.298364 0.869 0 170 255
3.403878 -12.189954 0.707 0 170 255
3.435063 -12.205843 0.806 0 170 255
3.402685 -12.170266 0.733 0 170 255
3.472026 -12.285282 0.83 0 170 255
3.446946 -12.230978 0.814 0 170 255
3.422338 -12.173547 0.806 0 170 255
3.43698 -12.188863 0.838 0 170 255
3.442696 -12.201876 0.842 0 170 255
3.49583 -12.33108 0.857 0 170 255
3.46937 -12.281685 0.826 0 170 255
3.499847 -12.332006 0.87 0 170 255
3.415392 -12.2048 0.732 0 170 255
3.441164 -12.226909 0.799 0 170 255
3.502469 -12.340075 0.871 0 170 255
3.419075 -12.190964 0.765 0 170 255
3.433348 -12.195991 0.813 0 170 255
3.495443 -12.323027 0.867 0 170 255
3.464313 -12.240949 0.868 0 170 255
3.424104 -12.17669 0.808 0 170 255
3.480062 -12.287132 0.86 0 170 255
3.472532 -12.277684 0.844 0 170 255
3.445887 -12.252884 0.778 0 170 255
3.441079 -12.238089 0.782 0 170 255
3.43673 -12.162922 0.875 0 170 255
3.410301 -12.168535 0.765 0 170 255
3.454698 -12.211359 0.873 0 170 255
3.42698 -12.15122 0.853 0 170 255
3.400733 -12.191718 0.695 0 170 255
3.444592 -12.246613 0.783 0 170 255
3.425885 -12.177598 0.812 0 170 255
3.426504 -12.213828 0.761 0 170 255
3.435266 -12.179011 0.849 0 170 255
3.462713 -12.274925 0.81 0 170 255
3.421074 -12.222284 0.728 0 170 255
3.465641 -12.242747 0.869 0 170 255
3.450511 -12.232794 0.826 0 170 255
3.430811 -12.176741 0.833 0 170 255
3.406919 -12.201604 0.703 0 170 255
3.399524 -12.174267 0.717 0 170 255
3.481929 -12.27686 0.884 0 170 255
3.424489 -12.184743 0.797 0 170 255
3.4689 -12.284812 0.82 0 170 255
3.441249 -12.215729 0.815 0 170 255
3.389672 -12.175982 0.676 0 170 255
3.44135 -12.202313 0.838 0 170 255
3.443336 -12.176389 0.884 0 170 255
3.439738 -12.179045 0.865 0 170 255
3.42757 -12.132441 0.885 0 170 255
3.428253 -12.219209 0.761 0 170 255
3.420692 -12.154751 0.826 0 170 255
3.432377 -12.147236 0.882 0 170 255
3.42387 -12.148514 0.849 0 170 255
3.419797 -12.213778 0.736 0 170 255
3.454228 -12.214485 0.866 0 170 255
3.396766 -12.184086 0.69 0 170 255
3.457083 -12.250732 0.825 0 170 255
3.432321 -12.213426 0.785 0 170 255
3.452849 -12.219395 0.855 0 170 255
3.495392 -12.329736 0.856 0 170 255
3.461908 -12.263291 0.824 0 170 255
3.458246 -12.215411 0.882 0 170 255
3.431838 -12.159307 0.862 0 170 255
3.474852 -12.266521 0.87 0 170 255
3.458967 -12.238224 0.85 0 170 255
3.484365 -12.309526 0.841 0 170 255
3.458212 -12.219883 0.876 0 170 255
3.409529 -12.15243 0.788 0 170 255
3.401726 -12.178757 0.716 0 170 255
3.409712 -12.187314 0.736 0 170 255
3.469302 -12.290629 0.812 0 170 255
3.482367 -12.278206 0.882 0 170 255
3.460631 -12.254785 0.833 0 170 255
3.415295 -12.158734 0.801 0 170 255
3.435869 -12.217477 0.793 0 170 255
3.453065 -12.249807 0.809 0 170 255
3.510001 -12.349524 0.883 0 170 255
3.471759 -12.261578 0.865 0 170 255
3.423582 -12.186525 0.79 0 170 255
3.457435 -12.263258 0.805 0 170 255
3.443655 -12.193386 0.857 0 170 255
3.458076 -12.23777 0.847 0 170 255
3.441231 -12.217965 0.813 0 170 255
3.466481 -12.249909 0.861 0 170 255
3.426374 -12.172235 0.821 0 170 255
3.424774 -12.206212 0.766 0 170 255
3.482112 -12.311746 0.831 0 170 255
3.491493 -12.313158 0.866 0 170 255
3.466277 -12.276741 0.822 0 170 255
3.404451 -12.17341 0.737 0 170 255
3.438529 -12.161593 0.885 0 170 255
3.448054 -12.261845 0.775 0 170 255
3.400364 -12.18143 0.709 0 170 255
3.440727 -12.225564 0.801 0 170 255
3.465976 -12.257508 0.847 0 170 255
3.496368 -12.31901 0.877 0 170 255
3.450829 -12.24979 0.802 0 170 255
3.49815 -12.319918 0.881 0 170 255
3.429178 -12.21519 0.768 0 170 255
3.463809 -12.248548 0.853 0 170 255
3.468043 -12.279885 0.824 0 170 255
3.419245 -12.168603 0.799 0 170 255
3.430001 -12.224588 0.761 0 170 255
3.461958 -12.256584 0.834 0 170 255
3.418741 -12.176203 0.789 0 170 255
3.455823 -12.239989 0.836 0 170 255
3.466715 -12.278087 0.82 0 170 255
3.431278 -12.233095 0.75 0 170 255
3.400954 -12.162651 0.737 0 170 255
3.462009 -12.249876 0.847 0 170 255
3.41151 -12.185987 0.745 0 170 255
3.432224 -12.16736 0.851 0 170 255
3.442373 -12.24436 0.777 0 170 255
3.439772 -12.174573 0.87 0 170 255
3.489728 -12.310015 0.865 0 170 255
3.411493 -12.188222 0.743 0 170 255
3.427099 -12.135568 0.88 0 170 255
3.423281 -12.167292 0.817 0 170 255
3.483457 -12.311308 0.837 0 170 255
3.426187 -12.196832 0.788 0 170 255
3.435937 -12.208533 0.807 0 170 255
3.431584 -12.192847 0.813 0 170 255
3.458326 -12.263712 0.809 0 170 255
3.445182 -12.227835 0.814 0 170 255
3.454949 -12.2373 0.837 0 170 255
3.472849 -12.294681 0.821 0 170 255
3.421227 -12.202161 0.757 0 170 255
3.487174 -12.293 0.878 0 170 255
3.478735 -12.285334 0.859 0 170 255
3.452127 -12.196581 0.884 0 170 255
3.486112 -12.314907 0.843 0 170 255
3.473002 -12.274556 0.849 0 170 255
3.403491 -12.1819 0.721 0 170 255
3.45122 -12.198363 0.881 0 170 255
3.445971 -12.241705 0.795 0 170 255
3.490602 -12.312704 0.864 0 170 255
3.427328 -12.223226 0.751 0 170 255
3.482634 -12.30191 0.849 0 170 255
3.417009 -12.168587 0.792 0 170 255
3.429199 -12.153473 0.861 0 170 255
3.478331 -12.279517 0.864 0 170 255
3.431465 -12.208499 0.79 0 170 255
3.430608 -12.203573 0.792 0 170 255
3.449892 -12.196564 0.876 0 170 255
3.399439 -12.185448 0.699 0 170 255
3.424218 -12.220519 0.74 0 170 255
3.426607 -12.200412 0.783 0 170 255
3.480046 -12.289369 0.857 0 170 255
3.440247 -12.347652 0.692 0 170 255
3.438108 -12.393702 0.655 0 170 255
3.512168 -12.358485 0.878 0 170 255
3.457864 -12.383565 0.715 0 170 255
3.396041 -12.220753 0.66 0 170 255
3.415583 -12.35641 0.618 0 170 255
3.456434 -12.395183 0.704 0 170 255
3.447982 -12.33027 0.725 0 170 255
3.526977 -12.410923 0.882 0 170 255
3.455004 -12.406799 0.691 0 170 255
3.463668 -12.325917 0.77 0 170 255
3.447184 -12.435363 0.65 0 170 255
3.414493 -12.323308 0.638 0 170 255
3.445143 -12.291786 0.744 0 170 255
3.425122 -12.278218 0.699 0 170 255
3.509894 -12.422422 0.829 0 170 255
3.461258 -12.407742 0.707 0 170 255
3.423738 -12.342608 0.65 0 170 255
3.509241 -12.390663 0.85 0 170 255
3.43774 -12.383412 0.66 0 170 255
3.46405 -12.393452 0.724 0 170 255
3.414459 -12.32778 0.636 0 170 255
3.459519 -12.283399 0.788 0 170 255
3.460961 -12.329026 0.762 0 170 255
3.46209 -12.298177 0.785 0 170 255
3.49487 -12.33957 0.846 0 170 255
3.436445 -12.377142 0.66 0 170 255
3.420701 -12.271476 0.692 0 170 255
3.460405 -12.343334 0.749 0 170 255
3.427879 -12.2684 0.713 0 170 255
3.413113 -12.328217 0.632 0 170 255
3.436887 -12.319005 0.703 0 170 255
3.511698 -12.361612 0.876 0 170 255
3.458169 -12.343318 0.743 0 170 255
3.432368 -12.266198 0.726 0 170 255
3.516454 -12.383116 0.874 0 170 255
3.425397 -12.41865 0.601 0 170 255
3.421179 -12.385076 0.613 0 170 255
3.508401 -12.383502 0.852 0 170 255
3.425049 -12.346643 0.65 0 170 255
3.467483 -12.353674 0.762 0 170 255
3.452959 -12.322704 0.743 0 170 255
3.485116 -12.38735 0.786 0 170 255
3.470592 -12.35638 0.768 0 170 255
3.506335 -12.361124 0.862 0 170 255
3.420433 -12.247771 0.707 0 170 255
3.402965 -12.251217 0.658 0 170 255
3.414399 -12.217762 0.711 0 170 255
3.507021 -12.388411 0.844 0 170 255
3.464975 -12.389433 0.729 0 170 255
3.403703 -12.271794 0.644 0 170 255
3.421422 -12.294291 0.679 0 170 255
3.450162 -12.396476 0.683 0 170 255
3.418001 -12.391313 0.601 0 170 255
3.474271 -12.402025 0.747 0 170 255
3.468543 -12.331768 0.778 0 170 255
3.40036 -12.240911 0.658 0 170 255
3.468221 -12.374252 0.749 0 170 255
3.433365 -12.429443 0.617 0 170 255
3.397908 -12.210481 0.673 0 170 255
3.514252 -12.378627 0.871 0 170 255
3.408901 -12.235162 0.684 0 170 255
3.429712 -12.262601 0.723 0 170 255
3.418392 -12.339884 0.637 0 170 255
3.474008 -12.31884 0.803 0 170 255
3.432033 -12.251437 0.737 0 170 255
3.463159 -12.392997 0.721 0 170 255
3.428333 -12.267509 0.714 0 170 255
3.434701 -12.312281 0.7 0 170 255
3.481875 -12.34305 0.809 0 170 255
3.394496 -12.18854 0.678 0 170 255
3.440684 -12.348998 0.692 0 170 255
3.513042 -12.361175 0.879 0 170 255
3.466591 -12.353219 0.759 0 170 255
3.459289 -12.431429 0.684 0 170 255
3.431095 -12.433898 0.608 0 170 255
3.483181 -12.406566 0.768 0 170 255
3.506199 -12.379012 0.849 0 170 255
3.409236 -12.249922 0.676 0 170 255
3.426279 -12.302377 0.686 0 170 255
3.428083 -12.241569 0.733 0 170 255
3.423954 -12.373022 0.63 0 170 255
3.429135 -12.338624 0.668 0 170 255
3.4381 -12.276976 0.735 0 170 255
3.454669 -12.392038 0.699 0 170 255
3.431863 -12.273797 0.718 0 170 255
3.436369 -12.269359 0.736 0 170 255
3.490245 -12.359661 0.821 0 170 255
3.437948 -12.297099 0.719 0 170 255
3.426793 -12.411505 0.61 0 170 255
3.435534 -12.438404 0.615 0 170 255
3.410021 -12.323274 0.627 0 170 255
3.422932 -12.330974 0.656 0 170 255
3.442513 -12.402679 0.66 0 170 255
3.489002 -12.346682 0.825 0 170 255
3.424409 -12.37213 0.632 0 170 255
3.423047 -12.374804 0.627 0 170 255
3.451868 -12.289602 0.763 0 170 255
3.511613 -12.372793 0.868 0 170 255
3.471552 -12.347891 0.777 0 170 255
3.440787 -12.335583 0.702 0 170 255
3.449068 -12.422854 0.663 0 170 255
3.510365 -12.419294 0.831 0 170 255
3.408027 -12.232471 0.685 0 170 255
3.413203 -12.257555 0.68 0 170 255
3.428011 -12.309993 0.685 0 170 255
3.50361 -12.366471 0.849 0 170 255
3.508583 -12.418386 0.828 0 170 255
3.427446 -12.443263 0.59 0 170 255
3.426288 -12.419104 0.605 0 170 255
3.421235 -12.318887 0.66 0 170 255
3.438308 -12.42635 0.631 0 170 255
3.506619 -12.382593 0.846 0 170 255
3.453023 -12.373242 0.708 0 170 255
3.450566 -12.402293 0.683 0 170 255
3.482171 -12.421764 0.754 0 170 255
3.443255 -12.363776 0.688 0 170 255
3.438427 -12.410698 0.642 0 170 255
3.48313 -12.413274 0.762 0 170 255
3.43393 -12.296175 0.71 0 170 255
3.453634 -12.292747 0.766 0 170 255
3.4715 -12.354599 0.771 0 170 255
3.429114 -12.400341 0.624 0 170 255
3.451699 -12.311962 0.749 0 170 255
3.461649 -12.356313 0.743 0 170 255
3.485031 -12.39853 0.778 0 170 255
3.5181 -12.401912 0.864 0 170 255
3.416534 -12.231194 0.709 0 170 255
3.491726 -12.341335 0.837 0 170 255
3.414624 -12.364901 0.61 0 170 255
3.440129 -12.363306 0.68 0 170 255
3.452984 -12.437195 0.664 0 170 255
3.506199 -12.379012 0.85 0 170 255
3.51978 -12.416235 0.86 0 170 255
3.440956 -12.313223 0.717 0 170 255
3.480682 -12.323362 0.818 0 170 255
3.48352 -12.361845 0.8 0 170 255
3.402176 -12.237347 0.666 0 170 255
3.462137 -12.35095 0.75 0 170 255
3.439178 -12.252833 0.754 0 170 255
3.464105 -12.327262 0.773 0 170 255
3.420238 -12.39133 0.605 0 170 255
3.449378 -12.323125 0.734 0 170 255
3.506385 -12.354417 0.868 0 170 255
3.51847 -12.412201 0.858 0 170 255
3.474067 -12.428858 0.728 0 170 255
3.453523 -12.425124 0.674 0 170 255
3.48246 -12.383752 0.781 0 170 255
3.416178 -12.278151 0.673 0 170 255
3.481471 -12.337233 0.81 0 170 255
3.435474 -12.328386 0.692 0 170 255
3.463634 -12.330388 0.767 0 170 255
3.481993 -12.327397 0.818 0 170 255
3.42258 -12.318449 0.664 0 170 255
3.448254 -12.294494 0.75 0 170 255
3.516119 -12.368354 0.883 0 170 255
3.49692 -12.364183 0.833 0 170 255
3.513526 -12.415294 0.844 0 170 255
3.46763 -12.393031 0.735 0 170 255
3.467839 -12.306718 0.795 0 170 255
3.443561 -12.323528 0.717 0 170 255
3.495574 -12.364621 0.83 0 170 255
3.458017 -12.363441 0.728 0 170 255
3.510518 -12.399171 0.847 0 170 255
3.484208 -12.389132 0.782 0 170 255
3.438949 -12.400864 0.652 0 170 255
3.470796 -12.329549 0.788 0 170 255
3.434795 -12.417827 0.628 0 170 255
3.464606 -12.379144 0.736 0 170 255
3.445071 -12.360212 0.696 0 170 255
3.419627 -12.236137 0.712 0 170 255
3.413776 -12.241013 0.693 0 170 255
3.407624 -12.226654 0.687 0 170 255
3.488616 -12.338629 0.829 0 170 255
3.427744 -12.286288 0.7 0 170 255
3.525143 -12.416723 0.873 0 170 255
3.415291 -12.218216 0.714 0 170 255
3.430136 -12.442389 0.599 0 170 255
3.493962 -12.341352 0.842 0 170 255
3.499876 -12.387014 0.827 0 170 255
3.445734 -12.273008 0.759 0 170 255
3.453676 -12.405 0.688 0 170 255
3.426212 -12.311321 0.68 0 170 255
3.450549 -12.40453 0.68 0 170 255
3.428448 -12.311338 0.685 0 170 255
3.472476 -12.343873 0.783 0 170 255
3.496936 -12.361947 0.836 0 170 255
3.463384 -12.304448 0.784 0 170 255
3.422809 -12.406108 0.604 0 170 255
3.448296 -12.406749 0.672 0 170 255
3.418345 -12.287111 0.675 0 170 255
3.491573 -12.36146 0.821 0 170 255
3.458386 -12.37373 0.723 0 170 255
3.415079 -12.364009 0.611 0 170 255
3.41171 -12.218636 0.703 0 170 255
3.44166 -12.338272 0.702 0 170 255
3.40406 -12.224838 0.678 0 170 255
3.459429 -12.35406 0.739 0 170 255
3.446009 -12.41344 0.661 0 170 255
3.485353 -12.356046 0.81 0 170 255
3.446366 -12.366484 0.695 0 170 255
3.434481 -12.341349 0.681 0 170 255
3.426547 -12.326082 0.67 0 170 255
3.414794 -12.34254 0.627 0 170 255
3.45724 -12.406816 0.697 0 170 255
3.464928 -12.336659 0.766 0 170 255
3.457983 -12.367913 0.725 0 170 255
3.423191 -12.237953 0.722 0 170 255
3.396546 -12.213154 0.666 0 170 255
3.442747 -12.430856 0.642 0 170 255
3.430048 -12.277361 0.712 0 170 255
3.497471 -12.409357 0.803 0 170 255
3.451296 -12.306145 0.749 0 170 255
3.483516 -12.421327 0.758 0 170 255
3.466574 -12.355456 0.759 0 170 255
3.427497 -12.436554 0.595 0 170 255
3.459175 -12.3876 0.716 0 170 255
3.440837 -12.328875 0.705 0 170 255
3.520234 -12.415344 0.861 0 170 255
3.508804 -12.389318 0.848 0 170 255
3.439165 -12.431276 0.63 0 170 255
3.488162 -12.33952 0.827 0 170 255
3.434629 -12.380705 0.654 0 170 255
3.426886 -12.281363 0.701 0 170 255
3.435173 -12.309154 0.706 0 170 255
3.487284 -12.396311 0.787 0 170 255
3.400377 -12.238675 0.659 0 170 255
3.410025 -12.263792 0.669 0 170 255
3.427387 -12.333244 0.668 0 170 255
3.465293 -12.40643 0.719 0 170 255
3.407687 -12.277191 0.652 0 170 255
3.448483 -12.382153 0.69 0 170 255
3.433523 -12.349838 0.673 0 170 255
3.443952 -12.2721 0.756 0 170 255
3.407776 -12.206531 0.702 0 170 255
3.459532 -12.340644 0.749 0 170 255
3.424693 -12.3936 0.617 0 170 255
3.479774 -12.325145 0.813 0 170 255
3.40493 -12.28701 0.637 0 170 255
3.454657 -12.334793 0.74 0 170 255
3.420649 -12.278184 0.687 0 170 255
3.429071 -12.288087 0.703 0 170 255
3.42006 -12.296964 0.671 0 170 255
3.398226 -12.227478 0.661 0 170 255
3.433645 -12.274705 0.725 0 170 255
3.470957 -12.426151 0.721 0 170 255
3.464589 -12.38138 0.734 0 170 255
3.42028 -12.267896 0.693 0 170 255
3.418426 -12.335413 0.641 0 170 255
3.471755 -12.321059 0.797 0 170 255
3.415265 -12.339414 0.628 0 170 255
3.471284 -12.324185 0.793 0 170 255
3.524808 -12.401962 0.883 0 170 255
3.452501 -12.383077 0.699 0 170 255
3.448016 -12.325798 0.727 0 170 255
3.427943 -12.318937 0.68 0 170 255
3.471699 -12.387248 0.748 0 170 255
3.400259 -12.254327 0.647 0 170 255
3.423063 -12.372567 0.628 0 170 255
3.478883 -12.324691 0.812 0 170 255
3.47145 -12.361306 0.766 0 170 255
3.483168 -12.34932 0.808 0 170 255
3.436713 -12.400846 0.645 0 170 255
3.503895 -12.387939 0.836 0 170 255
3.43488 -12.406646 0.635 0 170 255
3.414531 -12.259355 0.683 0 170 255
3.468505 -12.395721 0.735 0 170 255
3.448199 -12.360683 0.703 0 170 255
3.430799 -12.355185 0.662 0 170 255
3.427196 -12.417322 0.609 0 170 255
3.395808 -12.192575 0.678 0 170 255
3.432971 -12.304665 0.702 0 170 255
3.462038 -12.304885 0.78 0 170 255
3.405235 -12.246761 0.667 0 170 255
3.44401 -12.382118 0.679 0 170 255
3.491642 -12.352515 0.828 0 170 255
3.397538 -12.200191 0.679 0 170 255
3.468747 -12.304935 0.798 0 170 255
3.437557 -12.348528 0.684 0 170 255
3.444388 -12.273445 0.753 0 170 255
3.462183 -12.403723 0.713 0 170 255
3.438342 -12.421879 0.635 0 170 255
3.419262 -12.402056 0.597 0 170 255
3.474092 -12.307659 0.812 0 170 255
3.464805 -12.411793 0.714 0 170 255
3.443599 -12.259575 0.763 0 170 255
3.438177 -12.384757 0.66 0 170 255
3.485281 -12.424471 0.761 0 170 255
3.478645 -12.355995 0.789 0 170 255
3.438711 -12.432167 0.629 0 170 255
3.477805 -12.348832 0.793 0 170 255
3.468216 -12.433733 0.708 0 170 255
3.421728 -12.254043 0.707 0 170 255
3.39826 -12.223005 0.665 0 170 255
3.494696 -12.421412 0.788 0 170 255
3.480444 -12.354667 0.796 0 170 255
3.471314 -12.379195 0.754 0 170 255
3.470826 -12.384558 0.749 0 170 255
3.464288 -12.362147 0.747 0 170 255
3.415418 -12.319289 0.644 0 170 255
3.496381 -12.376254 0.825 0 170 255
3.437603 -12.4013 0.646 0 170 255
3.484678 -12.386005 0.785 0 170 255
3.451596 -12.325377 0.737 0 170 255
3.498752 -12.358384 0.843 0 170 255
3.501391 -12.364218 0.846 0 170 255
3.437023 -12.301117 0.715 0 170 255
3.449479 -12.30971 0.743 0 170 255
3.51785 -12.375971 0.881 0 170 255
3.399537 -12.231512 0.662 0 170 255
3.41174 -12.273644 0.666 0 170 255
3.421463 -12.406545 0.599 0 170 255
3.425245 -12.438773 0.587 0 170 255
3.480979 -12.402078 0.765 0 170 255
3.411791 -12.266936 0.67 0 170 255
3.465348 -12.34024 0.765 0 170 255
3.462828 -12.318755 0.775 0 170 255
3.431529 -12.259036 0.728 0 170 255
3.408243 -12.262884 0.663 0 170 255
3.491403 -12.38382 0.806 0 170 255
3.511256 -12.419748 0.833 0 170 255
3.469769 -12.346982 0.773 0 170 255
3.4362 -12.291719 0.719 0 170 255
3.401336 -12.230185 0.668 0 170 255
3.437578 -12.28681 0.726 0 170 255
3.454414 -12.425578 0.676 0 170 255
3.504383 -12.382577 0.841 0 170 255
3.490279 -12.355188 0.823 0 170 255
3.429466 -12.412867 0.618 0 170 255
3.468908 -12.401538 0.733 0 170 255
3.482176 -12.362283 0.796 0 170 255
3.463761 -12.431462 0.697 0 170 255
3.471403 -12.308534 0.805 0 170 255
3.424845 -12.373475 0.631 0 170 255
3.505915 -12.357543 0.863 0 170 255
3.41871 -12.356882 0.626 0 170 255
3.501926 -12.411628 0.814 0 170 255
3.51978 -12.416235 0.859 0 170 255
3.484514 -12.348884 0.813 0 170 255
3.50129 -12.377634 0.835 0 170 255
3.492057 -12.415578 0.784 0 170 255
3.436022 -12.433042 0.62 0 170 255
3.444855 -12.329799 0.716 0 170 255
3.500178 -12.406248 0.813 0 170 255
3.499287 -12.405794 0.811 0 170 255
3.454554 -12.348209 0.731 0 170 255
3.489401 -12.411981 0.779 0 170 255
3.479367 -12.378809 0.776 0 170 255
3.461233 -12.293251 0.786 0 170 255
3.453239 -12.403655 0.688 0 170 255
3.438045 -12.343164 0.69 0 170 255
3.456183 -12.369241 0.719 0 170 255
3.466124 -12.296866 0.798 0 170 255
3.48041 -12.359138 0.791 0 170 255
3.421222 -12.261641 0.699 0 170 255
3.429942 -12.350258 0.663 0 170 255
3.419525 -12.249554 0.704 0 170 255
3.443731 -12.301168 0.735 0 170 255
3.418455 -12.390421 0.602 0 170 255
3.475705 -12.330928 0.799 0 170 255
3.425601 -12.391818 0.621 0 170 255
3.41641 -12.306327 0.657 0 170 255
3.410802 -12.220417 0.7 0 170 255
3.422584 -12.258968 0.704 0 170 255
3.426555 -12.442808 0.587 0 170 255
3.467448 -12.358146 0.758 0 170 255
3.452874 -12.333885 0.735 0 170 255
3.434315 -12.304228 0.707 0 170 255
3.413751 -12.362211 0.61 0 170 255
3.4288 -12.323863 0.677 0 170 255
3.479083 -12.35734 0.789 0 170 255
3.402664 -12.231983 0.668 0 170 255
3.499037 -12.379853 0.829 0 170 255
3.508167 -12.355325 0.869 0 170 255
3.420896 -12.363606 0.628 0 170 255
3.492494 -12.416923 0.786 0 170 255
3.488128 -12.343991 0.825 0 170 255
3.456286 -12.355824 0.729 0 170 255
3.470576 -12.358617 0.767 0 170 255
3.449908 -12.430017 0.661 0 170 255
3.449094 -12.301657 0.747 0 170 255
3.449119 -12.416146 0.669 0 170 255
3.47436 -12.331365 0.794 0 170 255
3.509847 -12.369649 0.865 0 170 255
3.413306 -12.24414 0.691 0 170 255
3.457995 -12.425159 0.686 0 170 255
3.489876 -12.349371 0.826 0 170 255
3.481841 -12.347522 0.804 0 170 255
3.430726 -12.42361 0.613 0 170 255
3.443841 -12.404478 0.662 0 170 255
3.413954 -12.335379 0.627 0 170 255
3.502414 -12.406264 0.82 0 170 255
3.411001 -12.253067 0.678 0 170 255
3.505897 -12.359779 0.862 0 170 255
3.450995 -12.286912 0.765 0 170 255
3.407336 -12.264667 0.66 0 170 255
3.418294 -12.293819 0.669 0 170 255
3.475497 -12.417241 0.739 0 170 255
