ply
format ascii 1.0
element vertex 1340
property double x
property double y
property double z
property uchar red
property uchar green
property uchar blue
element face 0
property list uchar int vertex_indices
end_header
2.473455 -17.39934 0.534 84 84 255
2.444765 -17.526134 0.481 84 84 255
2.465665 -17.482912 0.55 84 84 255
2.480868 -17.42444 0.586 84 84 255
2.468746 -17.430611 0.533 84 84 255
2.451312 -17.429583 0.451 84 84 255
2.447171 -17.503792 0.48 84 84 255
2.473638 -17.434225 0.557 84 84 255
2.507353 -17.352638 0.661 84 84 255
2.471249 -17.454332 0.559 84 84 255
2.446853 -17.486795 0.468 84 84 255
2.464427 -17.410452 0.499 84 84 255
2.4861 -17.383335 0.582 84 84 255
2.446267 -17.446093 0.437 84 84 255
2.474363 -17.397558 0.537 84 84 255
2.497331 -17.376713 0.631 84 84 255
2.479607 -17.413698 0.574 84 84 255
2.446738 -17.442965 0.439 84 84 255
2.448804 -17.465342 0.461 84 84 255
2.486787 -17.410622 0.6 84 84 255
2.472985 -17.402468 0.531 84 84 255
2.503703 -17.362003 0.648 84 84 255
2.484334 -17.380192 0.572 84 84 255
2.474194 -17.419918 0.551 84 84 255
2.448414 -17.516771 0.491 84 84 255
2.456018 -17.457794 0.493 84 84 255
2.456926 -17.456013 0.496 84 84 255
2.481843 -17.413715 0.581 84 84 255
2.450145 -17.524385 0.507 84 84 255
2.448334 -17.46847 0.463 84 84 255
2.445643 -17.469343 0.448 84 84 255
2.473553 -17.445404 0.562 84 84 255
2.450649 -17.516787 0.505 84 84 255
2.486383 -17.404804 0.597 84 84 255
2.474228 -17.415445 0.55 84 84 255
2.458707 -17.456921 0.502 84 84 255
2.46698 -17.427465 0.523 84 84 255
2.463532 -17.469479 0.531 84 84 255
2.446772 -17.438494 0.435 84 84 255
2.450786 -17.498899 0.495 84 84 255
2.455126 -17.45734 0.485 84 84 255
2.468309 -17.429266 0.53 84 84 255
2.45491 -17.426928 0.464 84 84 255
2.470091 -17.430174 0.536 84 84 255
2.460671 -17.492712 0.536 84 84 255
2.462912 -17.433249 0.509 84 84 255
2.473672 -17.429752 0.555 84 84 255
2.459093 -17.464973 0.511 84 84 255
2.487916 -17.379772 0.589 84 84 255
2.465249 -17.419849 0.512 84 84 255
2.456517 -17.509676 0.527 84 84 255
2.447574 -17.509607 0.484 84 84 255
2.45146 -17.468941 0.477 84 84 255
2.45578 -17.4891 0.509 84 84 255
2.451188 -17.504717 0.498 84 84 255
2.457362 -17.457357 0.496 84 84 255
2.485493 -17.40435 0.591 84 84 255
2.447743 -17.487249 0.471 84 84 255
2.444192 -17.542677 0.49 84 84 255
2.490186 -17.375317 0.596 84 84 255
2.452805 -17.468504 0.482 84 84 255
2.444866 -17.512718 0.477 84 84 255
2.449237 -17.526169 0.503 84 84 255
2.450807 -17.437181 0.454 84 84 255
2.465348 -17.465916 0.54 84 84 255
2.471704 -17.453442 0.562 84 84 255
2.460404 -17.469007 0.519 84 84 255
2.455962 -17.523983 0.549 84 84 255
2.478848 -17.454838 0.606 84 84 255
2.457829 -17.513712 0.541 84 84 255
2.490232 -17.428089 0.653 84 84 255
2.476341 -17.490597 0.652 84 84 255
2.466217 -17.528086 0.639 84 84 255
2.4829 -17.45129 0.639 84 84 255
2.480312 -17.438747 0.589 84 84 255
2.500826 -17.387472 0.669 84 84 255
2.471533 -17.475801 0.584 84 84 255
2.462788 -17.508383 0.57 84 84 255
2.456785 -17.533381 0.574 84 84 255
2.468521 -17.519159 0.638 84 84 255
2.471585 -17.469093 0.575 84 84 255
2.494823 -17.412472 0.662 84 84 255
2.50641 -17.358892 0.659 84 84 255
2.466489 -17.49231 0.571 84 84 255
2.470842 -17.507996 0.64 84 84 255
2.47175 -17.506214 0.64 84 84 255
2.46805 -17.522285 0.641 84 84 255
2.448261 -17.536894 0.51 84 84 255
2.473952 -17.510704 0.673 84 84 255
2.482043 -17.446363 0.621 84 84 255
2.473515 -17.509357 0.663 84 84 255
2.46805 -17.522285 0.642 84 84 255
2.50313 -17.378546 0.668 84 84 255
2.478008 -17.447674 0.588 84 84 255
2.471097 -17.474457 0.579 84 84 255
2.488768 -17.44418 0.668 84 84 255
2.45275 -17.534693 0.539 84 84 255
2.474423 -17.507576 0.67 84 84 255
2.480749 -17.440092 0.595 84 84 255
2.469162 -17.493671 0.596 84 84 255
2.445066 -17.545366 0.499 84 84 255
2.472895 -17.473127 0.594 84 84 255
2.460786 -17.536543 0.605 84 84 255
2.466943 -17.491419 0.578 84 84 255
2.471063 -17.478928 0.591 84 84 255
2.475365 -17.501322 0.661 84 84 255
2.470524 -17.490999 0.607 84 84 255
2.481203 -17.439201 0.601 84 84 255
2.463039 -17.534323 0.625 84 84 255
2.475433 -17.492378 0.648 84 84 255
2.48988 -17.415565 0.631 84 84 255
2.49669 -17.402199 0.664 84 84 255
2.488365 -17.438362 0.657 84 84 255
2.477164 -17.499994 0.68 84 84 255
2.507301 -17.359346 0.667 84 84 255
2.480915 -17.477215 0.669 84 84 255
2.47096 -17.492344 0.611 84 84 255
2.451893 -17.529766 0.523 84 84 255
2.475734 -17.511612 0.683 84 84 255
2.469751 -17.474894 0.569 84 84 255
2.473027 -17.514721 0.672 84 84 255
2.474592 -17.485216 0.63 84 84 255
2.482344 -17.465597 0.655 84 84 255
2.498539 -17.394163 0.663 84 84 255
2.487474 -17.437908 0.651 84 84 255
2.497564 -17.40489 0.672 84 84 255
2.467919 -17.480694 0.569 84 84 255
2.46188 -17.510164 0.567 84 84 255
2.482934 -17.446817 0.626 84 84 255
2.480227 -17.449928 0.61 84 84 255
2.479722 -17.457527 0.62 84 84 255
2.489727 -17.435688 0.662 84 84 255
2.493982 -17.40531 0.648 84 84 255
2.482867 -17.455761 0.642 84 84 255
2.480596 -17.460217 0.637 84 84 255
2.478746 -17.468252 0.631 84 84 255
2.449538 -17.545401 0.531 84 84 255
2.50271 -17.374966 0.657 84 84 255
2.478696 -17.47496 0.64 84 84 255
2.469632 -17.490545 0.597 84 84 255
2.4641 -17.512417 0.591 84 84 255
2.459055 -17.528927 0.58 84 84 255
2.476511 -17.468235 0.618 84 84 255
2.452262 -17.540056 0.546 84 84 255
2.468708 -17.494564 0.6 84 84 255
2.475853 -17.495958 0.659 84 84 255
2.474355 -17.51652 0.684 84 84 255
2.477401 -17.468689 0.623 84 84 255
2.474843 -17.511156 0.675 84 84 255
2.455003 -17.532473 0.555 84 84 255
2.470421 -17.504416 0.631 84 84 255
2.475602 -17.470018 0.607 84 84 255
2.47693 -17.471817 0.626 84 84 255
2.474172 -17.481634 0.621 84 84 255
2.472526 -17.462839 0.57 84 84 255
2.464723 -17.489166 0.557 84 84 255
2.467091 -17.530775 0.65 84 84 255
2.454969 -17.536945 0.562 84 84 255
2.460837 -17.529835 0.598 84 84 255
2.481657 -17.438311 0.603 84 84 255
2.490703 -17.424963 0.655 84 84 255
2.458232 -17.519529 0.556 84 84 255
2.475887 -17.491488 0.652 84 84 255
2.499095 -17.379856 0.644 84 84 255
2.458147 -17.530708 0.578 84 84 255
2.457375 -17.514603 0.542 84 84 255
2.456836 -17.526674 0.556 84 84 255
2.492939 -17.42498 0.667 84 84 255
2.488098 -17.414658 0.614 84 84 255
2.50271 -17.374966 0.66 84 84 255
2.488535 -17.416 0.621 84 84 255
2.464939 -17.519579 0.611 84 84 255
2.452733 -17.536928 0.54 84 84 255
2.486078 -17.445053 0.647 84 84 255
2.499044 -17.386564 0.65 84 84 255
2.46558 -17.494093 0.57 84 84 255
2.471817 -17.497271 0.627 84 84 255
2.474457 -17.503103 0.659 84 84 255
2.486078 -17.445053 0.653 84 84 255
2.483961 -17.429384 0.603 84 84 255
2.489324 -17.429871 0.65 84 84 255
2.451002 -17.529312 0.513 84 84 255
2.480511 -17.471397 0.648 84 84 255
2.484093 -17.470978 0.681 84 84 255
2.486163 -17.433872 0.633 84 84 255
2.47071 -17.466402 0.568 84 84 255
2.469968 -17.505306 0.63 84 84 255
2.459543 -17.523563 0.576 84 84 255
2.489205 -17.445522 0.673 84 84 255
2.47054 -17.488764 0.603 84 84 255
2.47525 -17.457493 0.588 84 84 255
2.491072 -17.435251 0.671 84 84 255
2.490113 -17.443741 0.679 84 84 255
2.463561 -17.524488 0.606 84 84 255
2.479654 -17.466471 0.638 84 84 255
2.472929 -17.468657 0.588 84 84 255
2.4771 -17.449457 0.589 84 84 255
2.467027 -17.480238 0.559 84 84 255
2.463243 -17.50749 0.578 84 84 255
2.473447 -17.518301 0.68 84 84 255
2.487037 -17.436562 0.642 84 84 255
2.464486 -17.52047 0.606 84 84 255
2.477066 -17.453928 0.59 84 84 255
2.458181 -17.526236 0.568 84 84 255
2.46847 -17.525867 0.655 84 84 255
2.47054 -17.488764 0.605 84 84 255
2.45228 -17.537819 0.54 84 84 255
2.472845 -17.479836 0.607 84 84 255
2.48164 -17.440546 0.605 84 84 255
2.477889 -17.463327 0.619 84 84 255
2.465177 -17.488276 0.561 84 84 255
2.49543 -17.391457 0.631 84 84 255
2.474559 -17.489689 0.635 84 84 255
2.467782 -17.498581 0.597 84 84 255
2.469331 -17.471312 0.564 84 84 255
2.48517 -17.446835 0.647 84 84 255
2.483473 -17.434746 0.613 84 84 255
2.475585 -17.472254 0.612 84 84 255
2.462301 -17.513746 0.584 84 84 255
2.493546 -17.403965 0.643 84 84 255
2.485153 -17.44907 0.648 84 84 255
2.472034 -17.527683 0.68 84 84 255
2.480494 -17.473633 0.657 84 84 255
2.483201 -17.470524 0.671 84 84 255
2.44594 -17.548058 0.504 84 84 255
2.448647 -17.544947 0.529 84 84 255
2.466251 -17.523615 0.627 84 84 255
2.479973 -17.483467 0.666 84 84 255
2.479705 -17.459763 0.621 84 84 255
2.477215 -17.493286 0.662 84 84 255
2.500928 -17.374056 0.647 84 84 255
2.474321 -17.520992 0.687 84 84 255
2.476408 -17.481651 0.64 84 84 255
2.477703 -17.487923 0.661 84 84 255
2.469497 -17.508432 0.632 84 84 255
2.469077 -17.504852 0.622 84 84 255
2.477974 -17.452147 0.595 84 84 255
2.479824 -17.444111 0.599 84 84 255
2.469246 -17.482492 0.581 84 84 255
2.486448 -17.455341 0.67 84 84 255
2.475653 -17.46331 0.595 84 84 255
2.467108 -17.52854 0.646 84 84 255
2.476323 -17.492832 0.655 84 84 255
2.48618 -17.431637 0.625 84 84 255
2.453204 -17.5338 0.545 84 84 255
2.455559 -17.518166 0.532 84 84 255
2.464622 -17.502583 0.581 84 84 255
2.468407 -17.47533 0.562 84 84 255
2.502307 -17.369148 0.649 84 84 255
2.490618 -17.436142 0.672 84 84 255
2.477066 -17.453928 0.593 84 84 255
2.487644 -17.415546 0.615 84 84 255
2.472407 -17.478491 0.596 84 84 255
2.473515 -17.509357 0.659 84 84 255
2.493881 -17.418726 0.669 84 84 255
2.456331 -17.534273 0.572 84 84 255
2.044831 -17.187677 0.396 84 84 255
2.022403 -17.196453 0.396 84 84 255
2.080709 -17.174534 0.399 84 84 255
2.095537 -17.165255 0.389 84 84 255
2.173967 -17.14349 0.418 84 84 255
2.147924 -17.157156 0.429 84 84 255
2.091939 -17.167912 0.393 84 84 255
2.021949 -17.197344 0.397 84 84 255
2.140779 -17.15576 0.415 84 84 255
2.050664 -17.18504 0.396 84 84 255
2.06862 -17.176231 0.392 84 84 255
2.123345 -17.154732 0.39 84 84 255
2.040359 -17.187645 0.39 84 84 255
2.078943 -17.171391 0.388 84 84 255
2.102648 -17.171124 0.416 84 84 255
2.124219 -17.157423 0.4 84 84 255
2.163627 -17.150566 0.425 84 84 255
2.130053 -17.154783 0.401 84 84 255
2.145251 -17.155794 0.421 84 84 255
2.118334 -17.166769 0.422 84 84 255
2.027346 -17.193359 0.393 84 84 255
2.141216 -17.157104 0.419 84 84 255
2.117898 -17.165424 0.416 84 84 255
2.15423 -17.15139 0.417 84 84 255
2.126421 -17.161911 0.416 84 84 255
2.034054 -17.193411 0.4 84 84 255
2.095941 -17.171072 0.407 84 84 255
2.057407 -17.180618 0.389 84 84 255
2.042123 -17.190788 0.403 84 84 255
2.073076 -17.178501 0.402 84 84 255
2.173967 -17.14349 0.418 84 84 255
2.083416 -17.171425 0.394 84 84 255
2.106717 -17.16534 0.403 84 84 255
2.116552 -17.165861 0.416 84 84 255
2.134525 -17.154818 0.405 84 84 255
2.15243 -17.152718 0.42 84 84 255
2.12015 -17.163206 0.413 84 84 255
2.188292 -17.141809 0.431 84 84 255
2.1565 -17.146935 0.407 84 84 255
2.104044 -17.163979 0.396 84 84 255
2.102665 -17.168888 0.408 84 84 255
2.175296 -17.145288 0.426 84 84 255
2.144815 -17.154448 0.416 84 84 255
2.158298 -17.145605 0.406 84 84 255
2.161391 -17.150549 0.424 84 84 255
2.123765 -17.158314 0.401 84 84 255
2.125144 -17.153404 0.388 84 84 255
2.129616 -17.153439 0.395 84 84 255
2.24935 -17.169554 0.379 84 84 255
2.187786 -17.149406 0.408 84 84 255
2.194864 -17.159748 0.382 84 84 255
2.201622 -17.153091 0.403 84 84 255
2.233312 -17.161381 0.395 84 84 255
2.176152 -17.150215 0.4 84 84 255
2.263186 -17.173237 0.376 84 84 255
2.239078 -17.167686 0.381 84 84 255
2.182911 -17.143557 0.421 84 84 255
2.193603 -17.149004 0.413 84 84 255
2.238642 -17.166342 0.385 84 84 255
2.140376 -17.149942 0.386 84 84 255
2.169847 -17.155979 0.383 84 84 255
2.22842 -17.157766 0.401 84 84 255
2.234624 -17.165417 0.383 84 84 255
2.158701 -17.151423 0.39 84 84 255
2.2338 -17.156019 0.408 84 84 255
2.225748 -17.156404 0.405 84 84 255
2.204749 -17.153561 0.405 84 84 255
2.1721 -17.153761 0.389 84 84 255
2.19937 -17.15531 0.396 84 84 255
2.255622 -17.168259 0.385 84 84 255
2.230639 -17.160019 0.396 84 84 255
2.175227 -17.154232 0.39 84 84 255
2.161408 -17.148314 0.4 84 84 255
2.192695 -17.150787 0.405 84 84 255
2.181515 -17.150702 0.4 84 84 255
2.172537 -17.155106 0.384 84 84 255
2.211004 -17.154503 0.404 84 84 255
2.231513 -17.16271 0.392 84 84 255
2.194041 -17.150349 0.407 84 84 255
2.19219 -17.158386 0.385 84 84 255
2.234186 -17.164072 0.388 84 84 255
2.264532 -17.172798 0.376 84 84 255
2.202933 -17.157125 0.392 84 84 255
2.205135 -17.161613 0.381 84 84 255
2.160047 -17.150986 0.391 84 84 255
2.206531 -17.154469 0.403 84 84 255
2.210146 -17.149578 0.416 84 84 255
2.1779 -17.155594 0.385 84 84 255
2.234674 -17.158709 0.404 84 84 255
2.200799 -17.143692 0.428 84 84 255
2.17395 -17.145725 0.412 84 84 255
2.209743 -17.143761 0.432 84 84 255
2.232387 -17.1654 0.384 84 84 255
2.1663 -17.151928 0.39 84 84 255
2.254714 -17.17004 0.38 84 84 255
2.230605 -17.164492 0.385 84 84 255
2.191351 -17.151224 0.404 84 84 255
2.262397 -17.159367 0.413 84 84 255
2.272147 -17.171068 0.385 84 84 255
2.245871 -17.156557 0.414 84 84 255
2.258765 -17.166494 0.392 84 84 255
2.32361 -17.166986 0.421 84 84 255
2.287783 -17.173422 0.386 84 84 255
2.285666 -17.157753 0.43 84 84 255
2.270014 -17.157635 0.423 84 84 255
2.274889 -17.163486 0.407 84 84 255
2.286052 -17.165806 0.406 84 84 255
2.282068 -17.16041 0.42 84 84 255
2.331259 -17.160784 0.443 84 84 255
2.220906 -17.146082 0.433 84 84 255
2.296863 -17.155603 0.44 84 84 255
2.302662 -17.157434 0.439 84 84 255
2.268181 -17.163435 0.405 84 84 255
2.241484 -17.145344 0.442 84 84 255
2.339278 -17.164869 0.436 84 84 255
2.255303 -17.151262 0.433 84 84 255
2.271727 -17.167486 0.397 84 84 255
2.263323 -17.155348 0.426 84 84 255
2.304393 -17.165051 0.417 84 84 255
2.307555 -17.161051 0.432 84 84 255
2.319137 -17.166952 0.419 84 84 255
2.261977 -17.155785 0.424 84 84 255
2.263305 -17.157583 0.42 84 84 255
2.299082 -17.157856 0.437 84 84 255
2.28511 -17.17206 0.389 84 84 255
2.324972 -17.164312 0.431 84 84 255
2.305773 -17.160143 0.432 84 84 255
2.213341 -17.141104 0.441 84 84 255
2.251723 -17.151682 0.431 84 84 255
2.304796 -17.170868 0.403 84 84 255
2.290944 -17.169422 0.4 84 84 255
2.276166 -17.171993 0.386 84 84 255
2.287414 -17.163134 0.416 84 84 255
2.299451 -17.168144 0.408 84 84 255
2.221831 -17.142063 0.444 84 84 255
2.32946 -17.162111 0.438 84 84 255
2.291953 -17.154224 0.442 84 84 255
2.248964 -17.161501 0.402 84 84 255
2.254344 -17.159752 0.41 84 84 255
2.243686 -17.149832 0.432 84 84 255
2.333025 -17.163927 0.435 84 84 255
2.27435 -17.175556 0.373 84 84 255
2.283026 -17.15192 0.444 84 84 255
2.223159 -17.143862 0.439 84 84 255
2.313372 -17.160646 0.434 84 84 255
2.290137 -17.157787 0.431 84 84 255
2.339278 -17.164869 0.436 84 84 255
2.224051 -17.144316 0.437 84 84 255
2.234322 -17.146183 0.436 84 84 255
2.283378 -17.164444 0.409 84 84 255
2.284354 -17.153719 0.442 84 84 255
2.29503 -17.161402 0.425 84 84 255
2.31201 -17.163321 0.428 84 84 255
2.238272 -17.156052 0.413 84 84 255
2.352805 -17.26828 0.41 84 84 255
2.350353 -17.23785 0.418 84 84 255
2.339439 -17.261471 0.401 84 84 255
2.335468 -17.31332 0.381 84 84 255
2.335838 -17.323608 0.378 84 84 255
2.341693 -17.259253 0.404 84 84 255
2.346432 -17.282991 0.399 84 84 255
2.340399 -17.252981 0.405 84 84 255
2.347191 -17.241852 0.414 84 84 255
2.338663 -17.304846 0.386 84 84 255
2.341858 -17.296373 0.391 84 84 255
2.3523 -17.275881 0.407 84 84 255
2.352754 -17.27499 0.408 84 84 255
2.34297 -17.267759 0.402 84 84 255
2.331332 -17.328047 0.372 84 84 255
2.344463 -17.306679 0.39 84 84 255
2.333568 -17.328064 0.374 84 84 255
2.337268 -17.311993 0.382 84 84 255
2.350888 -17.285261 0.403 84 84 255
2.36449 -17.260767 0.422 84 84 255
2.331921 -17.309267 0.379 84 84 255
2.343627 -17.240036 0.412 84 84 255
2.334964 -17.320919 0.378 84 84 255
2.337118 -17.272635 0.395 84 84 255
2.344651 -17.282084 0.398 84 84 255
2.362339 -17.249569 0.424 84 84 255
2.343237 -17.291464 0.394 84 84 255
2.336847 -17.308411 0.383 84 84 255
2.33493 -17.32539 0.376 84 84 255
2.346852 -17.286572 0.399 84 84 255
2.373667 -17.289011 0.421 84 84 255
2.369696 -17.34086 0.399 84 84 255
2.35897 -17.339884 0.392 84 84 255
2.34115 -17.330805 0.38 84 84 255
2.352868 -17.318817 0.394 84 84 255
2.357086 -17.352392 0.386 84 84 255
2.365207 -17.343061 0.396 84 84 255
2.378003 -17.306932 0.418 84 84 255
2.363917 -17.277309 0.416 84 84 255
2.368185 -17.304176 0.411 84 84 255
2.35216 -17.353249 0.381 84 84 255
2.355053 -17.325542 0.393 84 84 255
2.379514 -17.343618 0.407 84 84 255
2.38343 -17.357958 0.406 84 84 255
2.362652 -17.326048 0.399 84 84 255
2.365882 -17.313103 0.406 84 84 255
2.376034 -17.330622 0.408 84 84 255
2.35751 -17.296492 0.405 84 84 255
2.332944 -17.351315 0.366 84 84 255
2.341705 -17.316498 0.385 84 84 255
2.370858 -17.305538 0.413 84 84 255
2.382709 -17.335146 0.413 84 84 255
2.355274 -17.296474 0.402 84 84 255
2.33355 -17.330299 0.373 84 84 255
2.376773 -17.3512 0.403 84 84 255
2.369666 -17.285851 0.418 84 84 255
2.343283 -17.344238 0.377 84 84 255
2.342359 -17.348255 0.375 84 84 255
2.367057 -17.335026 0.4 84 84 255
2.331633 -17.347279 0.366 84 84 255
2.366823 -17.306849 0.408 84 84 255
2.333063 -17.335663 0.371 84 84 255
2.355019 -17.330015 0.391 84 84 255
2.379565 -17.33691 0.409 84 84 255
2.347068 -17.316986 0.389 84 84 255
2.339873 -17.322298 0.381 84 84 255
2.36886 -17.274218 0.421 84 84 255
2.383027 -17.352142 0.407 84 84 255
2.381733 -17.345871 0.408 84 84 255
2.364048 -17.318903 0.402 84 84 255
2.365241 -17.338591 0.397 84 84 255
2.364537 -17.31354 0.405 84 84 255
2.378911 -17.305151 0.42 84 84 255
2.400279 -17.318283 0.467 84 84 255
2.383434 -17.298477 0.434 84 84 255
2.412218 -17.277229 0.527 84 84 255
2.389319 -17.289131 0.457 84 84 255
2.405913 -17.282995 0.503 84 84 255
2.392646 -17.32225 0.443 84 84 255
2.38987 -17.334305 0.428 84 84 255
2.382798 -17.264484 0.454 84 84 255
2.39811 -17.309322 0.467 84 84 255
2.398479 -17.319613 0.461 84 84 255
2.382662 -17.282372 0.444 84 84 255
2.390274 -17.340122 0.425 84 84 255
2.405879 -17.287468 0.501 84 84 255
2.397758 -17.296797 0.475 84 84 255
2.40509 -17.273598 0.508 84 84 255
2.395523 -17.296782 0.469 84 84 255
2.391992 -17.290493 0.461 84 84 255
2.384962 -17.332926 0.417 84 84 255
2.386744 -17.333834 0.419 84 84 255
2.387588 -17.281515 0.457 84 84 255
2.375534 -17.27874 0.425 84 84 255
2.393486 -17.329412 0.441 84 84 255
2.395272 -17.27084 0.483 84 84 255
2.380931 -17.274755 0.442 84 84 255
2.403155 -17.292814 0.492 84 84 255
2.396583 -17.274874 0.486 84 84 255
2.387571 -17.283751 0.456 84 84 255
2.40349 -17.307573 0.482 84 84 255
2.393371 -17.285583 0.469 84 84 255
2.390881 -17.319107 0.439 84 84 255
2.393116 -17.319124 0.445 84 84 255
2.377401 -17.268469 0.437 84 84 255
2.389904 -17.329832 0.431 84 84 255
2.380545 -17.266703 0.447 84 84 255
2.407275 -17.280323 0.511 84 84 255
2.386409 -17.319073 0.428 84 84 255
2.39214 -17.329849 0.439 84 84 255
2.390274 -17.340122 0.427 84 84 255
2.392095 -17.277077 0.472 84 84 255
2.394512 -17.311979 0.456 84 84 255
2.389807 -17.283768 0.46 84 84 255
2.385449 -17.327562 0.421 84 84 255
2.41131 -17.279011 0.521 84 84 255
2.399574 -17.293234 0.482 84 84 255
2.374745 -17.26487 0.433 84 84 255
2.39105 -17.296747 0.456 84 84 255
2.38811 -17.271679 0.465 84 84 255
2.407207 -17.289267 0.504 84 84 255
2.392628 -17.324488 0.441 84 84 255
2.389349 -17.344141 0.42 84 84 255
2.383316 -17.314131 0.423 84 84 255
2.381873 -17.268501 0.45 84 84 255
2.389735 -17.352194 0.415 84 84 255
2.396663 -17.323175 0.453 84 84 255
2.398399 -17.271311 0.493 84 84 255
2.389319 -17.289131 0.456 84 84 255
2.320894 -17.524746 0.455 84 84 255
2.341039 -17.463182 0.445 84 84 255
2.322494 -17.49077 0.438 84 84 255
2.322744 -17.516712 0.452 84 84 255
2.316244 -17.430347 0.396 84 84 255
2.305543 -17.543861 0.448 84 84 255
2.297948 -17.483875 0.403 84 84 255
2.31483 -17.439728 0.4 84 84 255
2.292954 -17.493675 0.404 84 84 255
2.325124 -17.379877 0.378 84 84 255
2.319281 -17.501478 0.439 84 84 255
2.343929 -17.494957 0.467 84 84 255
2.329384 -17.525705 0.466 84 84 255
2.332583 -17.457752 0.431 84 84 255
2.314313 -17.390081 0.371 84 84 255
2.297664 -17.462406 0.391 84 84 255
2.2946 -17.512472 0.416 84 84 255
2.331675 -17.459534 0.431 84 84 255
2.33092 -17.441193 0.42 84 84 255
2.295526 -17.508453 0.415 84 84 255
2.339461 -17.435442 0.427 84 84 255
2.343055 -17.492268 0.463 84 84 255
2.331743 -17.45059 0.426 84 84 255
2.333406 -17.46715 0.438 84 84 255
2.331242 -17.398708 0.396 84 84 255
2.272724 -17.56642 0.421 84 84 255
2.329109 -17.385275 0.385 84 84 255
2.310614 -17.406155 0.375 84 84 255
2.311216 -17.44462 0.398 84 84 255
2.294363 -17.543776 0.433 84 84 255
2.324241 -17.496149 0.443 84 84 255
2.296382 -17.51338 0.419 84 84 255
2.306434 -17.544315 0.448 84 84 255
2.33364 -17.495327 0.453 84 84 255
2.338599 -17.489998 0.457 84 84 255
2.316566 -17.387863 0.372 84 84 255
2.311479 -17.527805 0.445 84 84 255
2.311784 -17.487556 0.423 84 84 255
2.280022 -17.547693 0.418 84 84 255
2.307584 -17.451748 0.398 84 84 255
2.329375 -17.408979 0.4 84 84 255
2.329711 -17.42374 0.409 84 84 255
2.310609 -17.465633 0.409 84 84 255
2.345964 -17.462326 0.451 84 84 255
2.338231 -17.479708 0.45 84 84 255
2.291979 -17.504402 0.409 84 84 255
2.2964 -17.511145 0.418 84 84 255
2.291507 -17.507528 0.409 84 84 255
2.319129 -17.521603 0.452 84 84 255
2.348854 -17.494101 0.471 84 84 255
2.312153 -17.497847 0.429 84 84 255
2.312056 -17.451782 0.403 84 84 255
2.318709 -17.518023 0.448 84 84 255
2.314861 -17.494736 0.431 84 84 255
2.315565 -17.519787 0.446 84 84 255
2.327118 -17.47068 0.432 84 84 255
2.323575 -17.407146 0.392 84 84 255
2.292802 -17.5138 0.415 84 84 255
2.308 -17.514811 0.433 84 84 255
2.299356 -17.533976 0.434 84 84 255
2.306468 -17.539843 0.446 84 84 255
2.327521 -17.476498 0.436 84 84 255
2.335931 -17.429155 0.419 84 84 255
2.345625 -17.507046 0.475 84 84 255
2.327436 -17.487677 0.443 84 84 255
2.332872 -17.419739 0.41 84 84 255
2.336418 -17.423792 0.417 84 84 255
2.319316 -17.497007 0.437 84 84 255
2.306642 -17.458002 0.4 84 84 255
2.31562 -17.453598 0.409 84 84 255
2.304996 -17.439205 0.387 84 84 255
2.310422 -17.490231 0.423 84 84 255
2.335125 -17.417521 0.411 84 84 255
2.328747 -17.491711 0.446 84 84 255
2.342918 -17.510155 0.473 84 84 255
2.326634 -17.416561 0.401 84 84 255
2.333979 -17.450607 0.429 84 84 255
2.31999 -17.467049 0.421 84 84 255
2.33411 -17.492199 0.453 84 84 255
2.328655 -17.386166 0.385 84 84 255
2.308322 -17.472326 0.409 84 84 255
2.298232 -17.505344 0.417 84 84 255
2.348553 -17.474867 0.461 84 84 255
2.328361 -17.483658 0.441 84 84 255
2.284443 -17.554434 0.428 84 84 255
2.323669 -17.512693 0.452 84 84 255
2.321759 -17.410709 0.391 84 84 255
2.333355 -17.473858 0.442 84 84 255
2.326834 -17.449211 0.42 84 84 255
2.331259 -17.396471 0.395 84 84 255
2.343343 -17.454256 0.443 84 84 255
2.316188 -17.496536 0.434 84 84 255
2.292751 -17.520508 0.419 84 84 255
2.31111 -17.517517 0.439 84 84 255
2.329779 -17.414797 0.404 84 84 255
2.320087 -17.513113 0.447 84 84 255
2.32988 -17.401381 0.396 84 84 255
2.335443 -17.434517 0.421 84 84 255
2.304644 -17.426682 0.38 84 84 255
2.336245 -17.505632 0.463 84 84 255
2.297762 -17.508471 0.417 84 84 255
2.348519 -17.47934 0.462 84 84 255
2.308267 -17.538515 0.447 84 84 255
2.337293 -17.426481 0.42 84 84 255
2.346839 -17.465015 0.453 84 84 255
2.31027 -17.510355 0.434 84 84 255
2.296467 -17.502199 0.413 84 84 255
2.337326 -17.422009 0.417 84 84 255
2.300452 -17.507597 0.42 84 84 255
2.30842 -17.518391 0.437 84 84 255
2.342686 -17.481977 0.457 84 84 255
2.322548 -17.42458 0.4 84 84 255
2.331259 -17.396471 0.395 84 84 255
2.350199 -17.493664 0.474 84 84 255
2.336033 -17.415739 0.412 84 84 255
2.318314 -17.393242 0.377 84 84 255
2.308891 -17.515263 0.434 84 84 255
2.329388 -17.466225 0.432 84 84 255
2.308169 -17.492451 0.421 84 84 255
2.333308 -17.421085 0.411 84 84 255
2.282241 -17.549946 0.422 84 84 255
2.325879 -17.39822 0.39 84 84 255
2.304219 -17.48258 0.411 84 84 255
2.332434 -17.418394 0.409 84 84 255
2.300639 -17.483002 0.407 84 84 255
2.310812 -17.438803 0.394 84 84 255
2.324911 -17.525673 0.46 84 84 255
2.332282 -17.438519 0.421 84 84 255
2.314678 -17.459852 0.41 84 84 255
2.326461 -17.498404 0.447 84 84 255
2.33551 -17.425573 0.416 84 84 255
2.34003 -17.47838 0.452 84 84 255
2.358944 -17.461082 0.459 84 84 255
2.346406 -17.40419 0.411 84 84 255
2.372483 -17.386051 0.417 84 84 255
2.364358 -17.454863 0.459 84 84 255
2.326134 -17.364679 0.37 84 84 255
2.350135 -17.443127 0.441 84 84 255
2.348778 -17.386318 0.4 84 84 255
2.35165 -17.42033 0.426 84 84 255
2.350976 -17.450289 0.446 84 84 255
2.374584 -17.403955 0.431 84 84 255
2.363739 -17.418633 0.434 84 84 255
2.369203 -17.405703 0.429 84 84 255
2.36051 -17.431578 0.44 84 84 255
2.367893 -17.401669 0.424 84 84 255
2.361702 -17.451265 0.455 84 84 255
2.356309 -17.395767 0.412 84 84 255
2.352983 -17.362648 0.387 84 84 255
2.326957 -17.374077 0.378 84 84 255
2.360611 -17.418161 0.431 84 84 255
2.357361 -17.492823 0.48 84 84 255
2.352122 -17.417202 0.424 84 84 255
2.3498 -17.428366 0.431 84 84 255
2.371762 -17.363237 0.401 84 84 255
2.356156 -17.415892 0.426 84 84 255
2.361957 -17.417725 0.432 84 84 255
2.355788 -17.405603 0.419 84 84 255
2.334925 -17.384871 0.39 84 84 255
2.359768 -17.47048 0.466 84 84 255
2.358371 -17.477625 0.47 84 84 255
2.368046 -17.381544 0.411 84 84 255
2.351261 -17.471758 0.461 84 84 255
2.374651 -17.395012 0.425 84 84 255
2.377965 -17.370886 0.411 84 84 255
2.383748 -17.374956 0.418 84 84 255
2.37519 -17.38294 0.417 84 84 255
2.342774 -17.411318 0.414 84 84 255
2.354392 -17.412748 0.422 84 84 255
2.374248 -17.389194 0.421 84 84 255
2.351095 -17.434637 0.435 84 84 255
2.35056 -17.387226 0.402 84 84 255
2.361893 -17.367188 0.397 84 84 255
2.349602 -17.395716 0.408 84 84 255
2.356895 -17.436468 0.441 84 84 255
2.348579 -17.353668 0.379 84 84 255
2.376637 -17.369089 0.408 84 84 255
2.373726 -17.399031 0.427 84 84 255
2.350798 -17.355923 0.381 84 84 255
2.363858 -17.402979 0.423 84 84 255
2.35073 -17.364866 0.387 84 84 255
2.352813 -17.385008 0.403 84 84 255
2.338892 -17.392504 0.398 84 84 255
2.353042 -17.472666 0.463 84 84 255
2.364057 -17.435629 0.445 84 84 255
2.350174 -17.379173 0.397 84 84 255
2.371274 -17.368601 0.404 84 84 255
2.353738 -17.380989 0.401 84 84 255
2.361638 -17.400726 0.42 84 84 255
2.373141 -17.358328 0.398 84 84 255
2.361753 -17.444555 0.45 84 84 255
2.364256 -17.468279 0.467 84 84 255
2.362979 -17.459772 0.461 84 84 255
2.344607 -17.405518 0.411 84 84 255
2.347972 -17.374683 0.392 84 84 255
2.35891 -17.465555 0.462 84 84 255
2.355096 -17.437798 0.441 84 84 255
2.34602 -17.396137 0.405 84 84 255
2.34989 -17.357704 0.382 84 84 255
2.346139 -17.380484 0.395 84 84 255
2.330555 -17.371422 0.378 84 84 255
2.374651 -17.395012 0.425 84 84 255
2.359109 -17.498203 0.501 84 84 255
2.370862 -17.481745 0.614 84 84 255
2.374697 -17.447784 0.543 84 84 255
2.371367 -17.474146 0.597 84 84 255
2.375623 -17.443768 0.539 84 84 255
2.383613 -17.392843 0.46 84 84 255
2.371401 -17.469675 0.582 84 84 255
2.357731 -17.503113 0.493 84 84 255
2.367315 -17.477694 0.541 84 84 255
2.375169 -17.444658 0.534 84 84 255
2.370578 -17.460276 0.531 84 84 255
2.385479 -17.382572 0.45 84 84 255
2.365936 -17.482603 0.547 84 84 255
2.37342 -17.439278 0.495 84 84 255
2.360909 -17.496876 0.511 84 84 255
2.378903 -17.424114 0.522 84 84 255
2.360892 -17.499111 0.518 84 84 255
2.365971 -17.47813 0.524 84 84 255
2.361867 -17.488386 0.49 84 84 255
2.375101 -17.453602 0.573 84 84 255
2.370493 -17.471457 0.57 84 84 255
2.366458 -17.472767 0.516 84 84 255
2.365045 -17.482149 0.531 84 84 255
2.375725 -17.430351 0.481 84 84 255
2.372394 -17.456713 0.541 84 84 255
2.365516 -17.479021 0.515 84 84 255
2.380837 -17.404898 0.466 84 84 255
2.366913 -17.471876 0.519 84 84 255
2.378448 -17.425005 0.519 84 84 255
2.37707 -17.429914 0.518 84 84 255
2.376531 -17.441984 0.553 84 84 255
2.360925 -17.494638 0.5 84 84 255
2.38183 -17.391935 0.435 84 84 255
2.373302 -17.454929 0.556 84 84 255
2.374227 -17.450912 0.557 84 84 255
2.372343 -17.463419 0.571 84 84 255
2.378937 -17.419641 0.499 84 84 255
2.361833 -17.492857 0.521 84 84 255
2.37194 -17.457603 0.533 84 84 255
2.379527 -17.400864 0.436 84 84 255
2.376128 -17.436169 0.511 84 84 255
2.3711 -17.450441 0.498 84 84 255
2.373926 -17.431679 0.47 84 84 255
2.366776 -17.489763 0.58 84 84 255
2.375809 -17.41917 0.452 84 84 255
2.372479 -17.445532 0.504 84 84 255
2.367888 -17.461149 0.478 84 84 255
2.375322 -17.424534 0.462 84 84 255
2.366005 -17.473658 0.505 84 84 255
2.371401 -17.469675 0.581 84 84 255
2.386454 -17.371845 0.417 84 84 255
2.369721 -17.455351 0.492 84 84 255
2.370242 -17.445515 0.457 84 84 255
2.362724 -17.493311 0.538 84 84 255
2.367332 -17.475458 0.53 84 84 255
2.384537 -17.388826 0.454 84 84 255
2.381763 -17.400881 0.468 84 84 255
2.374664 -17.452257 0.568 84 84 255
2.381814 -17.394173 0.441 84 84 255
2.374816 -17.432133 0.481 84 84 255
2.379475 -17.407572 0.464 84 84 255
2.382705 -17.394627 0.456 84 84 255
2.37194 -17.457603 0.545 84 84 255
2.369517 -17.482183 0.612 84 84 255
2.368189 -17.480383 0.565 84 84 255
2.377036 -17.434385 0.522 84 84 255
2.375725 -17.430351 0.492 84 84 255
2.374362 -17.433023 0.473 84 84 255
2.365164 -17.466496 0.468 84 84 255
2.365483 -17.483494 0.54 84 84 255
2.369954 -17.483526 0.608 84 84 255
2.368308 -17.464731 0.501 84 84 255
2.363213 -17.487947 0.514 84 84 255
2.362321 -17.487494 0.5 84 84 255
2.387868 -17.362465 0.412 84 84 255
2.365902 -17.487074 0.568 84 84 255
2.372343 -17.463419 0.576 84 84 255
2.368376 -17.455788 0.469 84 84 255
2.374732 -17.443314 0.531 84 84 255
2.3732 -17.468346 0.599 84 84 255
2.37295 -17.442406 0.487 84 84 255
2.376582 -17.435278 0.518 84 84 255
2.362321 -17.487494 0.497 84 84 255
2.369687 -17.459822 0.503 84 84 255
2.364978 -17.491093 0.567 84 84 255
2.374782 -17.436605 0.492 84 84 255
2.371838 -17.47102 0.598 84 84 255
2.377524 -17.429024 0.513 84 84 255
2.378567 -17.409353 0.443 84 84 255
2.385479 -17.382572 0.45 84 84 255
2.371083 -17.452677 0.504 84 84 255
2.379475 -17.407572 0.451 84 84 255
2.381291 -17.404007 0.472 84 84 255
2.380889 -17.39819 0.448 84 84 255
2.3767 -17.419626 0.46 84 84 255
2.370947 -17.470564 0.574 84 84 255
2.362793 -17.484367 0.495 84 84 255
2.369704 -17.457586 0.507 84 84 255
2.376111 -17.438404 0.532 84 84 255
2.37623 -17.422752 0.469 84 84 255
2.36681 -17.485292 0.571 84 84 255
2.37295 -17.442406 0.497 84 84 255
2.378533 -17.413824 0.461 84 84 255
2.370022 -17.474583 0.572 84 84 255
2.363162 -17.494658 0.538 84 84 255
2.367702 -17.485746 0.581 84 84 255
2.371384 -17.47191 0.59 84 84 255
2.37379 -17.449568 0.539 84 84 255
2.378517 -17.416061 0.475 84 84 255
2.380837 -17.404898 0.465 84 84 255
2.360017 -17.49642 0.491 84 84 255
2.37379 -17.449568 0.539 84 84 255
2.370209 -17.449987 0.484 84 84 255
2.397941 -17.331682 0.473 84 84 255
2.402985 -17.315174 0.489 84 84 255
2.380197 -17.430386 0.578 84 84 255
2.390825 -17.385296 0.57 84 84 255
2.394559 -17.364752 0.567 84 84 255
2.372241 -17.476835 0.616 84 84 255
2.374159 -17.459856 0.59 84 84 255
2.394071 -17.370115 0.566 84 84 255
2.388101 -17.390642 0.557 84 84 255
2.384822 -17.410295 0.562 84 84 255
2.409426 -17.291519 0.509 84 84 255
2.388793 -17.358446 0.415 84 84 255
2.388067 -17.395113 0.577 84 84 255
2.398327 -17.339735 0.517 84 84 255
2.389935 -17.384842 0.555 84 84 255
2.387126 -17.401367 0.585 84 84 255
2.379237 -17.438875 0.594 84 84 255
2.383107 -17.400442 0.488 84 84 255
2.383006 -17.413858 0.556 84 84 255
2.388051 -17.39735 0.575 84 84 255
2.38573 -17.408514 0.585 84 84 255
2.380634 -17.43173 0.589 84 84 255
2.390456 -17.375006 0.528 84 84 255
2.404382 -17.308029 0.496 84 84 255
2.374142 -17.462091 0.597 84 84 255
2.380617 -17.433966 0.594 84 84 255
2.375504 -17.459419 0.609 84 84 255
2.38637 -17.383026 0.48 84 84 255
2.385343 -17.400459 0.536 84 84 255
2.385258 -17.41164 0.583 84 84 255
2.378364 -17.436186 0.563 84 84 255
2.385781 -17.401804 0.55 84 84 255
2.377859 -17.443785 0.578 84 84 255
2.407593 -17.297319 0.507 84 84 255
2.379221 -17.441111 0.602 84 84 255
2.376934 -17.447802 0.598 84 84 255
2.401101 -17.327681 0.512 84 84 255
2.387177 -17.394659 0.558 84 84 255
2.379322 -17.427694 0.539 84 84 255
2.391296 -17.38217 0.576 84 84 255
2.388607 -17.383043 0.525 84 84 255
2.385395 -17.393751 0.503 84 84 255
2.388521 -17.394222 0.575 84 84 255
2.394644 -17.353571 0.513 84 84 255
2.39276 -17.366079 0.529 84 84 255
2.391313 -17.379932 0.559 84 84 255
2.3878 -17.371408 0.445 84 84 255
2.397453 -17.337046 0.477 84 84 255
2.380752 -17.416079 0.524 84 84 255
2.386841 -17.3799 0.472 84 84 255
2.389213 -17.362028 0.436 84 84 255
2.404297 -17.319208 0.539 84 84 255
2.392709 -17.372787 0.564 84 84 255
2.392408 -17.353556 0.45 84 84 255
2.393231 -17.362953 0.53 84 84 255
2.383896 -17.414312 0.565 84 84 255
2.39873 -17.345552 0.547 84 84 255
2.394644 -17.353571 0.5 84 84 255
2.381678 -17.41206 0.523 84 84 255
2.389917 -17.387077 0.559 84 84 255
2.386672 -17.40226 0.571 84 84 255
2.389633 -17.365608 0.448 84 84 255
2.401555 -17.32679 0.523 84 84 255
2.386791 -17.386606 0.508 84 84 255
2.39693 -17.34688 0.529 84 84 255
2.40016 -17.333935 0.52 84 84 255
2.388793 -17.358446 0.418 84 84 255
2.386858 -17.377663 0.456 84 84 255
2.393214 -17.365189 0.544 84 84 255
2.395603 -17.345081 0.486 84 84 255
2.396982 -17.340174 0.483 84 84 255
2.389463 -17.387968 0.564 84 84 255
2.404751 -17.318317 0.54 84 84 255
2.38637 -17.383026 0.479 84 84 255
2.384015 -17.398661 0.503 84 84 255
2.400614 -17.333044 0.524 84 84 255
2.398712 -17.347788 0.564 84 84 255
2.390609 -17.354883 0.438 84 84 255
2.380718 -17.420549 0.525 84 84 255
2.381559 -17.427711 0.583 84 84 255
2.377388 -17.446911 0.586 84 84 255
2.374159 -17.459856 0.59 84 84 255
2.402951 -17.319645 0.524 84 84 255
2.384418 -17.404478 0.544 84 84 255
2.408972 -17.29241 0.518 84 84 255
2.372275 -17.472364 0.606 84 84 255
2.388034 -17.399586 0.579 84 84 255
2.394224 -17.349991 0.486 84 84 255
2.395989 -17.353134 0.524 84 84 255
2.382954 -17.420567 0.583 84 84 255
2.387261 -17.38348 0.498 84 84 255
2.39646 -17.350008 0.534 84 84 255
2.3769 -17.452274 0.604 84 84 255
2.397907 -17.336155 0.479 84 84 255
2.381996 -17.429056 0.597 84 84 255
2.394258 -17.345518 0.451 84 84 255
2.393298 -17.35401 0.484 84 84 255
2.375975 -17.456293 0.613 84 84 255
2.388975 -17.393332 0.584 84 84 255
2.406147 -17.311172 0.539 84 84 255
2.387312 -17.376772 0.457 84 84 255
2.379811 -17.422331 0.528 84 84 255
2.390456 -17.375006 0.521 84 84 255
2.385445 -17.387045 0.478 84 84 255
2.397957 -17.329447 0.47 84 84 255
2.392845 -17.3549 0.48 84 84 255
2.401101 -17.327681 0.515 84 84 255
2.402531 -17.316065 0.492 84 84 255
2.400597 -17.335281 0.545 84 84 255
2.381626 -17.418768 0.549 84 84 255
2.383862 -17.418785 0.586 84 84 255
2.38948 -17.385733 0.549 84 84 255
2.384015 -17.398661 0.502 84 84 255
2.382552 -17.414751 0.536 84 84 255
2.374579 -17.463438 0.612 84 84 255
2.383442 -17.415205 0.579 84 84 255
2.388992 -17.391096 0.579 84 84 255
2.389111 -17.375444 0.486 84 84 255
2.404313 -17.316973 0.525 84 84 255
2.385258 -17.41164 0.591 84 84 255
2.37791 -17.437077 0.567 84 84 255
2.387631 -17.393768 0.547 84 84 255
2.389917 -17.387077 0.565 84 84 255
2.392239 -17.375916 0.568 84 84 255
2.39335 -17.347301 0.444 84 84 255
2.377927 -17.434839 0.545 84 84 255
2.395183 -17.341501 0.454 84 84 255
2.39377 -17.350882 0.466 84 84 255
2.377354 -17.451384 0.605 84 84 255
2.380651 -17.429495 0.573 84 84 255
2.393147 -17.374132 0.566 84 84 255
2.377439 -17.440203 0.562 84 84 255
2.384907 -17.399115 0.518 84 84 255
2.396528 -17.341064 0.486 84 84 255
2.395535 -17.354025 0.517 84 84 255
2.384856 -17.405823 0.557 84 84 255
2.390541 -17.363827 0.462 84 84 255
2.394712 -17.344627 0.464 84 84 255
2.385781 -17.401804 0.547 84 84 255
2.38923 -17.359793 0.414 84 84 255
2.386387 -17.380791 0.455 84 84 255
2.37135 -17.476381 0.617 84 84 255
2.38124 -17.410715 0.502 84 84 255
2.381644 -17.416533 0.546 84 84 255
2.390002 -17.375898 0.514 84 84 255
2.397402 -17.343754 0.514 84 84 255
2.394627 -17.355808 0.517 84 84 255
2.375571 -17.450476 0.578 84 84 255
2.393668 -17.364298 0.532 84 84 255
2.385377 -17.395988 0.519 84 84 255
2.398865 -17.327665 0.468 84 84 255
2.404751 -17.318317 0.55 84 84 255
2.406181 -17.306702 0.515 84 84 255
2.378818 -17.435293 0.572 84 84 255
2.405726 -17.307592 0.511 84 84 255
2.377439 -17.440203 0.573 84 84 255
2.407071 -17.307154 0.543 84 84 255
2.400614 -17.333044 0.524 84 84 255
2.397436 -17.339281 0.485 84 84 255
2.386353 -17.385262 0.477 84 84 255
2.386722 -17.395552 0.543 84 84 255
2.381088 -17.43084 0.6 84 84 255
2.377944 -17.432604 0.538 84 84 255
2.407559 -17.301792 0.526 84 84 255
2.383965 -17.405369 0.537 84 84 255
2.396426 -17.354479 0.537 84 84 255
2.401589 -17.322319 0.51 84 84 255
2.384537 -17.388826 0.464 84 84 255
2.379306 -17.429932 0.545 84 84 255
2.396476 -17.347773 0.522 84 84 255
2.408938 -17.296883 0.534 84 84 255
2.376497 -17.446457 0.573 84 84 255
2.427225 -17.362316 0.599 84 84 255
2.444519 -17.440712 0.664 84 84 255
2.404742 -17.437279 0.627 84 84 255
2.437959 -17.480019 0.683 84 84 255
2.419579 -17.309038 0.557 84 84 255
2.431387 -17.46208 0.667 84 84 255
2.452182 -17.491755 0.704 84 84 255
2.409685 -17.434187 0.629 84 84 255
2.439695 -17.428154 0.652 84 84 255
2.393345 -17.406782 0.598 84 84 255
2.403656 -17.344696 0.566 84 84 255
2.438197 -17.448713 0.664 84 84 255
2.421124 -17.341251 0.579 84 84 255
2.403066 -17.363474 0.579 84 84 255
2.404942 -17.469929 0.648 84 84 255
2.378109 -17.469725 0.625 84 84 255
2.404831 -17.366619 0.582 84 84 255
2.446687 -17.449673 0.672 84 84 255
2.432873 -17.384274 0.617 84 84 255
2.437527 -17.419191 0.644 84 84 255
2.409977 -17.336693 0.567 84 84 255
2.411013 -17.435986 0.632 84 84 255
2.41327 -17.374287 0.595 84 84 255
2.400707 -17.438591 0.625 84 84 255
2.436687 -17.412031 0.639 84 84 255
2.427254 -17.417326 0.634 84 84 255
2.428345 -17.450428 0.656 84 84 255
2.423406 -17.394039 0.616 84 84 255
2.392751 -17.485043 0.647 84 84 255
2.421141 -17.339014 0.578 84 84 255
2.404407 -17.42252 0.617 84 84 255
2.41257 -17.289755 0.538 84 84 255
2.388233 -17.432234 0.61 84 84 255
2.420161 -17.409222 0.623 84 84 255
2.416427 -17.429766 0.633 84 84 255
2.40906 -17.457438 0.644 84 84 255
2.384249 -17.426838 0.603 84 84 255
2.422358 -17.47319 0.666 84 84 255
2.411094 -17.484287 0.664 84 84 255
2.387002 -17.476501 0.637 84 84 255
2.380311 -17.474215 0.63 84 84 255
2.388517 -17.453705 0.624 84 84 255
2.429241 -17.391401 0.619 84 84 255
2.409397 -17.472198 0.653 84 84 255
2.449174 -17.475632 0.69 84 84 255
2.413588 -17.391281 0.605 84 84 255
2.423962 -17.379734 0.607 84 84 255
2.416817 -17.378338 0.6 84 84 255
2.380731 -17.477795 0.633 84 84 255
2.412629 -17.399773 0.61 84 84 255
2.414437 -17.279482 0.534 84 84 255
2.417331 -17.487465 0.671 84 84 255
2.412438 -17.483849 0.664 84 84 255
2.388869 -17.466228 0.632 84 84 255
2.378143 -17.465254 0.623 84 84 255
2.415515 -17.491028 0.671 84 84 255
2.419003 -17.385063 0.606 84 84 255
2.427628 -17.368134 0.602 84 84 255
2.411551 -17.423914 0.625 84 84 255
2.38704 -17.412548 0.595 84 84 255
2.374058 -17.473272 0.623 84 84 255
2.420712 -17.454395 0.652 84 84 255
2.403028 -17.427427 0.62 84 84 255
2.405077 -17.452042 0.637 84 84 255
2.442096 -17.465292 0.678 84 84 255
2.422821 -17.353338 0.589 84 84 255
2.414025 -17.392628 0.606 84 84 255
2.424764 -17.450848 0.654 84 84 255
2.435376 -17.407995 0.636 84 84 255
2.425553 -17.464718 0.663 84 84 255
2.396188 -17.385784 0.586 84 84 255
2.418561 -17.443199 0.643 84 84 255
2.435494 -17.392344 0.626 84 84 255
2.406011 -17.32906 0.558 84 84 255
2.432736 -17.402161 0.629 84 84 255
2.422863 -17.465593 0.662 84 84 255
2.385674 -17.474703 0.635 84 84 255
2.443106 -17.450094 0.669 84 84 255
2.442232 -17.447403 0.667 84 84 255
2.409778 -17.304045 0.545 84 84 255
2.453175 -17.478792 0.696 84 84 255
2.434417 -17.416485 0.64 84 84 255
2.431773 -17.470133 0.673 84 84 255
2.393986 -17.381294 0.582 84 84 255
2.400728 -17.376873 0.585 84 84 255
2.399654 -17.341536 0.561 84 84 255
2.431358 -17.40707 0.63 84 84 255
2.413198 -17.442711 0.639 84 84 255
2.41383 -17.300497 0.547 84 84 255
2.421073 -17.347958 0.584 84 84 255
2.430161 -17.446865 0.655 84 84 255
2.454923 -17.484173 0.702 84 84 255
2.430764 -17.485331 0.681 84 84 255
2.425689 -17.446831 0.652 84 84 255
2.411166 -17.415861 0.62 84 84 255
2.436114 -17.428574 0.65 84 84 255
2.430886 -17.410198 0.633 84 84 255
2.415786 -17.455254 0.649 84 84 255
2.405819 -17.413137 0.612 84 84 255
2.396774 -17.426485 0.613 84 84 255
2.410037 -17.446712 0.638 84 84 255
2.391258 -17.446121 0.622 84 84 255
2.403384 -17.380472 0.59 84 84 255
2.380934 -17.450964 0.615 84 84 255
2.413088 -17.339401 0.571 84 84 255
2.423004 -17.388224 0.612 84 84 255
2.389947 -17.442087 0.617 84 84 255
2.399566 -17.412195 0.607 84 84 255
2.397011 -17.395182 0.594 84 84 255
2.389981 -17.437614 0.614 84 84 255
2.425074 -17.35112 0.589 84 84 255
2.399294 -17.447971 0.629 84 84 255
2.404462 -17.356329 0.575 84 84 255
2.403367 -17.382708 0.591 84 84 255
2.434871 -17.415594 0.64 84 84 255
2.40663 -17.36529 0.582 84 84 255
2.419872 -17.447233 0.647 84 84 255
2.414721 -17.300951 0.548 84 84 255
2.443123 -17.447857 0.668 84 84 255
2.385963 -17.436689 0.611 84 84 255
2.422528 -17.450832 0.651 84 84 255
2.393095 -17.38084 0.58 84 84 255
2.45062 -17.461779 0.683 84 84 255
2.402977 -17.434135 0.624 84 84 255
2.40772 -17.398394 0.604 84 84 255
2.385606 -17.483646 0.64 84 84 255
2.400189 -17.388945 0.593 84 84 255
2.418073 -17.448563 0.647 84 84 255
2.412349 -17.318823 0.558 84 84 255
2.440955 -17.438896 0.66 84 84 255
2.41512 -17.366249 0.59 84 84 255
2.439741 -17.480927 0.686 84 84 255
2.434162 -17.450026 0.661 84 84 255
2.403872 -17.375109 0.586 84 84 255
2.440989 -17.434423 0.657 84 84 255
2.394584 -17.479242 0.646 84 84 255
2.414857 -17.283064 0.537 84 84 255
2.391241 -17.448359 0.623 84 84 255
2.414751 -17.355961 0.583 84 84 255
2.383103 -17.459925 0.623 84 84 255
2.405166 -17.38138 0.592 84 84 255
2.422159 -17.440542 0.645 84 84 255
2.406613 -17.367527 0.584 84 84 255
2.126281 -17.239281 0.389 84 84 255
2.092291 -17.180435 0.413 84 84 255
2.250085 -17.249613 0.396 84 84 255
2.156071 -17.262316 0.382 84 84 255
2.254166 -17.301075 0.373 84 84 255
2.180505 -17.165899 0.429 84 84 255
2.187765 -17.211124 0.409 84 84 255
2.256453 -17.294384 0.376 84 84 255
2.03385 -17.220243 0.389 84 84 255
2.247229 -17.213366 0.413 84 84 255
2.193133 -17.152132 0.436 84 84 255
2.236572 -17.203445 0.417 84 84 255
2.220711 -17.28964 0.375 84 84 255
2.206659 -17.255545 0.39 84 84 255
2.237708 -17.289322 0.377 84 84 255
2.174548 -17.243671 0.392 84 84 255
2.095856 -17.182251 0.413 84 84 255
2.221759 -17.210489 0.412 84 84 255
2.118347 -17.224014 0.396 84 84 255
2.14767 -17.190695 0.414 84 84 255
2.140304 -17.218367 0.401 84 84 255
2.198427 -17.161564 0.433 84 84 255
2.275889 -17.26725 0.391 84 84 255
2.220664 -17.236866 0.4 84 84 255
2.215272 -17.18137 0.425 84 84 255
2.19096 -17.202652 0.413 84 84 255
2.232519 -17.206991 0.415 84 84 255
2.161921 -17.257441 0.385 84 84 255
2.186759 -17.166842 0.429 84 84 255
2.140996 -17.186172 0.416 84 84 255
2.239715 -17.201681 0.418 84 84 255
2.115538 -17.240541 0.388 84 84 255
2.204915 -17.190683 0.42 84 84 255
2.221878 -17.194838 0.419 84 84 255
2.119476 -17.193165 0.41 84 84 255
2.05747 -17.231155 0.387 84 84 255
2.084841 -17.219288 0.395 84 84 255
2.170284 -17.157324 0.432 84 84 255
2.080704 -17.234016 0.387 84 84 255
2.235595 -17.21417 0.412 84 84 255
2.201834 -17.242985 0.395 84 84 255
2.240755 -17.241491 0.4 84 84 255
2.227741 -17.247206 0.396 84 84 255
2.273217 -17.265888 0.391 84 84 255
2.194257 -17.180763 0.423 84 84 255
2.278609 -17.321384 0.366 84 84 255
2.09762 -17.185396 0.412 84 84 255
2.146563 -17.159828 0.428 84 84 255
2.20469 -17.279232 0.379 84 84 255
2.055336 -17.217722 0.393 84 84 255
2.143682 -17.24478 0.389 84 84 255
2.194468 -17.270657 0.382 84 84 255
2.12934 -17.248695 0.385 84 84 255
2.147093 -17.26672 0.379 84 84 255
2.165711 -17.170708 0.425 84 84 255
2.103467 -17.240002 0.387 84 84 255
2.073508 -17.239326 0.384 84 84 255
2.095851 -17.241734 0.386 84 84 255
2.084705 -17.237175 0.387 84 84 255
2.213918 -17.300768 0.369 84 84 255
2.056431 -17.191343 0.405 84 84 255
2.084472 -17.209 0.399 84 84 255
2.076805 -17.217438 0.395 84 84 255
2.088053 -17.20858 0.4 84 84 255
2.190976 -17.200417 0.414 84 84 255
2.126939 -17.211557 0.403 84 84 255
2.217906 -17.246685 0.395 84 84 255
2.261565 -17.26893 0.389 84 84 255
2.210567 -17.153158 0.438 84 84 255
2.19441 -17.160639 0.432 84 84 255
2.191214 -17.169111 0.428 84 84 255
2.173437 -17.272285 0.379 84 84 255
2.22209 -17.284731 0.378 84 84 255
2.18037 -17.183788 0.421 84 84 255
2.090102 -17.233192 0.389 84 84 255
2.227589 -17.26733 0.387 84 84 255
2.135123 -17.252764 0.384 84 84 255
2.103956 -17.234638 0.39 84 84 255
2.301271 -17.340788 0.36 84 84 255
2.194082 -17.262604 0.385 84 84 255
2.166652 -17.164454 0.428 84 84 255
2.230648 -17.276745 0.382 84 84 255
2.198792 -17.231333 0.4 84 84 255
2.168349 -17.17654 0.423 84 84 255
2.143982 -17.264013 0.38 84 84 255
2.183073 -17.240158 0.395 84 84 255
2.104779 -17.244038 0.385 84 84 255
2.188753 -17.257645 0.387 84 84 255
2.234347 -17.260674 0.39 84 84 255
2.13711 -17.226841 0.396 84 84 255
2.136014 -17.253218 0.384 84 84 255
2.08294 -17.234032 0.388 84 84 255
2.19555 -17.187035 0.42 84 84 255
2.169826 -17.217697 0.404 84 84 255
2.172058 -17.277195 0.376 84 84 255
2.231038 -17.225317 0.406 84 84 255
2.241946 -17.261179 0.391 84 84 255
2.241777 -17.283539 0.38 84 84 255
2.032084 -17.217098 0.391 84 84 255
2.158204 -17.275749 0.376 84 84 255
2.055387 -17.211016 0.396 84 84 255
2.178838 -17.20882 0.409 84 84 255
2.198537 -17.264874 0.384 84 84 255
2.133409 -17.242912 0.388 84 84 255
2.216668 -17.174225 0.428 84 84 255
2.230092 -17.291052 0.376 84 84 255
2.18869 -17.207108 0.411 84 84 255
2.265987 -17.275673 0.386 84 84 255
2.202917 -17.159361 0.434 84 84 255
2.216986 -17.191221 0.42 84 84 255
2.121847 -17.175293 0.419 84 84 255
2.249359 -17.28628 0.38 84 84 255
2.302331 -17.318882 0.37 84 84 255
2.261736 -17.246571 0.399 84 84 255
2.252355 -17.245157 0.399 84 84 255
2.213129 -17.286898 0.376 84 84 255
2.23526 -17.199411 0.418 84 84 255
2.205297 -17.258217 0.388 84 84 255
2.257531 -17.270241 0.388 84 84 255
2.11396 -17.212801 0.4 84 84 255
2.172117 -17.151524 0.434 84 84 255
2.208984 -17.1849 0.423 84 84 255
2.081395 -17.20182 0.402 84 84 255
2.186386 -17.216034 0.406 84 84 255
2.113778 -17.177916 0.417 84 84 255
2.203094 -17.253727 0.39 84 84 255
2.027294 -17.200068 0.398 84 84 255
2.224462 -17.266859 0.386 84 84 255
2.069104 -17.230349 0.388 84 84 255
2.062918 -17.220463 0.392 84 84 255
2.146575 -17.217073 0.402 84 84 255
2.222701 -17.204235 0.415 84 84 255
2.106577 -17.242708 0.386 84 84 255
2.112297 -17.196241 0.408 84 84 255
2.180666 -17.262501 0.384 84 84 255
2.209943 -17.176409 0.427 84 84 255
2.106548 -17.1877 0.412 84 84 255
2.111537 -17.237379 0.389 84 84 255
2.111049 -17.242743 0.387 84 84 255
2.09673 -17.184942 0.412 84 84 255
2.203264 -17.231367 0.401 84 84 255
2.259007 -17.311398 0.369 84 84 255
2.140508 -17.191536 0.413 84 84 255
2.107285 -17.208279 0.402 84 84 255
2.123948 -17.193197 0.411 84 84 255
2.26252 -17.319921 0.365 84 84 255
2.063877 -17.211973 0.396 84 84 255
2.16493 -17.273563 0.377 84 84 255
2.148641 -17.23945 0.392 84 84 255
2.000865 -17.205681 0.393 84 84 255
2.250098 -17.306858 0.37 84 84 255
2.218645 -17.267263 0.386 84 84 255
2.075947 -17.212511 0.397 84 84 255
2.080186 -17.184368 0.41 84 84 255
2.13867 -17.256817 0.382 84 84 255
2.086992 -17.230484 0.39 84 84 255
2.216901 -17.202402 0.415 84 84 255
2.229574 -17.241407 0.399 84 84 255
2.27278 -17.264544 0.392 84 84 255
2.119607 -17.234758 0.391 84 84 255
2.281384 -17.30933 0.372 84 84 255
2.269263 -17.3155 0.368 84 84 255
2.153839 -17.202818 0.409 84 84 255
2.16361 -17.152802 0.433 84 84 255
2.089181 -17.177729 0.414 84 84 255
2.039615 -17.226547 0.387 84 84 255
2.268337 -17.319519 0.366 84 84 255
2.230097 -17.231571 0.403 84 84 255
2.212213 -17.171953 0.429 84 84 255
2.255766 -17.267097 0.389 84 84 255
2.158777 -17.259205 0.383 84 84 255
