ply
format ascii 1.0
element vertex 1378
property double x
property double y
property double z
property uchar red
property uchar green
property uchar blue
element face 0
property list uchar int vertex_indices
end_header
1.031989 -20.646889 1.155 170 84 0
1.026206 -20.64282 1.061 170 84 0
1.193244 -20.731298 1.476 170 84 0
1.044917 -20.652353 1.111 170 84 0
0.858225 -20.560596 1.385 170 84 0
1.149147 -20.707708 1.278 170 84 0
1.036898 -20.648268 1.114 170 84 0
1.085903 -20.673237 1.091 170 84 0
0.919722 -20.589685 1.131 170 84 0
1.064501 -20.664579 1.303 170 84 0
1.032862 -20.64958 1.471 170 84 0
0.94778 -20.605106 1.215 170 84 0
1.0489 -20.657751 1.381 170 84 0
1.158057 -20.712248 1.28 170 84 0
1.126871 -20.696358 1.274 170 84 0
1.073866 -20.668226 1.143 170 84 0
1.126436 -20.695011 1.215 170 84 0
1.300618 -20.784885 1.394 170 84 0
1.115726 -20.691801 1.427 170 84 0
0.954454 -20.609629 1.376 170 84 0
1.163841 -20.716316 1.461 170 84 0
1.023515 -20.643696 1.315 170 84 0
0.906811 -20.581985 1.066 170 84 0
0.841734 -20.553316 1.469 170 84 0
0.856443 -20.559689 1.365 170 84 0
0.838623 -20.55061 1.337 170 84 0
1.334913 -20.803482 1.478 170 84 0
1.056029 -20.661383 1.434 170 84 0
0.912594 -20.586054 1.139 170 84 0
0.924177 -20.591955 1.204 170 84 0
1.136673 -20.701351 1.278 170 84 0
1.132655 -20.700426 1.429 170 84 0
1.006569 -20.637304 1.487 170 84 0
1.047118 -20.656843 1.469 170 84 0
0.900102 -20.581934 1.36 170 84 0
0.897883 -20.579681 1.265 170 84 0
0.903666 -20.58375 1.402 170 84 0
0.835496 -20.550138 1.47 170 84 0
1.268542 -20.768543 1.42 170 84 0
0.896556 -20.577883 1.167 170 84 0
1.032862 -20.64958 1.372 170 84 0
0.965617 -20.61195 0.998 170 84 0
1.134454 -20.699099 1.206 170 84 0
0.922395 -20.591047 1.151 170 84 0
0.935323 -20.596514 1.078 170 84 0
0.945543 -20.605087 1.411 170 84 0
0.85688 -20.561033 1.433 170 84 0
1.227555 -20.747658 1.355 170 84 0
0.920613 -20.590139 1.112 170 84 0
1.023079 -20.642349 1.211 170 84 0
1.204844 -20.734962 1.268 170 84 0
0.913921 -20.587854 1.211 170 84 0
0.81502 -20.537462 1.292 170 84 0
1.019515 -20.640533 1.229 170 84 0
1.062283 -20.662325 1.182 170 84 0
0.844423 -20.552443 1.226 170 84 0
1.073866 -20.668226 1.148 170 84 0
1.01237 -20.639137 1.439 170 84 0
0.947326 -20.605997 1.428 170 84 0
1.034207 -20.649143 1.333 170 84 0
1.285909 -20.778513 1.472 170 84 0
1.223991 -20.745842 1.341 170 84 0
0.909903 -20.586929 1.398 170 84 0
1.012823 -20.638247 1.338 170 84 0
0.857334 -20.560143 1.391 170 84 0
1.085886 -20.675474 1.341 170 84 0
0.917502 -20.587433 1.057 170 84 0
1.335805 -20.803936 1.445 170 84 0
0.976292 -20.619633 1.326 170 84 0
1.111271 -20.689531 1.429 170 84 0
1.333132 -20.802574 1.497 170 84 0
1.050228 -20.65955 1.492 170 84 0
0.906793 -20.584223 1.256 170 84 0
1.201263 -20.735384 1.422 170 84 0
0.900556 -20.581045 1.228 170 84 0
0.832823 -20.548777 1.486 170 84 0
0.861352 -20.561069 1.262 170 84 0
1.060938 -20.662764 1.288 170 84 0
1.08365 -20.675457 1.458 170 84 0
1.073848 -20.670464 1.465 170 84 0
1.12509 -20.69545 1.268 170 84 0
1.315312 -20.793495 1.485 170 84 0
1.04848 -20.654169 1.086 170 84 0
1.009713 -20.635538 1.127 170 84 0
0.945997 -20.604198 1.271 170 84 0
1.018623 -20.640079 1.232 170 84 0
0.970525 -20.613329 0.941 170 84 0
1.159402 -20.711809 1.204 170 84 0
1.187024 -20.725883 1.259 170 84 0
0.754414 -20.508825 1.465 170 84 0
0.950016 -20.605122 1.127 170 84 0
1.225773 -20.74675 1.297 170 84 0
0.851097 -20.556965 1.397 170 84 0
1.090795 -20.676851 1.14 170 84 0
0.907701 -20.582439 1.06 170 84 0
0.884518 -20.572872 1.3 170 84 0
0.865353 -20.56423 1.411 170 84 0
1.086322 -20.676819 1.437 170 84 0
0.964255 -20.614622 1.388 170 84 0
0.84486 -20.553787 1.415 170 84 0
0.938887 -20.59833 1.032 170 84 0
0.82704 -20.544708 1.324 170 84 0
0.967399 -20.612858 0.987 170 84 0
0.942871 -20.603727 1.373 170 84 0
0.864008 -20.564665 1.474 170 84 0
1.238685 -20.754452 1.484 170 84 0
1.115726 -20.691801 1.422 170 84 0
0.837295 -20.548811 1.299 170 84 0
1.046682 -20.655499 1.279 170 84 0
0.929069 -20.595572 1.29 170 84 0
1.216864 -20.74221 1.388 170 84 0
0.944653 -20.604635 1.43 170 84 0
1.090358 -20.675507 1.112 170 84 0
1.004804 -20.634161 1.33 170 84 0
0.89832 -20.581026 1.379 170 84 0
1.008823 -20.635084 1.191 170 84 0
1.060938 -20.662764 1.252 170 84 0
0.944233 -20.601053 1.041 170 84 0
1.196825 -20.730877 1.262 170 84 0
0.801201 -20.531542 1.381 170 84 0
0.877827 -20.570585 1.399 170 84 0
1.044917 -20.652353 1.051 170 84 0
0.925488 -20.595991 1.494 170 84 0
0.933507 -20.600077 1.462 170 84 0
0.950436 -20.608704 1.483 170 84 0
0.863571 -20.56332 1.329 170 84 0
1.215519 -20.742647 1.422 170 84 0
1.108615 -20.685932 1.145 170 84 0
1.354516 -20.813471 1.485 170 84 0
0.948234 -20.604214 1.157 170 84 0
0.954034 -20.606047 1.066 170 84 0
0.99544 -20.630512 1.419 170 84 0
1.023079 -20.642349 1.144 170 84 0
1.056029 -20.661383 1.477 170 84 0
0.966508 -20.612402 1.055 170 84 0
0.955362 -20.607845 1.126 170 84 0
0.961162 -20.609678 1.077 170 84 0
1.282344 -20.776697 1.486 170 84 0
0.804764 -20.533358 1.382 170 84 0
1.259632 -20.764002 1.381 170 84 0
0.901884 -20.582842 1.433 170 84 0
0.967399 -20.612858 1.046 170 84 0
0.993221 -20.62826 1.268 170 84 0
1.052919 -20.658676 1.299 170 84 0
0.938416 -20.601456 1.374 170 84 0
0.984294 -20.625954 1.482 170 84 0
0.943779 -20.601944 1.167 170 84 0
1.082759 -20.675003 1.476 170 84 0
0.988784 -20.623753 1.092 170 84 0
1.161184 -20.712717 1.219 170 84 0
0.974056 -20.619616 1.364 170 84 0
1.056937 -20.659601 1.225 170 84 0
1.178097 -20.723579 1.405 170 84 0
1.154039 -20.711323 1.473 170 84 0
0.876936 -20.570131 1.326 170 84 0
0.789164 -20.526531 1.488 170 84 0
0.973182 -20.616926 1.203 170 84 0
1.154039 -20.711323 1.467 170 84 0
1.219974 -20.744917 1.415 170 84 0
1.064501 -20.664579 1.353 170 84 0
1.202153 -20.735838 1.494 170 84 0
1.199481 -20.734476 1.473 170 84 0
1.219536 -20.743572 1.351 170 84 0
1.03688 -20.650505 1.331 170 84 0
0.922395 -20.591047 1.156 170 84 0
1.081885 -20.672312 1.142 170 84 0
1.320657 -20.796219 1.454 170 84 0
1.206172 -20.736763 1.34 170 84 0
0.875154 -20.569223 1.382 170 84 0
0.962926 -20.612823 1.246 170 84 0
1.153602 -20.709978 1.312 170 84 0
1.120634 -20.69318 1.364 170 84 0
1.044445 -20.655481 1.445 170 84 0
0.916594 -20.589216 1.318 170 84 0
1.124654 -20.694103 1.16 170 84 0
0.970039 -20.61869 1.493 170 84 0
0.982983 -20.62192 1.158 170 84 0
0.984748 -20.625065 1.456 170 84 0
1.141128 -20.703623 1.318 170 84 0
1.040881 -20.653666 1.433 170 84 0
1.047136 -20.654606 1.134 170 84 0
0.831949 -20.546087 1.281 170 84 0
0.993221 -20.62826 1.334 170 84 0
0.929069 -20.595572 1.243 170 84 0
1.166531 -20.715441 1.205 170 84 0
1.265415 -20.76807 1.501 170 84 0
0.944233 -20.601053 1.039 170 84 0
1.029752 -20.646873 1.342 170 84 0
0.937542 -20.598766 1.129 170 84 0
1.182114 -20.724504 1.372 170 84 0
0.879609 -20.571493 1.332 170 84 0
1.289926 -20.779438 1.426 170 84 0
1.069394 -20.668194 1.401 170 84 0
1.135782 -20.700897 1.363 170 84 0
1.128654 -20.697266 1.328 170 84 0
1.161184 -20.712717 1.229 170 84 0
0.974073 -20.61738 1.144 170 84 0
1.080994 -20.671858 1.145 170 84 0
1.228884 -20.749458 1.429 170 84 0
1.237794 -20.753998 1.473 170 84 0
0.857334 -20.560143 1.395 170 84 0
0.973165 -20.619162 1.377 170 84 0
1.116634 -20.690018 1.144 170 84 0
1.033299 -20.650925 1.49 170 84 0
1.232902 -20.750383 1.379 170 84 0
1.028845 -20.648655 1.481 170 84 0
1.003913 -20.633707 1.291 170 84 0
0.933087 -20.596497 1.102 170 84 0
0.77669 -20.520174 1.443 170 84 0
0.826149 -20.544254 1.367 170 84 0
1.195916 -20.73266 1.468 170 84 0
1.243594 -20.755831 1.412 170 84 0
0.939306 -20.60191 1.379 170 84 0
1.080539 -20.67275 1.276 170 84 0
1.03957 -20.64963 1.051 170 84 0
1.174095 -20.720419 1.32 170 84 0
1.342042 -20.807114 1.472 170 84 0
1.082339 -20.671421 1.102 170 84 0
1.2075 -20.738562 1.491 170 84 0
0.775799 -20.51972 1.475 170 84 0
0.94778 -20.605106 1.316 170 84 0
0.817676 -20.541058 1.477 170 84 0
1.191024 -20.729046 1.314 170 84 0
1.24003 -20.754015 1.334 170 84 0
1.054717 -20.657349 1.082 170 84 0
1.083212 -20.674112 1.329 170 84 0
0.928177 -20.595118 1.251 170 84 0
0.795855 -20.528818 1.344 170 84 0
1.183896 -20.725412 1.316 170 84 0
0.957144 -20.608753 1.122 170 84 0
1.233793 -20.750837 1.37 170 84 0
1.106816 -20.687262 1.474 170 84 0
1.174533 -20.721764 1.481 170 84 0
0.838186 -20.549265 1.243 170 84 0
0.869809 -20.5665 1.405 170 84 0
0.867135 -20.565138 1.389 170 84 0
1.073412 -20.669119 1.325 170 84 0
0.984765 -20.622828 1.221 170 84 0
1.06852 -20.665503 1.15 170 84 0
0.999442 -20.633673 1.489 170 84 0
0.97942 -20.620104 1.141 170 84 0
1.040462 -20.650084 1.049 170 84 0
0.870262 -20.565609 1.25 170 84 0
0.982093 -20.621466 1.143 170 84 0
1.00435 -20.635052 1.415 170 84 0
0.998584 -20.628746 1.07 170 84 0
0.817239 -20.539715 1.413 170 84 0
1.248939 -20.758554 1.331 170 84 0
1.08143 -20.673204 1.338 170 84 0
1.339369 -20.805752 1.457 170 84 0
1.162076 -20.713171 1.199 170 84 0
1.116179 -20.69091 1.355 170 84 0
1.021297 -20.641441 1.233 170 84 0
0.95047 -20.604231 1.089 170 84 0
1.070756 -20.66552 1.078 170 84 0
1.35808 -20.815287 1.487 170 84 0
0.839514 -20.551064 1.328 170 84 0
0.883627 -20.572418 1.201 170 84 0
1.020842 -20.642334 1.267 170 84 0
1.060501 -20.661417 1.17 170 84 0
1.239576 -20.754906 1.421 170 84 0
0.974964 -20.617834 1.129 170 84 0
1.134 -20.699989 1.375 170 84 0
1.129545 -20.69772 1.375 170 84 0
1.065829 -20.666376 1.394 170 84 0
0.989674 -20.624207 1.019 170 84 0
1.111288 -20.687294 1.242 170 84 0
1.232902 -20.750383 1.302 170 84 0
1.164294 -20.715425 1.312 170 84 0
1.087231 -20.675035 1.154 170 84 0
1.019969 -20.639643 1.044 170 84 0
0.94198 -20.603271 1.388 170 84 0
0.847533 -20.555149 1.383 170 84 0
1.162949 -20.715862 1.498 170 84 0
1.129999 -20.696827 1.17 170 84 0
1.141565 -20.704966 1.453 170 84 0
1.024861 -20.643257 1.127 170 84 0
0.98611 -20.622391 1.051 170 84 0
1.092123 -20.678652 1.314 170 84 0
0.962053 -20.610132 0.987 170 84 0
1.137128 -20.70046 1.157 170 84 0
1.076085 -20.670481 1.319 170 84 0
0.870699 -20.566954 1.401 170 84 0
1.009696 -20.637775 1.388 170 84 0
1.213754 -20.739502 1.277 170 84 0
1.242249 -20.756268 1.454 170 84 0
1.192353 -20.730844 1.427 170 84 0
1.210173 -20.739923 1.487 170 84 0
1.027079 -20.645512 1.255 170 84 0
0.854661 -20.558781 1.363 170 84 0
1.025297 -20.644604 1.28 170 84 0
1.038208 -20.652304 1.38 170 84 0
0.957581 -20.6101 1.219 170 84 0
1.129982 -20.699064 1.471 170 84 0
1.064048 -20.665468 1.448 170 84 0
1.363426 -20.81801 1.484 170 84 0
1.059156 -20.661856 1.289 170 84 0
1.236012 -20.75309 1.427 170 84 0
0.923268 -20.593739 1.331 170 84 0
1.121072 -20.694525 1.447 170 84 0
0.951814 -20.603794 0.942 170 84 0
0.930851 -20.596479 1.228 170 84 0
1.118417 -20.690926 1.153 170 84 0
0.786053 -20.523825 1.383 170 84 0
1.329568 -20.800758 1.47 170 84 0
0.796745 -20.529272 1.348 170 84 0
0.829713 -20.54607 1.331 170 84 0
0.985656 -20.623281 1.209 170 84 0
1.164749 -20.714533 1.213 170 84 0
1.037335 -20.649612 1.22 170 84 0
1.271215 -20.769905 1.342 170 84 0
1.073429 -20.666882 1.08 170 84 0
1.160276 -20.7145 1.474 170 84 0
1.027534 -20.644619 1.124 170 84 0
0.902793 -20.58106 1.156 170 84 0
1.178987 -20.724033 1.444 170 84 0
1.177659 -20.722235 1.328 170 84 0
0.882736 -20.571964 1.284 170 84 0
0.944653 -20.604635 1.382 170 84 0
0.886283 -20.576015 1.466 170 84 0
0.99544 -20.630512 1.42 170 84 0
1.14291 -20.704531 1.32 170 84 0
1.02175 -20.640551 1.038 170 84 0
1.21641 -20.743101 1.461 170 84 0
1.083667 -20.67322 1.144 170 84 0
0.802092 -20.531996 1.359 170 84 0
1.028407 -20.64731 1.387 170 84 0
1.118399 -20.693163 1.497 170 84 0
1.00082 -20.628763 0.976 170 84 0
1.217754 -20.742664 1.369 170 84 0
1.076102 -20.668243 1.108 170 84 0
0.976762 -20.616507 0.931 170 84 0
0.969618 -20.615108 1.2 170 84 0
1.045353 -20.653698 1.187 170 84 0
1.106833 -20.685024 1.19 170 84 0
1.104597 -20.685009 1.341 170 84 0
0.989657 -20.626444 1.293 170 84 0
1.046228 -20.656389 1.371 170 84 0
1.020405 -20.640987 1.119 170 84 0
0.991439 -20.627352 1.29 170 84 0
0.867572 -20.566481 1.463 170 84 0
1.272997 -20.770813 1.396 170 84 0
1.167858 -20.717241 1.39 170 84 0
0.923739 -20.590611 1.062 170 84 0
0.931305 -20.595589 1.17 170 84 0
1.064501 -20.664579 1.276 170 84 0
0.979402 -20.622339 1.375 170 84 0
0.973182 -20.616926 1.214 170 84 0
0.98833 -20.624643 1.154 170 84 0
0.888973 -20.575142 1.297 170 84 0
0.825695 -20.545143 1.448 170 84 0
1.247595 -20.758991 1.471 170 84 0
1.076102 -20.668243 1.064 170 84 0
0.861789 -20.562412 1.337 170 84 0
1.078775 -20.669605 1.069 170 84 0
0.998131 -20.629637 1.186 170 84 0
1.0547 -20.659584 1.324 170 84 0
0.967365 -20.617329 1.495 170 84 0
1.170078 -20.719494 1.401 170 84 0
1.017278 -20.640518 1.263 170 84 0
0.970492 -20.6178 1.371 170 84 0
0.90012 -20.579699 1.116 170 84 0
0.893882 -20.576521 1.126 170 84 0
1.141565 -20.704966 1.417 170 84 0
1.335805 -20.803936 1.482 170 84 0
0.759761 -20.511549 1.487 170 84 0
1.006132 -20.63596 1.435 170 84 0
0.970055 -20.616455 1.302 170 84 0
1.050245 -20.657314 1.288 170 84 0
1.094359 -20.678669 1.235 170 84 0
0.867589 -20.564247 1.278 170 84 0
1.064065 -20.663233 1.213 170 84 0
1.01906 -20.641426 1.341 170 84 0
0.981638 -20.622358 1.333 170 84 0
1.000786 -20.633236 1.364 170 84 0
1.08143 -20.673204 1.262 170 84 0
0.837295 -20.548811 1.238 170 84 0
0.915703 -20.588762 1.304 170 84 0
0.979855 -20.621449 1.315 170 84 0
1.124636 -20.696341 1.399 170 84 0
1.116617 -20.692255 1.449 170 84 0
0.988312 -20.626881 1.368 170 84 0
1.165185 -20.715879 1.343 170 84 0
0.946888 -20.604652 1.23 170 84 0
0.887628 -20.575579 1.353 170 84 0
1.126871 -20.696358 1.378 170 84 0
1.111288 -20.687294 1.199 170 84 0
1.165623 -20.717224 1.449 170 84 0
1.339369 -20.805752 1.447 170 84 0
1.160276 -20.7145 1.407 170 84 0
1.076102 -20.668243 1.073 170 84 0
0.856006 -20.558344 1.288 170 84 0
0.814112 -20.539242 1.45 170 84 0
1.183442 -20.726303 1.427 170 84 0
1.211064 -20.740377 1.489 170 84 0
0.777581 -20.520628 1.428 170 84 0
1.068503 -20.66774 1.388 170 84 0
1.111742 -20.686403 1.109 170 84 0
0.925522 -20.59152 1.061 170 84 0
1.166076 -20.716333 1.312 170 84 0
0.992347 -20.625568 1.095 170 84 0
1.246704 -20.758537 1.496 170 84 0
1.231557 -20.750818 1.422 170 84 0
0.94198 -20.603271 1.372 170 84 0
0.984311 -20.62372 1.282 170 84 0
1.08143 -20.673204 1.337 170 84 0
0.917048 -20.588324 1.125 170 84 0
1.009277 -20.634195 1.08 170 84 0
0.868917 -20.566046 1.323 170 84 0
1.164294 -20.715425 1.333 170 84 0
0.920159 -20.591032 1.253 170 84 0
0.81233 -20.538334 1.449 170 84 0
1.03957 -20.64963 1.054 170 84 0
0.867135 -20.565138 1.4 170 84 0
0.913014 -20.589636 1.461 170 84 0
1.059156 -20.661856 1.324 170 84 0
0.998131 -20.629637 1.181 170 84 0
0.897429 -20.580572 1.386 170 84 0
0.956689 -20.609646 1.312 170 84 0
0.946452 -20.603306 1.122 170 84 0
0.937105 -20.597422 1.066 170 84 0
0.928632 -20.594225 1.103 170 84 0
1.07432 -20.667336 1.12 170 84 0
0.845313 -20.552896 1.307 170 84 0
0.813675 -20.537897 1.406 170 84 0
1.123308 -20.694542 1.319 170 84 0
0.931741 -20.596933 1.209 170 84 0
1.061828 -20.663216 1.251 170 84 0
1.206626 -20.73587 1.248 170 84 0
1.059592 -20.663198 1.396 170 84 0
0.76778 -20.515635 1.424 170 84 0
1.0507 -20.656422 1.233 170 84 0
1.02797 -20.645966 1.282 170 84 0
1.018169 -20.64097 1.347 170 84 0
1.309528 -20.789425 1.414 170 84 0
0.96249 -20.611477 1.208 170 84 0
0.91303 -20.5874 1.297 170 84 0
1.205718 -20.737654 1.423 170 84 0
0.948234 -20.604214 1.093 170 84 0
0.965164 -20.612839 1.167 170 84 0
0.92685 -20.593317 1.187 170 84 0
1.120634 -20.69318 1.321 170 84 0
1.138892 -20.703604 1.468 170 84 0
0.933069 -20.598732 1.45 170 84 0
0.747287 -20.505194 1.486 170 84 0
1.060046 -20.662308 1.303 170 84 0
0.956689 -20.609646 1.32 170 84 0
1.059173 -20.659618 1.048 170 84 0
0.959362 -20.611008 1.229 170 84 0
1.153165 -20.708632 1.25 170 84 0
1.005712 -20.632378 0.995 170 84 0
1.317094 -20.794403 1.501 170 84 0
1.158494 -20.713593 1.487 170 84 0
1.000786 -20.633236 1.454 170 84 0
0.97451 -20.618725 1.236 170 84 0
0.830604 -20.546524 1.414 170 84 0
0.942417 -20.604616 1.465 170 84 0
1.139783 -20.704058 1.391 170 84 0
0.75887 -20.511095 1.441 170 84 0
1.14291 -20.704531 1.269 170 84 0
1.159839 -20.713156 1.364 170 84 0
1.254286 -20.761278 1.364 170 84 0
0.865353 -20.56423 1.314 170 84 0
0.879626 -20.569256 1.163 170 84 0
1.097486 -20.67914 1.116 170 84 0
1.123745 -20.695887 1.492 170 84 0
1.078757 -20.671843 1.266 170 84 0
1.034207 -20.649143 1.261 170 84 0
1.022187 -20.641895 1.168 170 84 0
1.038226 -20.650066 1.13 170 84 0
1.016825 -20.641407 1.467 170 84 0
1.127309 -20.697702 1.39 170 84 0
1.072066 -20.669556 1.456 170 84 0
1.072975 -20.667772 1.241 170 84 0
0.886737 -20.575125 1.368 170 84 0
1.005695 -20.634615 1.334 170 84 0
0.866244 -20.564684 1.326 170 84 0
1.104143 -20.685898 1.465 170 84 0
0.927724 -20.596008 1.415 170 84 0
1.170078 -20.719494 1.445 170 84 0
1.24003 -20.754015 1.411 170 84 0
1.211517 -20.739487 1.324 170 84 0
0.974056 -20.619616 1.372 170 84 0
1.071193 -20.666864 1.147 170 84 0
1.008351 -20.638212 1.479 170 84 0
1.125544 -20.694557 1.141 170 84 0
1.21641 -20.743101 1.472 170 84 0
1.298836 -20.783978 1.402 170 84 0
0.917031 -20.590561 1.344 170 84 0
0.902322 -20.584187 1.451 170 84 0
1.029769 -20.644636 1.099 170 84 0
0.889428 -20.574251 1.112 170 84 0
0.896085 -20.581009 1.446 170 84 0
0.96249 -20.611477 1.195 170 84 0
1.097906 -20.68272 1.43 170 84 0
0.993658 -20.629604 1.454 170 84 0
0.954907 -20.608738 1.297 170 84 0
0.917031 -20.590561 1.447 170 84 0
0.966928 -20.615984 1.341 170 84 0
1.075193 -20.670027 1.258 170 84 0
0.964272 -20.612385 1.178 170 84 0
1.083667 -20.67322 1.235 170 84 0
1.180787 -20.722706 1.245 170 84 0
0.954907 -20.608738 1.26 170 84 0
1.019497 -20.642769 1.457 170 84 0
0.982547 -20.620575 1.063 170 84 0
1.121963 -20.694979 1.403 170 84 0
1.098797 -20.683174 1.448 170 84 0
1.175423 -20.722218 1.404 170 84 0
1.001711 -20.629219 0.979 170 84 0
1.211517 -20.739487 1.383 170 84 0
0.920159 -20.591032 1.236 170 84 0
1.000804 -20.630999 1.137 170 84 0
0.945543 -20.605087 1.347 170 84 0
0.811439 -20.53788 1.429 170 84 0
0.948688 -20.603323 1.033 170 84 0
0.837278 -20.551046 1.469 170 84 0
0.907248 -20.58333 1.199 170 84 0
0.887175 -20.576469 1.484 170 84 0
1.007495 -20.633287 1.063 170 84 0
0.995457 -20.628275 1.107 170 84 0
1.0507 -20.656422 1.215 170 84 0
0.823476 -20.542892 1.368 170 84 0
0.786053 -20.523825 1.365 170 84 0
0.991894 -20.626459 1.175 170 84 0
1.07521 -20.667789 1.099 170 84 0
0.986092 -20.624628 1.233 170 84 0
1.347387 -20.809837 1.471 170 84 0
1.069394 -20.668194 1.441 170 84 0
0.872481 -20.567862 1.341 170 84 0
1.186569 -20.726776 1.342 170 84 0
0.863134 -20.561977 1.277 170 84 0
1.130891 -20.697281 1.201 170 84 0
1.228446 -20.748114 1.38 170 84 0
1.130891 -20.697281 1.223 170 84 0
0.824367 -20.543346 1.396 170 84 0
1.183442 -20.726303 1.482 170 84 0
0.906339 -20.585114 1.359 170 84 0
0.876046 -20.569677 1.318 170 84 0
1.061392 -20.661871 1.182 170 84 0
1.134891 -20.700443 1.284 170 84 0
1.072084 -20.667318 1.16 170 84 0
1.223991 -20.745842 1.318 170 84 0
0.983875 -20.622374 1.163 170 84 0
0.971401 -20.616018 1.169 170 84 0
0.980327 -20.618322 0.952 170 84 0
1.288144 -20.77853 1.402 170 84 0
1.030189 -20.648218 1.381 170 84 0
1.271215 -20.769905 1.374 170 84 0
0.893428 -20.577412 1.292 170 84 0
1.055155 -20.658693 1.219 170 84 0
1.103252 -20.685444 1.471 170 84 0
0.870245 -20.567844 1.469 170 84 0
1.134437 -20.701334 1.439 170 84 0
1.063611 -20.664125 1.308 170 84 0
0.853333 -20.556984 1.226 170 84 0
0.981655 -20.620121 0.979 170 84 0
0.858679 -20.559708 1.26 170 84 0
0.842187 -20.552425 1.348 170 84 0
1.099688 -20.683628 1.423 170 84 0
1.061828 -20.663216 1.334 170 84 0
1.137564 -20.701805 1.296 170 84 0
1.239139 -20.753561 1.383 170 84 0
1.148693 -20.708599 1.413 170 84 0
1.060938 -20.662764 1.319 170 84 0
1.056046 -20.659147 1.135 170 84 0
1.003459 -20.634598 1.392 170 84 0
1.162949 -20.715862 1.429 170 84 0
0.982966 -20.624157 1.453 170 84 0
1.080523 -20.674986 1.497 170 84 0
1.02439 -20.646383 1.479 170 84 0
1.091686 -20.677305 1.232 170 84 0
1.062736 -20.661434 1.047 170 84 0
0.766888 -20.515181 1.485 170 84 0
0.982075 -20.623701 1.369 170 84 0
1.062283 -20.662325 1.206 170 84 0
0.89521 -20.578321 1.22 170 84 0
1.003913 -20.633707 1.267 170 84 0
1.139346 -20.702713 1.301 170 84 0
0.951798 -20.60603 1.19 170 84 0
0.973602 -20.620506 1.495 170 84 0
1.044008 -20.654137 1.319 170 84 0
0.974947 -20.62007 1.425 170 84 0
1.187461 -20.72723 1.31 170 84 0
1.030661 -20.64509 1.093 170 84 0
0.879172 -20.570148 1.294 170 84 0
1.011478 -20.638683 1.47 170 84 0
0.901884 -20.582842 1.358 170 84 0
1.219536 -20.743572 1.348 170 84 0
0.913485 -20.586508 1.109 170 84 0
0.956707 -20.607409 0.985 170 84 0
1.097906 -20.68272 1.479 170 84 0
0.876063 -20.56744 1.161 170 84 0
0.886737 -20.575125 1.418 170 84 0
1.163841 -20.716316 1.408 170 84 0
1.060046 -20.662308 1.261 170 84 0
0.92685 -20.593317 1.109 170 84 0
1.042681 -20.652336 1.152 170 84 0
0.866244 -20.564684 1.38 170 84 0
1.019969 -20.639643 1.044 170 84 0
1.32022 -20.794874 1.419 170 84 0
1.014151 -20.640045 1.447 170 84 0
1.006149 -20.633722 1.193 170 84 0
1.100596 -20.681847 1.164 170 84 0
0.992784 -20.626913 1.197 170 84 0
1.215519 -20.742647 1.475 170 84 0
0.97498 -20.615599 0.962 170 84 0
1.003476 -20.63236 1.166 170 84 0
1.093469 -20.678215 1.166 170 84 0
0.972291 -20.616472 1.12 170 84 0
0.920595 -20.592377 1.445 170 84 0
1.116179 -20.69091 1.318 170 84 0
1.070302 -20.66641 1.139 170 84 0
0.930397 -20.59737 1.396 170 84 0
1.115726 -20.691801 1.389 170 84 0
0.955379 -20.60561 0.921 170 84 0
1.18166 -20.725395 1.438 170 84 0
0.832386 -20.547432 1.364 170 84 0
1.14291 -20.704531 1.35 170 84 0
0.929086 -20.593336 1.047 170 84 0
1.119761 -20.690489 1.137 170 84 0
0.927304 -20.592428 1.04 170 84 0
1.045807 -20.652807 1.077 170 84 0
0.909921 -20.584692 1.2 170 84 0
0.993221 -20.62826 1.318 170 84 0
1.14782 -20.705908 1.242 170 84 0
1.368772 -20.820734 1.497 170 84 0
1.193261 -20.729061 1.268 170 84 0
0.996785 -20.630075 1.313 170 84 0
0.916578 -20.591452 1.474 170 84 0
1.051574 -20.659113 1.365 170 84 0
1.007931 -20.63463 1.176 170 84 0
1.050682 -20.658659 1.461 170 84 0
0.902338 -20.581953 1.215 170 84 0
1.029769 -20.644636 1.002 170 84 0
1.176768 -20.721781 1.352 170 84 0
1.01326 -20.639591 1.447 170 84 0
0.831495 -20.546978 1.315 170 84 0
1.032425 -20.648235 1.247 170 84 0
0.769562 -20.516542 1.434 170 84 0
0.809657 -20.536972 1.423 170 84 0
1.02397 -20.642803 1.147 170 84 0
1.171422 -20.719057 1.382 170 84 0
1.01284 -20.636011 1.051 170 84 0
1.223991 -20.745842 1.339 170 84 0
0.872481 -20.567862 1.315 170 84 0
1.169203 -20.716803 1.264 170 84 0
0.921957 -20.589703 1.05 170 84 0
1.287253 -20.778076 1.414 170 84 0
1.241358 -20.755814 1.5 170 84 0
1.158057 -20.712248 1.349 170 84 0
1.033316 -20.648689 1.265 170 84 0
1.107707 -20.687714 1.445 170 84 0
1.059156 -20.661856 1.33 170 84 0
0.916158 -20.58787 1.201 170 84 0
0.909483 -20.583347 1.07 170 84 0
0.970492 -20.6178 1.41 170 84 0
0.864008 -20.564665 1.472 170 84 0
1.008823 -20.635084 1.209 170 84 0
1.177205 -20.723125 1.481 170 84 0
1.020388 -20.643223 1.466 170 84 0
1.154039 -20.711323 1.449 170 84 0
1.175441 -20.719982 1.251 170 84 0
0.841734 -20.553316 1.478 170 84 0
1.216864 -20.74221 1.341 170 84 0
1.092123 -20.678652 1.257 170 84 0
0.880954 -20.571056 1.195 170 84 0
1.282344 -20.776697 1.453 170 84 0
1.177205 -20.723125 1.491 170 84 0
1.081868 -20.674549 1.398 170 84 0
0.890302 -20.576941 1.369 170 84 0
1.040881 -20.653666 1.38 170 84 0
1.10416 -20.683662 1.255 170 84 0
1.207062 -20.737217 1.323 170 84 0
1.019497 -20.642769 1.379 170 84 0
1.354516 -20.813471 1.503 170 84 0
0.812784 -20.537443 1.324 170 84 0
0.902338 -20.581953 1.3 170 84 0
0.981638 -20.622358 1.299 170 84 0
1.146912 -20.707691 1.451 170 84 0
1.156729 -20.710447 1.18 170 84 0
1.062283 -20.662325 1.215 170 84 0
1.087214 -20.677273 1.493 170 84 0
1.067629 -20.665049 1.163 170 84 0
1.00435 -20.635052 1.407 170 84 0
0.974964 -20.617834 1.176 170 84 0
1.175441 -20.719982 1.259 170 84 0
1.201263 -20.735384 1.425 170 84 0
0.982093 -20.621466 1.143 170 84 0
1.0547 -20.659584 1.353 170 84 0
1.099688 -20.683628 1.471 170 84 0
1.085886 -20.675474 1.331 170 84 0
0.829157 -20.560377 2.082 170 84 0
0.907566 -20.600328 2.081 170 84 0
0.774352 -20.533575 2.08 170 84 0
1.038107 -20.665718 2.082 170 84 0
1.064837 -20.679338 2.081 170 84 0
0.824702 -20.558107 2.08 170 84 0
0.985538 -20.638933 2.081 170 84 0
0.982864 -20.637571 2.081 170 84 0
0.843498 -20.556461 1.592 170 84 0
0.980713 -20.626375 1.642 170 84 0
1.150879 -20.715322 1.778 170 84 0
0.961565 -20.615496 1.568 170 84 0
0.903195 -20.586878 1.594 170 84 0
0.96022 -20.615934 1.619 170 84 0
1.21814 -20.750717 1.817 170 84 0
1.176684 -20.73296 1.984 170 84 0
1.239055 -20.76474 1.99 170 84 0
0.824351 -20.54558 1.543 170 84 0
1.235945 -20.762033 1.942 170 84 0
1.077379 -20.67675 1.717 170 84 0
1.194118 -20.733988 1.594 170 84 0
1.238231 -20.755342 1.547 170 84 0
1.234616 -20.760235 1.856 170 84 0
0.928127 -20.601826 1.701 170 84 0
1.090744 -20.683561 1.688 170 84 0
1.260455 -20.773399 1.903 170 84 0
1.043538 -20.657263 1.576 170 84 0
1.157552 -20.719847 1.834 170 84 0
1.226631 -20.751677 1.633 170 84 0
1.12862 -20.701738 1.658 170 84 0
0.975787 -20.627234 1.762 170 84 0
1.169186 -20.71904 1.504 170 84 0
1.257362 -20.768457 1.736 170 84 0
1.110329 -20.695786 1.792 170 84 0
1.249377 -20.759899 1.512 170 84 0
1.239542 -20.759377 1.713 170 84 0
0.993625 -20.634075 1.705 170 84 0
1.169572 -20.727093 1.88 170 84 0
1.312151 -20.797495 1.751 170 84 0
0.964658 -20.620438 1.738 170 84 0
1.019935 -20.644114 1.534 170 84 0
1.137043 -20.711639 1.914 170 84 0
1.102344 -20.687225 1.58 170 84 0
1.088491 -20.68578 1.841 170 84 0
1.193681 -20.732641 1.535 170 84 0
1.322405 -20.801598 1.709 170 84 0
1.17497 -20.723108 1.521 170 84 0
1.285403 -20.786112 1.876 170 84 0
1.035502 -20.655413 1.669 170 84 0
1.197631 -20.742512 1.946 170 84 0
1.25558 -20.76755 1.722 170 84 0
1.294364 -20.783943 1.529 170 84 0
1.072032 -20.674026 1.687 170 84 0
1.301895 -20.793394 1.823 170 84 0
1.199027 -20.735367 1.536 170 84 0
0.854644 -20.561016 1.531 170 84 0
1.282748 -20.782513 1.746 170 84 0
1.182518 -20.730322 1.7 170 84 0
1.162042 -20.717644 1.572 170 84 0
1.155334 -20.717592 1.729 170 84 0
1.34959 -20.814327 1.646 170 84 0
1.148172 -20.718431 1.956 170 84 0
1.107202 -20.695314 1.845 170 84 0
1.220344 -20.755205 1.981 170 84 0
0.932162 -20.600513 1.541 170 84 0
1.019009 -20.648132 1.722 170 84 0
1.101016 -20.685427 1.533 170 84 0
0.953983 -20.612755 1.635 170 84 0
1.22616 -20.754805 1.81 170 84 0
1.088508 -20.683542 1.731 170 84 0
1.241341 -20.758049 1.588 170 84 0
0.765998 -20.514727 1.494 170 84 0
1.01548 -20.641844 1.537 170 84 0
0.900522 -20.585516 1.636 170 84 0
1.264053 -20.770744 1.646 170 84 0
1.259615 -20.766237 1.562 170 84 0
1.371882 -20.823441 1.546 170 84 0
1.170934 -20.724419 1.726 170 84 0
1.329988 -20.80434 1.671 170 84 0
1.056886 -20.666309 1.698 170 84 0
1.039485 -20.66081 1.835 170 84 0
0.825678 -20.54738 1.588 170 84 0
1.105454 -20.689934 1.66 170 84 0
1.289019 -20.781219 1.559 170 84 0
1.115709 -20.694036 1.588 170 84 0
1.246688 -20.760773 1.593 170 84 0
1.172734 -20.723091 1.58 170 84 0
0.8747 -20.570114 1.517 170 84 0
1.19321 -20.735769 1.72 170 84 0
0.993187 -20.63273 1.596 170 84 0
1.170934 -20.724419 1.73 170 84 0
1.113928 -20.693129 1.576 170 84 0
1.24936 -20.762135 1.578 170 84 0
1.168262 -20.723059 1.691 170 84 0
0.892958 -20.580538 1.562 170 84 0
1.15846 -20.718063 1.703 170 84 0
1.025718 -20.648182 1.58 170 84 0
1.092526 -20.684469 1.695 170 84 0
1.250217 -20.767061 1.819 170 84 0
1.0876 -20.685326 1.857 170 84 0
1.244906 -20.759865 1.603 170 84 0
0.892066 -20.580084 1.539 170 84 0
1.140658 -20.706747 1.602 170 84 0
1.301004 -20.792938 1.847 170 84 0
1.058248 -20.663635 1.508 170 84 0
0.904995 -20.58555 1.526 170 84 0
1.044849 -20.661297 1.748 170 84 0
0.942854 -20.605961 1.577 170 84 0
1.056414 -20.669436 1.857 170 84 0
1.111237 -20.694002 1.701 170 84 0
0.980277 -20.625029 1.547 170 84 0
0.910761 -20.591854 1.649 170 84 0
1.304568 -20.794754 1.842 170 84 0
1.121056 -20.69676 1.56 170 84 0
1.1959 -20.734896 1.591 170 84 0
1.122803 -20.702141 1.827 170 84 0
1.255597 -20.765312 1.598 170 84 0
1.066249 -20.669958 1.622 170 84 0
1.127747 -20.699047 1.518 170 84 0
1.126351 -20.706192 1.923 170 84 0
0.868447 -20.569172 1.579 170 84 0
1.254269 -20.763514 1.53 170 84 0
1.15846 -20.718063 1.72 170 84 0
1.222647 -20.746279 1.513 170 84 0
1.109455 -20.693094 1.717 170 84 0
1.153585 -20.712212 1.51 170 84 0
1.108093 -20.695768 1.865 170 84 0
0.910324 -20.590509 1.638 170 84 0
1.199009 -20.737602 1.65 170 84 0
1.087633 -20.680855 1.631 170 84 0
1.218107 -20.75519 2.014 170 84 0
1.232432 -20.753508 1.616 170 84 0
1.149568 -20.711287 1.589 170 84 0
1.046194 -20.660862 1.693 170 84 0
1.233322 -20.753962 1.605 170 84 0
0.991422 -20.629585 1.524 170 84 0
1.204776 -20.743908 1.84 170 84 0
1.265381 -20.772543 1.702 170 84 0
1.293456 -20.785727 1.641 170 84 0
1.239491 -20.766085 2.033 170 84 0
1.259178 -20.764893 1.502 170 84 0
1.208339 -20.745724 1.82 170 84 0
1.338477 -20.805298 1.51 170 84 0
1.125073 -20.697685 1.547 170 84 0
1.249377 -20.759899 1.512 170 84 0
1.138876 -20.705839 1.567 170 84 0
0.892503 -20.58143 1.622 170 84 0
1.024372 -20.648621 1.618 170 84 0
1.066704 -20.669065 1.557 170 84 0
1.232818 -20.761562 2.014 170 84 0
0.837715 -20.552391 1.547 170 84 0
1.130402 -20.702646 1.617 170 84 0
1.097435 -20.685848 1.611 170 84 0
1.241324 -20.760284 1.728 170 84 0
1.194572 -20.733097 1.52 170 84 0
1.079581 -20.68124 1.856 170 84 0
1.276107 -20.77352 1.505 170 84 0
1.135312 -20.704023 1.572 170 84 0
0.96111 -20.616386 1.622 170 84 0
1.053339 -20.662256 1.558 170 84 0
1.166479 -20.722149 1.69 170 84 0
1.170934 -20.724419 1.7 170 84 0
1.103201 -20.692154 1.786 170 84 0
1.030593 -20.654034 1.735 170 84 0
1.301021 -20.790703 1.697 170 84 0
1.255597 -20.765312 1.578 170 84 0
1.29344 -20.78796 1.765 170 84 0
1.066704 -20.669065 1.597 170 84 0
1.247141 -20.759882 1.533 170 84 0
1.121021 -20.701233 1.8 170 84 0
1.103235 -20.687679 1.603 170 84 0
1.316186 -20.796185 1.592 170 84 0
1.121021 -20.701233 1.825 170 84 0
1.147735 -20.717089 1.912 170 84 0
1.24936 -20.762135 1.615 170 84 0
1.114767 -20.700291 1.925 170 84 0
0.961548 -20.617731 1.683 170 84 0
0.969147 -20.618237 1.508 170 84 0
1.25738 -20.76622 1.602 170 84 0
0.967802 -20.618673 1.538 170 84 0
0.93038 -20.599606 1.585 170 84 0
0.953546 -20.61141 1.573 170 84 0
1.254638 -20.773804 2.051 170 84 0
1.268037 -20.776142 1.851 170 84 0
0.865773 -20.56781 1.62 170 84 0
1.094728 -20.688957 1.883 170 84 0
0.954437 -20.611864 1.557 170 84 0
1.283235 -20.777151 1.509 170 84 0
1.077361 -20.678988 1.785 170 84 0
1.272929 -20.779757 1.868 170 84 0
1.179878 -20.724487 1.507 170 84 0
1.138859 -20.708076 1.724 170 84 0
0.952656 -20.610956 1.584 170 84 0
1.30593 -20.792082 1.647 170 84 0
1.204339 -20.742561 1.746 170 84 0
1.106362 -20.68815 1.518 170 84 0
1.022608 -20.645475 1.502 170 84 0
1.228413 -20.752584 1.667 170 84 0
1.279166 -20.782934 1.865 170 84 0
1.332224 -20.804356 1.597 170 84 0
1.14417 -20.715271 1.947 170 84 0
1.198102 -20.739384 1.774 170 84 0
1.147786 -20.710379 1.61 170 84 0
1.351389 -20.812998 1.548 170 84 0
1.285841 -20.787457 1.916 170 84 0
1.146844 -20.716633 1.932 170 84 0
1.096073 -20.688522 1.83 170 84 0
0.977149 -20.624559 1.623 170 84 0
1.067595 -20.669519 1.577 170 84 0
0.975804 -20.624996 1.667 170 84 0
1.003879 -20.63818 1.627 170 84 0
0.918343 -20.594597 1.602 170 84 0
0.89874 -20.584608 1.617 170 84 0
1.284126 -20.777605 1.519 170 84 0
1.057323 -20.667654 1.752 170 84 0
0.984277 -20.628191 1.607 170 84 0
0.905886 -20.586002 1.497 170 84 0
1.162462 -20.721224 1.777 170 84 0
1.064467 -20.66905 1.617 170 84 0
1.144204 -20.7108 1.708 170 84 0
1.020825 -20.644567 1.542 170 84 0
1.248452 -20.763916 1.722 170 84 0
1.16779 -20.726185 1.858 170 84 0
1.129091 -20.69861 1.501 170 84 0
1.298802 -20.78845 1.643 170 84 0
1.064485 -20.666813 1.498 170 84 0
1.052885 -20.663149 1.624 170 84 0
0.916561 -20.593689 1.627 170 84 0
1.264944 -20.771198 1.66 170 84 0
1.239559 -20.757141 1.596 170 84 0
1.217284 -20.74579 1.604 170 84 0
1.242686 -20.757612 1.528 170 84 0
0.92458 -20.597775 1.634 170 84 0
0.810985 -20.538771 1.527 170 84 0
0.970929 -20.619144 1.524 170 84 0
1.093837 -20.688503 1.845 170 84 0
1.191848 -20.738443 1.884 170 84 0
0.928143 -20.59959 1.608 170 84 0
1.135748 -20.70537 1.648 170 84 0
0.981167 -20.625483 1.553 170 84 0
1.282731 -20.78475 1.866 170 84 0
0.877811 -20.572821 1.568 170 84 0
1.193681 -20.732641 1.544 170 84 0
0.850626 -20.560093 1.607 170 84 0
0.966457 -20.619112 1.6 170 84 0
1.276511 -20.779335 1.748 170 84 0
1.313058 -20.795713 1.655 170 84 0
1.023028 -20.649057 1.691 170 84 0
1.101454 -20.686771 1.564 170 84 0
0.772235 -20.517904 1.496 170 84 0
1.108144 -20.689058 1.535 170 84 0
1.318388 -20.800673 1.776 170 84 0
1.170026 -20.726202 1.795 170 84 0
1.157132 -20.716265 1.646 170 84 0
1.226177 -20.752567 1.725 170 84 0
1.002517 -20.640852 1.779 170 84 0
1.206608 -20.738108 1.503 170 84 0
0.92547 -20.598228 1.589 170 84 0
1.034191 -20.651379 1.544 170 84 0
1.151786 -20.713541 1.629 170 84 0
0.859536 -20.564632 1.582 170 84 0
1.242182 -20.765211 1.936 170 84 0
1.041285 -20.659481 1.732 170 84 0
1.318842 -20.799782 1.727 170 84 0
0.782927 -20.523354 1.504 170 84 0
0.862209 -20.565994 1.597 170 84 0
1.055995 -20.665855 1.682 170 84 0
1.166479 -20.722149 1.706 170 84 0
1.221251 -20.753424 1.892 170 84 0
1.197647 -20.740276 1.797 170 84 0
1.255597 -20.765312 1.604 170 84 0
1.247965 -20.769279 1.978 170 84 0
1.071124 -20.67581 1.785 170 84 0
1.164261 -20.719898 1.621 170 84 0
0.925925 -20.597336 1.535 170 84 0
0.991405 -20.631823 1.647 170 84 0
1.232414 -20.755745 1.691 170 84 0
1.149517 -20.717997 1.925 170 84 0
1.101907 -20.685881 1.525 170 84 0
1.237307 -20.759359 1.782 170 84 0
1.187393 -20.736174 1.873 170 84 0
1.271164 -20.776611 1.748 170 84 0
1.311696 -20.798388 1.808 170 84 0
1.09567 -20.682703 1.514 170 84 0
1.15715 -20.714029 1.516 170 84 0
1.234599 -20.76247 2.0 170 84 0
0.988732 -20.630461 1.6 170 84 0
0.970912 -20.621382 1.623 170 84 0
1.199027 -20.735367 1.525 170 84 0
0.87201 -20.570988 1.617 170 84 0
1.345152 -20.80982 1.547 170 84 0
1.313933 -20.798403 1.78 170 84 0
1.141985 -20.708548 1.638 170 84 0
1.269802 -20.779284 1.963 170 84 0
0.867118 -20.567371 1.576 170 84 0
1.177643 -20.72447 1.526 170 84 0
1.167824 -20.721714 1.667 170 84 0
1.089415 -20.681763 1.652 170 84 0
1.19632 -20.738476 1.77 170 84 0
1.040847 -20.658136 1.701 170 84 0
1.157587 -20.715374 1.611 170 84 0
1.17497 -20.723108 1.544 170 84 0
1.276947 -20.780682 1.84 170 84 0
1.107656 -20.694424 1.793 170 84 0
0.803857 -20.535139 1.529 170 84 0
1.21683 -20.746683 1.658 170 84 0
1.274729 -20.778427 1.793 170 84 0
1.313529 -20.792585 1.522 170 84 0
0.938836 -20.605038 1.612 170 84 0
1.313075 -20.793476 1.561 170 84 0
1.041301 -20.657246 1.613 170 84 0
0.994969 -20.633638 1.613 170 84 0
1.35539 -20.816158 1.594 170 84 0
1.276964 -20.778444 1.737 170 84 0
1.239089 -20.760267 1.779 170 84 0
1.117491 -20.694944 1.567 170 84 0
1.173171 -20.724438 1.649 170 84 0
1.272929 -20.779757 1.881 170 84 0
1.137076 -20.707169 1.703 170 84 0
1.310403 -20.792114 1.563 170 84 0
0.892503 -20.58143 1.599 170 84 0
1.070688 -20.674463 1.758 170 84 0
1.012789 -20.642719 1.653 170 84 0
1.006116 -20.638195 1.576 170 84 0
1.101889 -20.688118 1.648 170 84 0
0.991825 -20.635405 1.762 170 84 0
1.285403 -20.786112 1.909 170 84 0
1.321515 -20.801144 1.699 170 84 0
1.015899 -20.645426 1.661 170 84 0
1.147735 -20.717089 1.932 170 84 0
1.216779 -20.753389 2.01 170 84 0
1.180282 -20.730305 1.783 170 84 0
1.223084 -20.747623 1.53 170 84 0
1.227925 -20.757946 1.945 170 84 0
1.111237 -20.694002 1.713 170 84 0
1.101016 -20.685427 1.502 170 84 0
0.916107 -20.594578 1.69 170 84 0
1.09609 -20.686285 1.717 170 84 0
1.041319 -20.65501 1.506 170 84 0
1.259565 -20.772945 1.891 170 84 0
0.950419 -20.610939 1.597 170 84 0
1.0992 -20.688992 1.745 170 84 0
0.847517 -20.557384 1.525 170 84 0
1.300601 -20.787121 1.536 170 84 0
1.292565 -20.785273 1.654 170 84 0
1.147786 -20.710379 1.597 170 84 0
1.206088 -20.747942 2.007 170 84 0
1.29164 -20.789289 1.864 170 84 0
1.169135 -20.725748 1.837 170 84 0
1.122349 -20.703032 1.887 170 84 0
1.191882 -20.733971 1.64 170 84 0
1.247965 -20.769279 1.981 170 84 0
1.189158 -20.739315 1.96 170 84 0
0.88983 -20.580069 1.609 170 84 0
1.056414 -20.669436 1.829 170 84 0
0.966894 -20.620455 1.665 170 84 0
1.207432 -20.747505 1.945 170 84 0
1.326424 -20.802525 1.65 170 84 0
1.251125 -20.765278 1.707 170 84 0
1.0876 -20.685326 1.866 170 84 0
1.21814 -20.750717 1.801 170 84 0
0.978915 -20.627703 1.737 170 84 0
1.06894 -20.669085 1.498 170 84 0
1.176281 -20.727144 1.697 170 84 0
1.102344 -20.687225 1.562 170 84 0
1.225235 -20.758821 2.055 170 84 0
1.329114 -20.801649 1.546 170 84 0
1.09878 -20.68541 1.606 170 84 0
1.149568 -20.711287 1.575 170 84 0
0.947292 -20.610468 1.694 170 84 0
1.243055 -20.767902 2.028 170 84 0
1.04532 -20.658171 1.598 170 84 0
1.125964 -20.698139 1.554 170 84 0
1.21683 -20.746683 1.68 170 84 0
0.920125 -20.595505 1.605 170 84 0
1.119727 -20.694962 1.537 170 84 0
0.955782 -20.611427 1.521 170 84 0
0.772672 -20.519249 1.522 170 84 0
0.856426 -20.561924 1.546 170 84 0
0.940164 -20.606836 1.658 170 84 0
1.053321 -20.664494 1.683 170 84 0
1.22305 -20.752096 1.758 170 84 0
1.21683 -20.746683 1.638 170 84 0
1.240837 -20.765648 1.962 170 84 0
0.843952 -20.555569 1.549 170 84 0
1.048396 -20.66535 1.843 170 84 0
0.863991 -20.566902 1.621 170 84 0
1.16468 -20.723478 1.811 170 84 0
0.892958 -20.580538 1.568 170 84 0
1.030173 -20.650452 1.583 170 84 0
1.072907 -20.676718 1.819 170 84 0
1.071579 -20.674917 1.746 170 84 0
1.266726 -20.772106 1.652 170 84 0
1.074269 -20.674044 1.61 170 84 0
1.121476 -20.70034 1.739 170 84 0
1.091601 -20.688486 1.895 170 84 0
1.289892 -20.783911 1.683 170 84 0
1.156661 -20.719393 1.802 170 84 0
1.252033 -20.763496 1.586 170 84 0
0.902322 -20.584187 1.497 170 84 0
1.239996 -20.758486 1.65 170 84 0
0.947292 -20.610468 1.678 170 84 0
1.062703 -20.665905 1.512 170 84 0
1.22927 -20.757511 1.881 170 84 0
1.196774 -20.737585 1.728 170 84 0
0.983403 -20.6255 1.529 170 84 0
1.02792 -20.652672 1.729 170 84 0
0.986059 -20.629099 1.595 170 84 0
0.910778 -20.589619 1.557 170 84 0
1.125056 -20.699921 1.651 170 84 0
1.141077 -20.710329 1.772 170 84 0
1.260455 -20.773399 1.861 170 84 0
1.294802 -20.785288 1.621 170 84 0
1.042192 -20.657701 1.608 170 84 0
1.148172 -20.718431 1.953 170 84 0
1.029282 -20.649998 1.546 170 84 0
1.111657 -20.697584 1.856 170 84 0
1.251982 -20.770205 1.911 170 84 0
1.155788 -20.716702 1.709 170 84 0
0.811439 -20.53788 1.51 170 84 0
1.239055 -20.76474 1.968 170 84 0
1.204827 -20.7372 1.5 170 84 0
1.29433 -20.788414 1.778 170 84 0
1.052885 -20.663149 1.606 170 84 0
0.96913 -20.620474 1.623 170 84 0
1.163789 -20.723024 1.795 170 84 0
0.842607 -20.556007 1.609 170 84 0
1.114363 -20.694473 1.616 170 84 0
1.067141 -20.670412 1.614 170 84 0
0.848844 -20.559185 1.586 170 84 0
1.268928 -20.776596 1.836 170 84 0
0.84217 -20.554661 1.547 170 84 0
1.082305 -20.675894 1.513 170 84 0
1.306804 -20.794771 1.803 170 84 0
1.021228 -20.650387 1.781 170 84 0
1.316186 -20.796185 1.614 170 84 0
1.263599 -20.771635 1.727 170 84 0
1.129477 -20.706663 1.887 170 84 0
1.037721 -20.657665 1.75 170 84 0
1.247981 -20.767044 1.852 170 84 0
1.223521 -20.748968 1.571 170 84 0
1.161116 -20.721663 1.838 170 84 0
1.274763 -20.773956 1.574 170 84 0
1.344715 -20.808475 1.528 170 84 0
1.076017 -20.679424 1.879 170 84 0
0.986076 -20.626862 1.529 170 84 0
1.09429 -20.687613 1.797 170 84 0
1.010536 -20.644938 1.8 170 84 0
1.232432 -20.753508 1.576 170 84 0
0.817222 -20.541948 1.544 170 84 0
1.24356 -20.760302 1.653 170 84 0
1.092089 -20.683125 1.61 170 84 0
1.276493 -20.781572 1.885 170 84 0
0.937962 -20.602346 1.524 170 84 0
0.943308 -20.60507 1.499 170 84 0
0.980697 -20.628611 1.72 170 84 0
1.362535 -20.817556 1.522 170 84 0
1.230615 -20.757074 1.808 170 84 0
1.208828 -20.74036 1.539 170 84 0
1.276947 -20.780682 1.812 170 84 0
1.11391 -20.695364 1.699 170 84 0
1.350935 -20.813889 1.622 170 84 0
1.080943 -20.678566 1.702 170 84 0
1.275653 -20.77441 1.566 170 84 0
1.130857 -20.701754 1.57 170 84 0
1.222159 -20.751642 1.77 170 84 0
1.215485 -20.74712 1.681 170 84 0
1.064887 -20.672632 1.822 170 84 0
1.251529 -20.771095 2.002 170 84 0
1.100074 -20.691681 1.874 170 84 0
1.06225 -20.666796 1.597 170 84 0
1.117021 -20.698071 1.741 170 84 0
1.216342 -20.752045 1.918 170 84 0
1.235053 -20.76158 1.95 170 84 0
1.250183 -20.771534 2.059 170 84 0
1.220813 -20.752079 1.811 170 84 0
1.027465 -20.653564 1.79 170 84 0
1.102293 -20.693933 1.9 170 84 0
1.147751 -20.714853 1.837 170 84 0
0.932145 -20.602751 1.647 170 84 0
1.014134 -20.642281 1.568 170 84 0
0.991405 -20.631823 1.613 170 84 0
0.7798 -20.522881 1.529 170 84 0
1.103184 -20.694387 1.911 170 84 0
0.986934 -20.631788 1.741 170 84 0
1.296113 -20.789324 1.767 170 84 0
0.85419 -20.561909 1.627 170 84 0
0.879138 -20.574619 1.629 170 84 0
1.175407 -20.724453 1.57 170 84 0
1.241761 -20.761629 1.782 170 84 0
1.005207 -20.639977 1.671 170 84 0
1.06003 -20.664543 1.519 170 84 0
1.137514 -20.708513 1.748 170 84 0
1.200304 -20.743874 1.939 170 84 0
1.334006 -20.805264 1.629 170 84 0
1.03683 -20.657211 1.73 170 84 0
1.189679 -20.729481 1.51 170 84 0
1.201229 -20.739855 1.695 170 84 0
1.272929 -20.779757 1.89 170 84 0
1.168716 -20.722168 1.622 170 84 0
1.033737 -20.652269 1.578 170 84 0
1.005679 -20.63685 1.501 170 84 0
1.241341 -20.758049 1.613 170 84 0
0.993205 -20.630495 1.528 170 84 0
1.072486 -20.673136 1.649 170 84 0
1.25205 -20.761261 1.507 170 84 0
1.195463 -20.733551 1.531 170 84 0
1.03641 -20.653631 1.583 170 84 0
1.170514 -20.720839 1.542 170 84 0
0.947746 -20.609577 1.611 170 84 0
1.277384 -20.782026 1.864 170 84 0
1.227925 -20.757946 1.958 170 84 0
1.222142 -20.753878 1.894 170 84 0
1.269819 -20.77705 1.847 170 84 0
1.11433 -20.698946 1.878 170 84 0
0.83237 -20.549667 1.572 170 84 0
1.234214 -20.754416 1.619 170 84 0
0.929035 -20.600044 1.629 170 84 0
1.369209 -20.822079 1.548 170 84 0
1.309512 -20.79166 1.534 170 84 0
1.068015 -20.673101 1.748 170 84 0
1.127258 -20.704411 1.834 170 84 0
0.850189 -20.558746 1.539 170 84 0
1.341588 -20.808004 1.544 170 84 0
0.904995 -20.58555 1.519 170 84 0
1.105437 -20.692169 1.729 170 84 0
0.996768 -20.632311 1.509 170 84 0
1.076017 -20.679424 1.839 170 84 0
1.011462 -20.640919 1.579 170 84 0
1.269382 -20.775703 1.758 170 84 0
1.252907 -20.766186 1.722 170 84 0
0.997188 -20.635891 1.652 170 84 0
1.252419 -20.771549 1.983 170 84 0
0.856863 -20.563271 1.616 170 84 0
1.224866 -20.748531 1.569 170 84 0
0.837278 -20.551046 1.515 170 84 0
1.174011 -20.731598 1.978 170 84 0
1.18119 -20.728523 1.643 170 84 0
1.210173 -20.739923 1.509 170 84 0
0.992733 -20.633621 1.683 170 84 0
1.026138 -20.651764 1.73 170 84 0
1.138876 -20.705839 1.588 170 84 0
0.919233 -20.595049 1.62 170 84 0
1.301913 -20.791157 1.724 170 84 0
1.170514 -20.720839 1.546 170 84 0
1.231472 -20.761999 2.061 170 84 0
0.893849 -20.580992 1.529 170 84 0
1.101016 -20.685427 1.506 170 84 0
0.982041 -20.628174 1.688 170 84 0
1.113019 -20.69491 1.707 170 84 0
0.949074 -20.611376 1.684 170 84 0
1.076907 -20.679878 1.858 170 84 0
0.96513 -20.617311 1.577 170 84 0
0.995423 -20.632748 1.55 170 84 0
1.34648 -20.811619 1.588 170 84 0
0.844844 -20.556023 1.534 170 84 0
1.014117 -20.644518 1.691 170 84 0
1.209214 -20.748413 1.914 170 84 0
1.223941 -20.75255 1.762 170 84 0
1.058196 -20.670343 1.851 170 84 0
1.294767 -20.789761 1.82 170 84 0
1.192738 -20.738897 1.845 170 84 0
1.259111 -20.773836 1.93 170 84 0
1.026154 -20.649529 1.653 170 84 0
1.026172 -20.647291 1.524 170 84 0
1.332661 -20.805702 1.676 170 84 0
1.108144 -20.689058 1.541 170 84 0
1.286294 -20.786566 1.904 170 84 0
1.22532 -20.747641 1.511 170 84 0
1.246233 -20.761665 1.647 170 84 0
1.213652 -20.75292 2.031 170 84 0
1.230212 -20.751255 1.55 170 84 0
0.833697 -20.551466 1.599 170 84 0
1.090761 -20.681324 1.565 170 84 0
1.126351 -20.706192 1.91 170 84 0
1.154863 -20.72072 1.929 170 84 0
0.899195 -20.583715 1.57 170 84 0
0.832823 -20.548777 1.516 170 84 0
0.933927 -20.603659 1.682 170 84 0
0.941055 -20.60729 1.685 170 84 0
1.268474 -20.777485 1.86 170 84 0
1.218578 -20.752062 1.894 170 84 0
1.131747 -20.702208 1.593 170 84 0
1.283218 -20.779387 1.591 170 84 0
0.998988 -20.634563 1.588 170 84 0
1.262742 -20.766708 1.505 170 84 0
1.286312 -20.784328 1.8 170 84 0
1.051103 -20.662241 1.653 170 84 0
1.249309 -20.768843 1.912 170 84 0
1.094779 -20.682249 1.521 170 84 0
1.274291 -20.777082 1.734 170 84 0
1.30593 -20.792082 1.68 170 84 0
1.137076 -20.707169 1.701 170 84 0
1.134874 -20.702679 1.559 170 84 0
1.220378 -20.750734 1.767 170 84 0
1.149079 -20.716652 1.867 170 84 0
0.998516 -20.63769 1.729 170 84 0
0.917451 -20.594141 1.634 170 84 0
0.855536 -20.56147 1.554 170 84 0
1.039519 -20.656338 1.649 170 84 0
0.853299 -20.561455 1.602 170 84 0
1.165101 -20.727058 1.983 170 84 0
1.218562 -20.754297 1.974 170 84 0
0.76198 -20.513802 1.511 170 84 0
1.298383 -20.784868 1.519 170 84 0
1.096964 -20.688974 1.825 170 84 0
1.044394 -20.662189 1.807 170 84 0
1.299677 -20.79114 1.749 170 84 0
1.020792 -20.64904 1.717 170 84 0
1.280057 -20.783388 1.9 170 84 0
1.218192 -20.744009 1.509 170 84 0
0.951764 -20.610502 1.553 170 84 0
1.183426 -20.728539 1.608 170 84 0
0.969113 -20.622707 1.747 170 84 0
1.019463 -20.647242 1.689 170 84 0
1.213265 -20.744867 1.666 170 84 0
1.218595 -20.749826 1.762 170 84 0
1.020355 -20.647696 1.66 170 84 0
1.203414 -20.74658 1.978 170 84 0
1.030155 -20.652689 1.698 170 84 0
1.230615 -20.757074 1.847 170 84 0
1.037284 -20.656321 1.657 170 84 0
1.180298 -20.728069 1.652 170 84 0
1.218578 -20.752062 1.861 170 84 0
0.917469 -20.591906 1.528 170 84 0
1.240399 -20.764303 1.953 170 84 0
1.302383 -20.788029 1.55 170 84 0
1.043974 -20.658609 1.624 170 84 0
0.799856 -20.531979 1.494 170 84 0
1.057306 -20.669889 1.847 170 84 0
1.225286 -20.752113 1.717 170 84 0
1.112548 -20.698038 1.835 170 84 0
1.251965 -20.772442 2.023 170 84 0
1.266692 -20.776577 1.901 170 84 0
1.135714 -20.709841 1.855 170 84 0
1.375009 -20.823912 1.506 170 84 0
1.141094 -20.708094 1.622 170 84 0
0.87692 -20.572367 1.573 170 84 0
1.330896 -20.802557 1.559 170 84 0
1.205264 -20.738544 1.563 170 84 0
0.875138 -20.571459 1.568 170 84 0
1.122803 -20.702141 1.808 170 84 0
1.095217 -20.683594 1.557 170 84 0
1.15888 -20.721645 1.885 170 84 0
0.79451 -20.529255 1.5 170 84 0
1.124131 -20.703939 1.864 170 84 0
1.207012 -20.743923 1.743 170 84 0
1.298366 -20.787104 1.607 170 84 0
0.920561 -20.596848 1.694 170 84 0
0.928143 -20.59959 1.615 170 84 0
1.12862 -20.701738 1.615 170 84 0
0.916107 -20.594578 1.678 170 84 0
1.175423 -20.722218 1.507 170 84 0
1.237273 -20.763832 2.014 170 84 0
1.231472 -20.761999 2.039 170 84 0
1.015009 -20.644972 1.672 170 84 0
0.810548 -20.537426 1.508 170 84 0
0.827023 -20.546942 1.533 170 84 0
1.206978 -20.748396 1.991 170 84 0
0.885393 -20.575562 1.51 170 84 0
1.210576 -20.745739 1.769 170 84 0
1.132622 -20.704899 1.684 170 84 0
0.8747 -20.570114 1.504 170 84 0
0.747287 -20.505194 1.497 170 84 0
1.267617 -20.77256 1.679 170 84 0
1.014991 -20.647207 1.789 170 84 0
1.356282 -20.816614 1.619 170 84 0
1.089415 -20.681763 1.662 170 84 0
1.206558 -20.744816 1.797 170 84 0
1.306838 -20.790298 1.559 170 84 0
1.018153 -20.643206 1.519 170 84 0
1.043991 -20.656372 1.529 170 84 0
1.25738 -20.76622 1.597 170 84 0
1.024792 -20.652203 1.819 170 84 0
1.046648 -20.659971 1.618 170 84 0
1.060904 -20.667234 1.658 170 84 0
1.198119 -20.737148 1.636 170 84 0
1.123677 -20.70483 1.932 170 84 0
1.020371 -20.645458 1.573 170 84 0
1.019917 -20.646351 1.643 170 84 0
1.162025 -20.719879 1.698 170 84 0
1.248032 -20.760336 1.567 170 84 0
0.983369 -20.629972 1.749 170 84 0
1.120618 -20.695415 1.517 170 84 0
1.211013 -20.747086 1.808 170 84 0
1.139767 -20.706293 1.609 170 84 0
