ply
format ascii 1.0
element vertex 1267
property double x
property double y
property double z
property uchar red
property uchar green
property uchar blue
element face 0
property list uchar int vertex_indices
end_header
5.075421 -13.982157 0.612 153 153 153
5.054169 -14.012855 0.572 153 153 153
5.064208 -13.986545 0.595 153 153 153
5.07848 -13.991572 0.612 153 153 153
5.098201 -13.985909 0.64 153 153 153
5.091981 -13.980494 0.633 153 153 153
5.079388 -13.98979 0.614 153 153 153
5.02586 -13.971495 0.551 153 153 153
5.054826 -13.985131 0.584 153 153 153
5.084195 -14.004584 0.615 153 153 153
5.084717 -13.99475 0.619 153 153 153
5.05901 -14.023177 0.575 153 153 153
5.094234 -13.978275 0.638 153 153 153
5.088367 -13.985386 0.627 153 153 153
5.084768 -13.988042 0.622 153 153 153
5.039073 -13.998429 0.558 153 153 153
5.076546 -14.010788 0.602 153 153 153
5.042756 -13.984591 0.568 153 153 153
5.039731 -13.970705 0.57 153 153 153
5.05595 -14.013762 0.575 153 153 153
5.09193 -13.987202 0.631 153 153 153
5.071472 -13.972288 0.61 153 153 153
5.06355 -14.014267 0.585 153 153 153
5.114376 -13.976192 0.664 153 153 153
5.08739 -13.996112 0.622 153 153 153
5.095091 -13.9832 0.637 153 153 153
5.109416 -13.98152 0.655 153 153 153
5.045798 -13.996243 0.568 153 153 153
5.089156 -13.999256 0.623 153 153 153
5.091408 -13.997037 0.627 153 153 153
5.07722 -13.980829 0.615 153 153 153
5.091443 -13.992565 0.629 153 153 153
5.076329 -13.980375 0.613 153 153 153
5.099059 -13.990834 0.639 153 153 153
5.088821 -13.984494 0.628 153 153 153
5.052539 -13.991822 0.578 153 153 153
5.119301 -13.975335 0.671 153 153 153
5.034702 -13.984979 0.558 153 153 153
4.988091 -13.880421 0.724 153 153 153
4.986779 -13.876387 0.726 153 153 153
4.975145 -13.877192 0.721 153 153 153
5.045535 -13.913057 0.725 153 153 153
4.971161 -13.871795 0.723 153 153 153
5.086016 -13.94154 0.723 153 153 153
4.985718 -13.898292 0.713 153 153 153
4.891038 -13.821992 0.724 153 153 153
4.927989 -13.844186 0.724 153 153 153
4.922626 -13.843699 0.723 153 153 153
5.011574 -13.909222 0.715 153 153 153
4.936713 -13.873322 0.709 153 153 153
5.083393 -13.93347 0.727 153 153 153
4.927416 -13.860729 0.714 153 153 153
4.882044 -13.828631 0.716 153 153 153
4.879019 -13.814745 0.724 153 153 153
4.878967 -13.821453 0.72 153 153 153
4.934914 -13.87465 0.708 153 153 153
5.035212 -13.917898 0.718 153 153 153
4.955594 -13.860497 0.724 153 153 153
4.888769 -13.826447 0.721 153 153 153
4.933568 -13.875088 0.707 153 153 153
4.909766 -13.82929 0.726 153 153 153
4.902133 -13.833257 0.721 153 153 153
5.0415 -13.914369 0.723 153 153 153
4.947842 -13.880116 0.71 153 153 153
4.892702 -13.838552 0.714 153 153 153
4.86029 -13.807446 0.722 153 153 153
4.841142 -13.796569 0.721 153 153 153
4.924863 -13.843716 0.723 153 153 153
5.13682 -13.965181 0.727 153 153 153
4.948279 -13.88146 0.709 153 153 153
4.994764 -13.884944 0.724 153 153 153
5.010802 -13.893116 0.725 153 153 153
4.86029 -13.807446 0.721 153 153 153
4.934175 -13.854073 0.72 153 153 153
4.863837 -13.811499 0.721 153 153 153
5.001035 -13.88365 0.727 153 153 153
5.058832 -13.928811 0.721 153 153 153
4.980525 -13.875444 0.724 153 153 153
4.936258 -13.874213 0.709 153 153 153
4.9485 -13.852392 0.726 153 153 153
4.959424 -13.886017 0.71 153 153 153
4.850086 -13.796636 0.725 153 153 153
4.826449 -13.78796 0.721 153 153 153
4.9195 -13.843227 0.721 153 153 153
4.909278 -13.834652 0.723 153 153 153
4.97997 -13.88975 0.716 153 153 153
4.930056 -13.866563 0.711 153 153 153
4.955895 -13.879729 0.713 153 153 153
4.912303 -13.848539 0.716 153 153 153
4.939993 -13.853669 0.723 153 153 153
4.931435 -13.861655 0.715 153 153 153
4.867906 -13.805716 0.726 153 153 153
4.939136 -13.848743 0.725 153 153 153
4.896249 -13.842604 0.713 153 153 153
4.989384 -13.886692 0.721 153 153 153
4.983584 -13.884859 0.72 153 153 153
4.958738 -13.858731 0.726 153 153 153
4.965361 -13.869962 0.722 153 153 153
5.049973 -13.917562 0.724 153 153 153
4.868696 -13.819586 0.717 153 153 153
5.113654 -13.953378 0.726 153 153 153
4.86693 -13.816442 0.719 153 153 153
4.917632 -13.853499 0.714 153 153 153
5.027278 -13.902632 0.725 153 153 153
4.850994 -13.794854 0.726 153 153 153
5.070011 -13.928896 0.725 153 153 153
5.06554 -13.928862 0.723 153 153 153
4.954164 -13.872113 0.717 153 153 153
4.990241 -13.891619 0.718 153 153 153
4.90252 -13.841311 0.717 153 153 153
4.885256 -13.817923 0.724 153 153 153
5.040893 -13.935384 0.676 153 153 153
5.0418 -13.933601 0.682 153 153 153
4.920624 -13.871859 0.699 153 153 153
5.008396 -13.915459 0.69 153 153 153
4.90588 -13.869958 0.68 153 153 153
4.973648 -13.897753 0.697 153 153 153
4.990559 -13.908614 0.685 153 153 153
4.917026 -13.874515 0.684 153 153 153
4.930879 -13.875961 0.703 153 153 153
4.951355 -13.888639 0.689 153 153 153
5.010161 -13.918603 0.682 153 153 153
4.974958 -13.901789 0.685 153 153 153
4.970974 -13.896391 0.696 153 153 153
4.950481 -13.885949 0.699 153 153 153
4.924608 -13.877255 0.685 153 153 153
4.982524 -13.906765 0.679 153 153 153
4.94732 -13.889951 0.679 153 153 153
5.005706 -13.916332 0.685 153 153 153
4.917951 -13.870497 0.699 153 153 153
5.007506 -13.915005 0.691 153 153 153
4.967813 -13.900393 0.678 153 153 153
4.946918 -13.884133 0.7 153 153 153
4.943353 -13.882318 0.699 153 153 153
5.007034 -13.918132 0.679 153 153 153
4.936628 -13.884502 0.682 153 153 153
4.923734 -13.874565 0.694 153 153 153
4.977177 -13.90404 0.68 153 153 153
4.94421 -13.887243 0.684 153 153 153
4.925533 -13.873238 0.703 153 153 153
4.997671 -13.914483 0.677 153 153 153
4.993686 -13.909086 0.689 153 153 153
4.919262 -13.874532 0.686 153 153 153
4.950027 -13.886841 0.696 153 153 153
4.898633 -13.881978 0.666 153 153 153
4.888009 -13.867586 0.675 153 153 153
4.88041 -13.867082 0.672 153 153 153
4.884814 -13.87606 0.666 153 153 153
4.88932 -13.871621 0.671 153 153 153
4.895154 -13.868982 0.676 153 153 153
4.907594 -13.879809 0.671 153 153 153
4.846097 -13.85072 0.672 153 153 153
4.895574 -13.872562 0.673 153 153 153
4.835389 -13.847508 0.671 153 153 153
4.898717 -13.870798 0.676 153 153 153
4.893741 -13.878363 0.668 153 153 153
4.868826 -13.861179 0.672 153 153 153
4.896028 -13.871672 0.674 153 153 153
4.391531 -13.63931 0.723 153 153 153
4.318779 -13.738041 0.723 153 153 153
4.369995 -13.648538 0.723 153 153 153
4.355734 -13.700754 0.723 153 153 153
4.34124 -13.724795 0.723 153 153 153
4.374938 -13.645445 0.723 153 153 153
4.425598 -13.570248 0.723 153 153 153
4.407035 -13.600071 0.723 153 153 153
4.440915 -13.555606 0.723 153 153 153
4.290177 -13.794175 0.723 153 153 153
4.372634 -13.654371 0.723 153 153 153
4.40527 -13.596927 0.723 153 153 153
4.374585 -13.632919 0.723 153 153 153
4.250329 -13.859167 0.723 153 153 153
4.284292 -13.803522 0.723 153 153 153
4.393954 -13.61473 0.723 153 153 153
4.40732 -13.62154 0.723 153 153 153
4.387513 -13.638384 0.723 153 153 153
4.403942 -13.595128 0.723 153 153 153
4.336819 -13.718053 0.723 153 153 153
4.413374 -13.589832 0.723 153 153 153
4.340367 -13.722105 0.723 153 153 153
4.387059 -13.639276 0.723 153 153 153
4.248495 -13.864967 0.723 153 153 153
4.421546 -13.573795 0.723 153 153 153
4.34077 -13.727921 0.723 153 153 153
4.356426 -13.66856 0.723 153 153 153
4.339005 -13.724778 0.723 153 153 153
4.358055 -13.689591 0.723 153 153 153
4.342568 -13.726594 0.723 153 153 153
4.373405 -13.670477 0.723 153 153 153
4.298803 -13.777246 0.723 153 153 153
4.375727 -13.659315 0.723 153 153 153
4.277919 -13.818232 0.723 153 153 153
4.348288 -13.680126 0.723 153 153 153
4.279685 -13.821376 0.723 153 153 153
4.346319 -13.703815 0.723 153 153 153
4.24572 -13.877022 0.723 153 153 153
4.439468 -13.569459 0.723 153 153 153
4.368378 -13.684751 0.723 153 153 153
4.402245 -13.58304 0.723 153 153 153
4.302838 -13.775935 0.723 153 153 153
4.281903 -13.823628 0.723 153 153 153
4.405287 -13.594691 0.723 153 153 153
4.341847 -13.70378 0.723 153 153 153
4.423532 -13.547871 0.723 153 153 153
4.396962 -13.630854 0.723 153 153 153
4.41956 -13.599719 0.723 153 153 153
4.39577 -13.611166 0.723 153 153 153
4.343107 -13.714523 0.723 153 153 153
4.309092 -13.776876 0.723 153 153 153
4.430977 -13.5685 0.723 153 153 153
4.405303 -13.592455 0.723 153 153 153
4.351381 -13.685069 0.723 153 153 153
4.380352 -13.639224 0.723 153 153 153
4.367691 -13.657464 0.723 153 153 153
4.288395 -13.793267 0.723 153 153 153
4.407943 -13.598289 0.723 153 153 153
4.41956 -13.599719 0.723 153 153 153
4.405303 -13.592455 0.723 153 153 153
4.384336 -13.644621 0.723 153 153 153
4.256179 -13.854292 0.723 153 153 153
4.362192 -13.674865 0.723 153 153 153
4.370716 -13.671351 0.723 153 153 153
4.303627 -13.789804 0.723 153 153 153
4.41314 -13.561656 0.723 153 153 153
4.315584 -13.746514 0.723 153 153 153
4.282476 -13.807085 0.723 153 153 153
4.263358 -13.851216 0.723 153 153 153
4.290546 -13.804464 0.723 153 153 153
4.420757 -13.559925 0.723 153 153 153
4.31143 -13.763477 0.723 153 153 153
4.400509 -13.634905 0.723 153 153 153
4.353532 -13.696266 0.723 153 153 153
4.295523 -13.796899 0.723 153 153 153
4.309176 -13.765697 0.723 153 153 153
4.343914 -13.726157 0.723 153 153 153
4.371238 -13.661516 0.723 153 153 153
4.41956 -13.599719 0.723 153 153 153
4.375409 -13.642317 0.723 153 153 153
4.436829 -13.563624 0.723 153 153 153
4.236186 -13.895733 0.723 153 153 153
4.367657 -13.661936 0.723 153 153 153
4.304989 -13.787131 0.723 153 153 153
4.295608 -13.785719 0.723 153 153 153
4.342199 -13.716305 0.723 153 153 153
4.43651 -13.546627 0.722 153 153 153
4.136041 -14.068048 0.723 153 153 153
4.18951 -13.976326 0.723 153 153 153
4.045782 -14.234179 0.723 153 153 153
4.182281 -13.98611 0.723 153 153 153
4.082067 -14.167371 0.723 153 153 153
4.148248 -14.050699 0.723 153 153 153
4.136495 -14.067158 0.723 153 153 153
4.088843 -14.158478 0.723 153 153 153
4.052138 -14.221705 0.723 153 153 153
4.193999 -13.974124 0.723 153 153 153
4.117427 -14.10458 0.723 153 153 153
4.18771 -13.977654 0.723 153 153 153
4.126456 -14.093468 0.723 153 153 153
4.081613 -14.168262 0.723 153 153 153
4.011312 -14.297423 0.723 153 153 153
4.072533 -14.186082 0.723 153 153 153
3.785509 -14.762614 0.722 153 153 153
4.808849 -14.221189 0.72 153 153 153
4.380814 -14.226437 0.722 153 153 153
4.404658 -14.384488 0.721 153 153 153
4.342754 -14.173374 0.722 153 153 153
4.198293 -14.115479 0.723 153 153 153
4.724568 -14.247829 0.72 153 153 153
4.486859 -14.513914 0.721 153 153 153
4.281305 -13.96137 0.723 153 153 153
4.116612 -14.211908 0.723 153 153 153
4.252003 -14.640038 0.721 153 153 153
4.484471 -14.062644 0.722 153 153 153
4.071125 -14.37167 0.722 153 153 153
4.240933 -14.036198 0.723 153 153 153
4.103451 -14.178267 0.723 153 153 153
4.386749 -14.44607 0.721 153 153 153
4.055111 -14.713676 0.721 153 153 153
4.428028 -14.36946 0.721 153 153 153
3.822686 -14.931948 0.722 153 153 153
3.996585 -14.764663 0.721 153 153 153
4.05632 -14.731128 0.721 153 153 153
4.109103 -14.140742 0.723 153 153 153
3.970767 -14.689781 0.722 153 153 153
4.453333 -14.099527 0.722 153 153 153
4.407687 -14.574582 0.721 153 153 153
4.422898 -14.16146 0.722 153 153 153
4.239728 -14.66633 0.721 153 153 153
4.467525 -14.527631 0.721 153 153 153
3.889095 -14.667247 0.722 153 153 153
3.982986 -14.729676 0.722 153 153 153
3.838983 -14.847098 0.722 153 153 153
4.072855 -14.614975 0.722 153 153 153
4.046745 -14.401896 0.722 153 153 153
3.950278 -14.619858 0.722 153 153 153
4.408184 -13.978881 0.723 153 153 153
3.954347 -14.614075 0.722 153 153 153
4.277731 -14.549893 0.721 153 153 153
3.725391 -14.964304 0.722 153 153 153
4.389786 -14.517201 0.721 153 153 153
3.936663 -14.822796 0.722 153 153 153
4.020961 -14.55823 0.722 153 153 153
4.126863 -14.746869 0.721 153 153 153
4.171897 -14.35231 0.722 153 153 153
4.066771 -14.355984 0.723 153 153 153
4.412253 -14.444474 0.721 153 153 153
4.862229 -14.200127 0.72 153 153 153
4.160243 -14.414833 0.722 153 153 153
4.366773 -14.249585 0.722 153 153 153
3.961369 -14.690604 0.722 153 153 153
4.664289 -14.117229 0.721 153 153 153
4.08667 -14.444687 0.722 153 153 153
4.716091 -14.304115 0.72 153 153 153
3.732983 -14.848083 0.722 153 153 153
3.783328 -14.932096 0.722 153 153 153
4.239266 -14.079119 0.723 153 153 153
4.018402 -14.365009 0.723 153 153 153
4.120409 -14.713278 0.721 153 153 153
4.768545 -14.287071 0.72 153 153 153
4.172377 -14.465909 0.722 153 153 153
4.640937 -14.130021 0.721 153 153 153
4.593344 -14.331359 0.721 153 153 153
4.257252 -14.125319 0.723 153 153 153
4.069694 -14.618976 0.722 153 153 153
3.737845 -14.796689 0.722 153 153 153
4.656576 -14.308583 0.721 153 153 153
4.071446 -14.564874 0.722 153 153 153
4.634636 -14.076306 0.721 153 153 153
3.968523 -14.573037 0.722 153 153 153
4.397471 -14.270838 0.722 153 153 153
4.303682 -13.959304 0.723 153 153 153
4.023209 -14.615492 0.722 153 153 153
4.038772 -14.686272 0.722 153 153 153
4.57498 -14.393831 0.721 153 153 153
4.381887 -14.026088 0.722 153 153 153
4.020786 -14.640071 0.722 153 153 153
4.50387 -14.335152 0.721 153 153 153
4.205492 -14.286375 0.722 153 153 153
4.161685 -14.69615 0.721 153 153 153
4.265304 -14.360621 0.722 153 153 153
4.363981 -14.499563 0.721 153 153 153
4.160315 -14.346408 0.722 153 153 153
4.576071 -14.191247 0.721 153 153 153
4.174489 -14.541059 0.722 153 153 153
4.747428 -14.299882 0.72 153 153 153
4.244986 -14.268339 0.722 153 153 153
4.230381 -14.424757 0.722 153 153 153
4.437493 -14.359693 0.721 153 153 153
4.143194 -14.186171 0.723 153 153 153
4.006258 -14.668584 0.722 153 153 153
4.398629 -14.530685 0.721 153 153 153
4.456528 -14.326742 0.721 153 153 153
4.455794 -14.010996 0.722 153 153 153
4.376303 -14.290356 0.722 153 153 153
3.6651 -15.012147 0.722 153 153 153
4.370196 -14.564459 0.721 153 153 153
3.914859 -14.808318 0.722 153 153 153
4.215268 -14.412568 0.722 153 153 153
4.382235 -14.098093 0.722 153 153 153
4.125237 -14.666355 0.721 153 153 153
4.417009 -13.9946 0.722 153 153 153
4.39658 -14.506073 0.721 153 153 153
4.158791 -14.488167 0.722 153 153 153
3.815332 -14.781177 0.722 153 153 153
4.214106 -14.212201 0.722 153 153 153
3.920577 -14.76185 0.722 153 153 153
4.780442 -14.133763 0.721 153 153 153
4.42163 -14.26968 0.722 153 153 153
4.470657 -13.997245 0.722 153 153 153
4.292939 -14.196252 0.722 153 153 153
3.872217 -14.651913 0.722 153 153 153
3.941725 -14.568362 0.722 153 153 153
4.386719 -14.391061 0.721 153 153 153
4.796074 -14.1956 0.72 153 153 153
4.085495 -14.658452 0.722 153 153 153
3.980424 -14.360248 0.723 153 153 153
4.077565 -14.583704 0.722 153 153 153
4.670428 -14.074342 0.721 153 153 153
4.33692 -14.411701 0.721 153 153 153
4.571056 -14.262765 0.721 153 153 153
4.019221 -14.433887 0.722 153 153 153
4.305536 -14.127476 0.722 153 153 153
4.56145 -14.349901 0.721 153 153 153
3.752317 -14.834365 0.722 153 153 153
3.915143 -14.594099 0.722 153 153 153
4.513587 -14.115638 0.722 153 153 153
4.145676 -14.507298 0.722 153 153 153
4.098774 -14.67644 0.721 153 153 153
4.746308 -14.211769 0.721 153 153 153
4.797512 -14.300709 0.72 153 153 153
4.336335 -14.606688 0.721 153 153 153
4.034321 -14.624521 0.722 153 153 153
4.140988 -14.476851 0.722 153 153 153
4.265368 -14.17547 0.722 153 153 153
3.913348 -14.535947 0.723 153 153 153
4.119149 -14.231158 0.723 153 153 153
3.955624 -14.622581 0.722 153 153 153
4.062881 -14.220446 0.723 153 153 153
4.246202 -14.402515 0.722 153 153 153
4.162669 -14.095084 0.723 153 153 153
4.124012 -14.651141 0.721 153 153 153
4.016735 -14.643619 0.722 153 153 153
4.358415 -14.290219 0.722 153 153 153
4.683183 -14.161648 0.721 153 153 153
4.538946 -14.250893 0.721 153 153 153
4.531698 -14.498601 0.72 153 153 153
4.341655 -14.023545 0.723 153 153 153
4.675346 -14.192447 0.721 153 153 153
4.126277 -14.470479 0.722 153 153 153
4.175012 -14.531224 0.722 153 153 153
4.217207 -14.098183 0.723 153 153 153
4.153127 -14.704134 0.721 153 153 153
4.293214 -14.572371 0.721 153 153 153
3.782493 -14.865453 0.722 153 153 153
4.421715 -14.258499 0.722 153 153 153
4.61864 -14.180388 0.721 153 153 153
3.944966 -14.612662 0.722 153 153 153
4.12904 -14.401179 0.722 153 153 153
3.822274 -14.809404 0.722 153 153 153
4.164893 -14.509233 0.722 153 153 153
4.565286 -14.080252 0.722 153 153 153
3.959506 -14.405706 0.723 153 153 153
4.062876 -14.751303 0.721 153 153 153
3.58771 -15.073724 0.722 153 153 153
3.775835 -14.858694 0.722 153 153 153
3.750582 -14.88623 0.722 153 153 153
4.28097 -14.182298 0.722 153 153 153
4.633914 -14.053493 0.721 153 153 153
4.635954 -14.432755 0.72 153 153 153
4.558285 -14.177694 0.721 153 153 153
3.991197 -14.413998 0.723 153 153 153
4.064445 -14.662316 0.722 153 153 153
4.143288 -14.291717 0.722 153 153 153
4.200537 -14.232224 0.722 153 153 153
4.112208 -14.674307 0.721 153 153 153
4.423264 -14.231231 0.722 153 153 153
3.926972 -14.685423 0.722 153 153 153
4.255456 -14.538544 0.721 153 153 153
4.065647 -14.327353 0.723 153 153 153
4.679708 -14.08917 0.721 153 153 153
4.066775 -14.767879 0.721 153 153 153
4.680115 -14.271194 0.721 153 153 153
4.071947 -14.381068 0.722 153 153 153
3.733059 -14.955865 0.722 153 153 153
4.465955 -14.380929 0.721 153 153 153
4.723079 -14.149428 0.721 153 153 153
4.155384 -14.171058 0.723 153 153 153
4.336093 -13.990408 0.723 153 153 153
4.579741 -14.355853 0.721 153 153 153
4.573397 -14.425572 0.72 153 153 153
3.826496 -14.783498 0.722 153 153 153
4.484828 -14.487064 0.721 153 153 153
4.322002 -14.255954 0.722 153 153 153
4.099114 -14.396032 0.722 153 153 153
3.947944 -14.809464 0.722 153 153 153
4.193774 -14.062674 0.723 153 153 153
4.170362 -14.436825 0.722 153 153 153
4.280609 -14.053046 0.723 153 153 153
4.108223 -14.66891 0.721 153 153 153
4.461224 -14.473916 0.721 153 153 153
4.187727 -14.682483 0.721 153 153 153
4.172746 -14.711886 0.721 153 153 153
4.033332 -14.342313 0.723 153 153 153
3.932521 -14.661315 0.722 153 153 153
4.835944 -14.304579 0.72 153 153 153
4.608474 -14.105624 0.721 153 153 153
3.954287 -14.739745 0.722 153 153 153
4.07916 -14.37352 0.722 153 153 153
4.189505 -14.507184 0.722 153 153 153
4.371058 -14.274216 0.722 153 153 153
4.046066 -14.255648 0.723 153 153 153
4.357019 -14.061676 0.722 153 153 153
3.875429 -14.641204 0.722 153 153 153
4.043397 -14.430494 0.722 153 153 153
3.91723 -14.554758 0.722 153 153 153
4.439247 -14.069903 0.722 153 153 153
4.08552 -14.772942 0.721 153 153 153
4.200194 -14.100736 0.723 153 153 153
3.988609 -14.637143 0.722 153 153 153
4.375157 -14.323442 0.722 153 153 153
4.708334 -14.383216 0.72 153 153 153
3.625811 -15.003351 0.722 153 153 153
4.167531 -14.043691 0.723 153 153 153
4.630834 -14.341482 0.721 153 153 153
3.824285 -14.89797 0.722 153 153 153
4.461915 -14.441721 0.721 153 153 153
4.188478 -14.524618 0.722 153 153 153
4.270308 -13.99617 0.723 153 153 153
4.820419 -14.169846 0.72 153 153 153
4.334476 -14.026621 0.723 153 153 153
4.111525 -14.351851 0.722 153 153 153
3.728315 -14.991607 0.722 153 153 153
4.36797 -14.209792 0.722 153 153 153
4.540282 -14.369417 0.721 153 153 153
4.139656 -14.298845 0.722 153 153 153
4.104753 -14.536952 0.722 153 153 153
4.060623 -14.753522 0.721 153 153 153
4.428796 -14.209358 0.722 153 153 153
4.36004 -14.370732 0.721 153 153 153
4.185287 -14.709298 0.721 153 153 153
4.04075 -14.77931 0.721 153 153 153
4.47826 -14.173956 0.722 153 153 153
4.052519 -14.289239 0.723 153 153 153
4.285285 -14.026248 0.723 153 153 153
4.687926 -14.361594 0.72 153 153 153
4.305251 -14.341695 0.722 153 153 153
4.789111 -14.229089 0.72 153 153 153
3.932246 -14.756572 0.722 153 153 153
4.409673 -14.31297 0.721 153 153 153
4.054794 -14.460991 0.722 153 153 153
4.036438 -14.64019 0.722 153 153 153
4.740241 -14.186231 0.721 153 153 153
4.22145 -14.010558 0.723 153 153 153
4.232859 -14.333989 0.722 153 153 153
3.931028 -14.622396 0.722 153 153 153
3.902329 -14.632463 0.722 153 153 153
4.150984 -14.338287 0.722 153 153 153
3.988328 -14.556193 0.722 153 153 153
3.965769 -14.759064 0.722 153 153 153
4.406317 -14.460529 0.721 153 153 153
3.678016 -14.960366 0.722 153 153 153
3.888378 -14.82064 0.722 153 153 153
4.281759 -14.196167 0.722 153 153 153
4.721636 -14.339489 0.72 153 153 153
4.781019 -14.293427 0.72 153 153 153
4.022102 -14.584624 0.722 153 153 153
4.507781 -14.408974 0.721 153 153 153
3.714674 -14.844366 0.722 153 153 153
4.284126 -14.00209 0.723 153 153 153
4.401892 -14.27758 0.722 153 153 153
4.131785 -14.098428 0.723 153 153 153
4.319779 -14.077494 0.723 153 153 153
4.11559 -14.405549 0.722 153 153 153
4.191767 -14.386003 0.722 153 153 153
3.858381 -14.883919 0.722 153 153 153
4.306536 -14.466928 0.721 153 153 153
4.142129 -14.267558 0.723 153 153 153
4.076984 -14.483521 0.722 153 153 153
4.175881 -14.357707 0.722 153 153 153
4.417649 -14.44049 0.721 153 153 153
4.43746 -14.128477 0.722 153 153 153
4.599365 -14.304124 0.721 153 153 153
4.495991 -14.253697 0.721 153 153 153
4.026184 -14.636087 0.722 153 153 153
4.539463 -14.300538 0.721 153 153 153
4.548959 -14.110092 0.722 153 153 153
4.27965 -14.297224 0.722 153 153 153
4.457452 -14.322724 0.721 153 153 153
4.247242 -13.970951 0.723 153 153 153
3.987031 -14.373714 0.723 153 153 153
4.492702 -14.392312 0.721 153 153 153
4.460028 -14.278021 0.721 153 153 153
4.676658 -14.196482 0.721 153 153 153
4.260596 -13.920515 0.723 153 153 153
4.714669 -14.196771 0.721 153 153 153
4.195132 -14.355169 0.722 153 153 153
4.551322 -14.211183 0.721 153 153 153
3.901973 -14.679419 0.722 153 153 153
3.895366 -14.665952 0.722 153 153 153
4.197949 -14.219682 0.723 153 153 153
4.088716 -14.52878 0.722 153 153 153
4.176025 -14.692233 0.721 153 153 153
4.551361 -14.382918 0.721 153 153 153
4.285913 -13.943516 0.723 153 153 153
4.156038 -14.438504 0.722 153 153 153
4.440667 -14.412937 0.721 153 153 153
4.653593 -14.406951 0.72 153 153 153
4.1148 -14.627368 0.721 153 153 153
4.833767 -14.178891 0.72 153 153 153
4.517791 -14.091967 0.722 153 153 153
4.526505 -14.475753 0.72 153 153 153
3.842186 -14.719664 0.722 153 153 153
4.488986 -14.174932 0.722 153 153 153
4.441389 -14.200063 0.722 153 153 153
4.739499 -14.225134 0.721 153 153 153
4.629298 -14.425997 0.72 153 153 153
3.738218 -14.983185 0.722 153 153 153
4.477704 -14.423952 0.721 153 153 153
4.532034 -14.277674 0.721 153 153 153
4.397165 -14.075397 0.722 153 153 153
3.901697 -14.774676 0.722 153 153 153
4.033837 -14.570402 0.722 153 153 153
3.908434 -14.829737 0.722 153 153 153
4.662176 -14.277766 0.721 153 153 153
4.905569 -14.205376 0.72 153 153 153
3.913857 -14.704555 0.722 153 153 153
3.682742 -14.926861 0.722 153 153 153
4.152592 -14.421036 0.722 153 153 153
3.723936 -14.86143 0.722 153 153 153
4.463897 -14.475278 0.721 153 153 153
4.351719 -14.583102 0.721 153 153 153
4.647763 -14.11442 0.721 153 153 153
4.251434 -14.597099 0.721 153 153 153
4.204253 -14.685291 0.721 153 153 153
4.162661 -14.214046 0.723 153 153 153
4.35906 -13.969563 0.723 153 153 153
4.193535 -14.565354 0.721 153 153 153
4.160437 -14.506963 0.722 153 153 153
4.241417 -14.561692 0.721 153 153 153
4.316601 -14.319419 0.722 153 153 153
4.306417 -14.482579 0.721 153 153 153
4.124211 -14.212414 0.723 153 153 153
3.92665 -14.492219 0.723 153 153 153
4.825268 -14.296895 0.72 153 153 153
4.428902 -14.372149 0.721 153 153 153
4.347447 -14.144341 0.722 153 153 153
4.845974 -14.161542 0.72 153 153 153
3.800305 -14.757807 0.722 153 153 153
3.85455 -14.622709 0.722 153 153 153
3.874016 -14.650584 0.722 153 153 153
4.533354 -14.162746 0.721 153 153 153
4.331133 -14.467114 0.721 153 153 153
4.372051 -14.025565 0.723 153 153 153
4.00107 -14.350566 0.723 153 153 153
4.229744 -14.390763 0.722 153 153 153
4.024393 -14.518453 0.722 153 153 153
4.662626 -14.336357 0.72 153 153 153
4.164918 -14.152347 0.723 153 153 153
3.79761 -14.818162 0.722 153 153 153
3.941661 -14.517824 0.722 153 153 153
4.656343 -14.280406 0.721 153 153 153
4.92263 -14.255594 0.72 153 153 153
4.168753 -14.118386 0.723 153 153 153
3.990407 -14.635816 0.722 153 153 153
4.0654 -14.477619 0.722 153 153 153
3.877007 -14.668944 0.722 153 153 153
4.738849 -14.133895 0.721 153 153 153
4.108576 -14.681435 0.721 153 153 153
4.60113 -14.307268 0.721 153 153 153
4.360659 -14.406963 0.721 153 153 153
4.275126 -14.539587 0.721 153 153 153
3.704686 -14.863968 0.722 153 153 153
4.90823 -14.149492 0.72 153 153 153
4.268665 -14.389271 0.722 153 153 153
4.237841 -14.266943 0.722 153 153 153
4.700269 -14.090668 0.721 153 153 153
4.421549 -13.985691 0.722 153 153 153
3.941278 -14.450291 0.723 153 153 153
4.090442 -14.360188 0.722 153 153 153
4.574434 -14.053488 0.722 153 153 153
4.986219 -14.185863 0.72 153 153 153
4.551389 -14.437928 0.721 153 153 153
3.989088 -14.750743 0.722 153 153 153
4.933463 -14.183673 0.72 153 153 153
4.408231 -14.031654 0.722 153 153 153
3.682606 -14.944748 0.722 153 153 153
4.274762 -13.99844 0.723 153 153 153
4.066334 -14.354639 0.723 153 153 153
4.621822 -14.11467 0.721 153 153 153
4.070471 -14.339912 0.723 153 153 153
3.680701 -15.018973 0.722 153 153 153
4.228646 -14.240934 0.722 153 153 153
4.326037 -14.254643 0.722 153 153 153
4.183103 -14.231196 0.723 153 153 153
4.140436 -14.195989 0.723 153 153 153
4.610379 -14.267088 0.721 153 153 153
3.821243 -14.88632 0.722 153 153 153
4.078223 -14.320293 0.723 153 153 153
4.41835 -14.525022 0.721 153 153 153
4.122259 -14.469553 0.722 153 153 153
4.382357 -14.494337 0.721 153 153 153
4.272449 -14.597707 0.721 153 153 153
4.390775 -14.328032 0.721 153 153 153
4.23353 -14.127823 0.723 153 153 153
4.137186 -14.270651 0.723 153 153 153
4.40557 -14.558913 0.721 153 153 153
4.456141 -14.318689 0.721 153 153 153
4.354676 -14.605933 0.721 153 153 153
4.109162 -14.25076 0.723 153 153 153
4.606149 -14.176269 0.721 153 153 153
4.45329 -14.222961 0.722 153 153 153
3.746271 -14.982799 0.722 153 153 153
4.123711 -14.160531 0.723 153 153 153
4.460948 -14.333485 0.721 153 153 153
4.039854 -14.602649 0.722 153 153 153
4.536701 -14.369838 0.721 153 153 153
4.438873 -14.119095 0.722 153 153 153
4.733236 -14.343154 0.72 153 153 153
4.813771 -14.279813 0.72 153 153 153
3.993891 -14.353642 0.723 153 153 153
3.903742 -14.85877 0.722 153 153 153
4.351206 -14.238287 0.722 153 153 153
4.43278 -13.979067 0.722 153 153 153
4.087608 -14.733602 0.721 153 153 153
4.480042 -14.410552 0.721 153 153 153
3.746156 -14.93897 0.722 153 153 153
4.007655 -14.42575 0.723 153 153 153
4.015819 -14.292986 0.723 153 153 153
3.729715 -14.92498 0.722 153 153 153
3.969986 -14.792637 0.721 153 153 153
4.46467 -14.020007 0.722 153 153 153
3.902652 -14.589979 0.722 153 153 153
4.350502 -14.448925 0.721 153 153 153
4.111568 -14.228417 0.723 153 153 153
3.903348 -14.498303 0.723 153 153 153
4.452917 -14.507842 0.721 153 153 153
3.731133 -14.856119 0.722 153 153 153
4.556923 -14.180367 0.721 153 153 153
3.91622 -14.569958 0.722 153 153 153
3.959757 -14.431647 0.723 153 153 153
3.854936 -14.86645 0.722 153 153 153
4.614478 -14.316314 0.721 153 153 153
3.889185 -14.832273 0.722 153 153 153
4.214169 -14.498426 0.722 153 153 153
3.853773 -14.666084 0.722 153 153 153
3.8979 -14.508995 0.723 153 153 153
4.268741 -14.025675 0.723 153 153 153
4.570768 -14.065087 0.722 153 153 153
4.553996 -14.212545 0.721 153 153 153
4.848329 -14.145906 0.72 153 153 153
4.83703 -14.161474 0.72 153 153 153
4.655171 -14.199002 0.721 153 153 153
4.72313 -14.14272 0.721 153 153 153
3.951716 -14.724967 0.722 153 153 153
4.809901 -14.318245 0.72 153 153 153
4.477861 -14.108658 0.722 153 153 153
4.067967 -14.551879 0.722 153 153 153
4.335936 -14.305701 0.722 153 153 153
4.035187 -14.274796 0.723 153 153 153
4.642103 -14.270906 0.721 153 153 153
4.778631 -14.313535 0.72 153 153 153
4.715602 -14.309479 0.72 153 153 153
4.46262 -14.231083 0.722 153 153 153
4.341957 -14.042779 0.723 153 153 153
4.282748 -14.006998 0.723 153 153 153
4.921875 -14.237252 0.72 153 153 153
3.915915 -14.845894 0.722 153 153 153
4.808827 -14.282906 0.72 153 153 153
4.345767 -14.365705 0.722 153 153 153
4.299273 -14.481184 0.721 153 153 153
4.698483 -14.38493 0.72 153 153 153
4.29643 -14.502181 0.721 153 153 153
4.242558 -14.352399 0.722 153 153 153
4.581896 -14.07188 0.722 153 153 153
4.638348 -14.117478 0.721 153 153 153
4.251922 -14.356048 0.722 153 153 153
4.275156 -14.123219 0.723 153 153 153
4.241073 -14.665894 0.721 153 153 153
4.043927 -14.537384 0.722 153 153 153
4.046651 -14.767727 0.721 153 153 153
4.085224 -14.458539 0.722 153 153 153
4.256631 -14.560467 0.721 153 153 153
3.986661 -14.599114 0.722 153 153 153
4.058425 -14.453864 0.722 153 153 153
4.361483 -14.180673 0.722 153 153 153
4.299965 -13.977612 0.723 153 153 153
4.965322 -14.169604 0.72 153 153 153
4.821947 -14.204293 0.72 153 153 153
4.336751 -14.198374 0.722 153 153 153
4.177401 -14.511117 0.722 153 153 153
4.215692 -14.592356 0.721 153 153 153
3.90238 -14.861444 0.722 153 153 153
3.985728 -14.486406 0.722 153 153 153
4.168363 -14.405502 0.722 153 153 153
4.197863 -14.702238 0.721 153 153 153
4.193117 -14.090397 0.723 153 153 153
4.144361 -14.562744 0.722 153 153 153
4.260408 -13.945111 0.723 153 153 153
4.460576 -14.146988 0.722 153 153 153
4.35973 -14.234774 0.722 153 153 153
3.937172 -14.520026 0.723 153 153 153
4.152796 -14.394203 0.722 153 153 153
4.403169 -14.050399 0.722 153 153 153
4.060335 -14.320158 0.723 153 153 153
4.105399 -14.216296 0.723 153 153 153
4.214619 -14.321328 0.722 153 153 153
4.601248 -14.055928 0.722 153 153 153
3.938143 -14.80447 0.722 153 153 153
4.516471 -14.206894 0.721 153 153 153
4.154345 -14.366935 0.722 153 153 153
3.727687 -14.838651 0.722 153 153 153
4.912278 -14.205426 0.72 153 153 153
4.268394 -14.425046 0.722 153 153 153
4.067475 -14.616723 0.722 153 153 153
3.999012 -14.444916 0.723 153 153 153
3.983436 -14.788266 0.721 153 153 153
4.199922 -14.136512 0.723 153 153 153
4.477407 -14.345237 0.721 153 153 153
3.947189 -14.791122 0.722 153 153 153
4.805539 -14.185833 0.72 153 153 153
3.801382 -14.733665 0.722 153 153 153
4.045068 -14.799468 0.721 153 153 153
4.034864 -14.552969 0.722 153 153 153
4.270837 -14.33875 0.722 153 153 153
4.664595 -14.31267 0.721 153 153 153
4.642031 -14.103642 0.721 153 153 153
3.998074 -14.627377 0.722 153 153 153
4.415689 -14.345216 0.721 153 153 153
3.785988 -14.876213 0.722 153 153 153
4.465968 -14.438173 0.721 153 153 153
4.471569 -14.171669 0.722 153 153 153
4.484951 -14.176244 0.722 153 153 153
4.527867 -14.47308 0.72 153 153 153
4.156563 -14.369188 0.722 153 153 153
4.699781 -14.096031 0.721 153 153 153
4.564568 -14.469333 0.72 153 153 153
4.156818 -14.099959 0.723 153 153 153
4.222129 -14.156806 0.723 153 153 153
4.363222 -14.305015 0.722 153 153 153
3.907598 -14.527405 0.723 153 153 153
4.557903 -14.11016 0.722 153 153 153
4.438414 -14.415156 0.721 153 153 153
4.115658 -14.160916 0.723 153 153 153
3.716715 -14.987941 0.722 153 153 153
4.345236 -14.023126 0.723 153 153 153
4.929326 -14.1984 0.72 153 153 153
4.174078 -14.418516 0.722 153 153 153
4.39095 -14.246191 0.722 153 153 153
4.161473 -14.370567 0.722 153 153 153
4.554484 -14.207182 0.721 153 153 153
4.168927 -14.272234 0.722 153 153 153
4.554525 -14.083748 0.722 153 153 153
4.119641 -14.402002 0.722 153 153 153
3.84552 -14.633821 0.722 153 153 153
4.695533 -14.243136 0.721 153 153 153
4.369137 -14.586365 0.721 153 153 153
4.355385 -14.571502 0.721 153 153 153
3.973937 -14.566817 0.722 153 153 153
4.524461 -14.155971 0.722 153 153 153
4.722442 -14.351122 0.72 153 153 153
4.185619 -14.076475 0.723 153 153 153
4.581888 -14.190843 0.721 153 153 153
3.657331 -15.034001 0.722 153 153 153
4.20615 -14.258653 0.722 153 153 153
4.071591 -14.428024 0.722 153 153 153
4.069613 -14.334986 0.723 153 153 153
4.383443 -14.586921 0.721 153 153 153
3.981731 -14.659452 0.722 153 153 153
4.309295 -14.457109 0.721 153 153 153
4.854596 -14.204094 0.72 153 153 153
3.658091 -14.992863 0.722 153 153 153
4.067225 -14.355093 0.723 153 153 153
4.23462 -14.160926 0.723 153 153 153
3.91793 -14.874979 0.721 153 153 153
3.916696 -14.507349 0.723 153 153 153
4.288174 -14.058023 0.723 153 153 153
4.019025 -14.813134 0.721 153 153 153
4.730932 -14.116393 0.721 153 153 153
4.325681 -14.3016 0.722 153 153 153
4.577598 -14.461383 0.72 153 153 153
4.459799 -14.190364 0.722 153 153 153
3.875925 -14.752567 0.722 153 153 153
3.999267 -14.647063 0.722 153 153 153
4.497653 -14.505946 0.72 153 153 153
4.296773 -14.633669 0.721 153 153 153
4.470813 -14.389016 0.721 153 153 153
3.981379 -14.41124 0.723 153 153 153
3.764753 -14.904675 0.722 153 153 153
3.779896 -14.736184 0.722 153 153 153
4.861303 -14.204145 0.72 153 153 153
3.667879 -14.940612 0.722 153 153 153
4.11578 -14.557161 0.722 153 153 153
4.315863 -14.063152 0.723 153 153 153
4.064102 -14.530829 0.722 153 153 153
4.004773 -14.746389 0.722 153 153 153
4.278759 -14.29677 0.722 153 153 153
4.175287 -14.200278 0.723 153 153 153
3.81725 -14.764196 0.722 153 153 153
4.283236 -14.001636 0.723 153 153 153
4.527655 -14.383186 0.721 153 153 153
4.381803 -14.037267 0.722 153 153 153
4.855062 -14.260448 0.72 153 153 153
4.798542 -14.223793 0.72 153 153 153
4.097612 -14.476075 0.722 153 153 153
4.582656 -14.030742 0.722 153 153 153
4.762181 -14.18282 0.721 153 153 153
4.795063 -14.210797 0.72 153 153 153
4.399469 -14.537848 0.721 153 153 153
4.314463 -14.129779 0.722 153 153 153
4.132116 -14.17267 0.723 153 153 153
4.231998 -13.917168 0.723 153 153 153
4.355271 -14.056296 0.722 153 153 153
4.773276 -14.194084 0.72 153 153 153
4.579202 -14.367924 0.721 153 153 153
4.381344 -14.333327 0.721 153 153 153
4.092135 -14.667447 0.721 153 153 153
4.42471 -14.217379 0.722 153 153 153
3.952522 -14.500913 0.723 153 153 153
4.157895 -14.311506 0.722 153 153 153
3.870855 -14.890274 0.722 153 153 153
4.352445 -14.075058 0.722 153 153 153
4.500675 -14.343626 0.721 153 153 153
4.124597 -14.691843 0.721 153 153 153
4.544215 -14.145835 0.721 153 153 153
4.739482 -14.22737 0.721 153 153 153
4.055209 -14.524054 0.722 153 153 153
4.385972 -14.253756 0.722 153 153 153
4.386532 -14.179968 0.722 153 153 153
4.602975 -14.358713 0.721 153 153 153
4.186972 -14.192764 0.723 153 153 153
4.17499 -14.592941 0.721 153 153 153
4.588881 -14.212363 0.721 153 153 153
4.319143 -14.0435 0.723 153 153 153
3.976385 -14.42104 0.723 153 153 153
4.617626 -14.255068 0.721 153 153 153
3.76592 -14.809872 0.722 153 153 153
4.499351 -14.046657 0.722 153 153 153
4.333462 -14.336989 0.722 153 153 153
3.941012 -14.662273 0.722 153 153 153
4.58784 -14.40824 0.72 153 153 153
4.747662 -14.328058 0.72 153 153 153
3.73322 -14.816779 0.722 153 153 153
4.317675 -14.11907 0.722 153 153 153
4.325991 -14.437558 0.721 153 153 153
4.185869 -14.338105 0.722 153 153 153
4.426415 -14.346191 0.721 153 153 153
4.692479 -14.17424 0.721 153 153 153
4.27035 -14.108424 0.723 153 153 153
4.434885 -14.408868 0.721 153 153 153
4.036715 -14.309244 0.723 153 153 153
4.277664 -14.558837 0.721 153 153 153
4.876298 -14.231987 0.72 153 153 153
4.449693 -13.989929 0.722 153 153 153
4.516624 -14.186769 0.721 153 153 153
4.23417 -14.338023 0.722 153 153 153
4.545492 -14.39003 0.721 153 153 153
4.613782 -14.40799 0.72 153 153 153
4.973422 -14.22199 0.72 153 153 153
4.255651 -14.394985 0.722 153 153 153
4.463949 -13.997192 0.722 153 153 153
4.734241 -14.151749 0.721 153 153 153
4.631742 -14.339701 0.721 153 153 153
4.568124 -14.354423 0.721 153 153 153
4.000548 -14.360401 0.723 153 153 153
4.436679 -14.231333 0.722 153 153 153
4.103117 -14.163506 0.723 153 153 153
4.176424 -14.521843 0.722 153 153 153
4.444783 -13.98855 0.722 153 153 153
4.219346 -14.287822 0.722 153 153 153
4.419674 -14.114924 0.722 153 153 153
4.11764 -14.194474 0.723 153 153 153
4.250543 -14.596645 0.721 153 153 153
4.210104 -14.20904 0.723 153 153 153
4.334077 -14.4327 0.721 153 153 153
4.039909 -14.300772 0.723 153 153 153
4.591888 -14.228486 0.721 153 153 153
4.260637 -14.268458 0.722 153 153 153
4.402685 -14.231969 0.722 153 153 153
3.71943 -14.865869 0.722 153 153 153
4.311434 -13.939685 0.723 153 153 153
4.470588 -14.477565 0.721 153 153 153
4.398044 -14.254295 0.722 153 153 153
4.524647 -14.367063 0.721 153 153 153
4.189522 -14.504948 0.722 153 153 153
4.378577 -14.226418 0.722 153 153 153
4.599993 -14.221392 0.721 153 153 153
4.726151 -14.216088 0.721 153 153 153
4.112463 -14.169391 0.723 153 153 153
4.101215 -14.649626 0.721 153 153 153
4.213133 -14.634823 0.721 153 153 153
4.92936 -14.193929 0.72 153 153 153
3.795985 -14.737649 0.722 153 153 153
3.75006 -14.896066 0.722 153 153 153
3.967305 -14.438861 0.723 153 153 153
4.2947 -14.258878 0.722 153 153 153
4.370621 -14.27287 0.722 153 153 153
4.030057 -14.538174 0.722 153 153 153
3.79562 -14.903566 0.722 153 153 153
4.399541 -14.233734 0.722 153 153 153
4.350396 -14.050446 0.723 153 153 153
4.716875 -14.377466 0.72 153 153 153
4.126282 -14.646686 0.721 153 153 153
4.469256 -14.535247 0.72 153 153 153
4.028894 -14.809184 0.721 153 153 153
4.38301 -14.526094 0.721 153 153 153
4.25384 -14.103379 0.723 153 153 153
4.305078 -14.187847 0.722 153 153 153
4.553456 -14.224617 0.721 153 153 153
4.653474 -14.422603 0.72 153 153 153
3.951135 -14.624784 0.722 153 153 153
4.255253 -14.329687 0.722 153 153 153
3.993866 -14.710528 0.722 153 153 153
4.335316 -14.269472 0.722 153 153 153
4.33255 -14.398252 0.721 153 153 153
4.073704 -14.738863 0.721 153 153 153
4.067955 -14.258945 0.723 153 153 153
4.490887 -14.160188 0.722 153 153 153
3.76533 -14.82865 0.722 153 153 153
3.996267 -14.511978 0.722 153 153 153
4.711763 -14.167232 0.721 153 153 153
4.641657 -14.388524 0.72 153 153 153
3.805205 -14.878148 0.722 153 153 153
4.70079 -14.316522 0.72 153 153 153
4.222239 -14.495805 0.722 153 153 153
4.791309 -14.293059 0.72 153 153 153
4.37391 -14.134255 0.722 153 153 153
4.463995 -14.049966 0.722 153 153 153
4.299685 -14.13235 0.722 153 153 153
4.43659 -14.066305 0.722 153 153 153
4.384254 -14.303385 0.722 153 153 153
4.126999 -14.728981 0.721 153 153 153
3.914511 -14.736312 0.722 153 153 153
4.344235 -14.15505 0.722 153 153 153
4.74369 -14.144218 0.721 153 153 153
3.642621 -15.027629 0.722 153 153 153
4.306655 -14.451275 0.721 153 153 153
4.380325 -14.2318 0.722 153 153 153
3.756921 -14.875992 0.722 153 153 153
3.796325 -14.692929 0.722 153 153 153
4.76129 -14.182366 0.721 153 153 153
4.660628 -14.305037 0.721 153 153 153
4.266815 -14.161617 0.722 153 153 153
4.059134 -14.419433 0.722 153 153 153
4.334544 -14.017677 0.723 153 153 153
4.303995 -14.507158 0.721 153 153 153
4.613638 -14.309152 0.721 153 153 153
4.683052 -14.120054 0.721 153 153 153
4.24678 -14.326492 0.722 153 153 153
4.794686 -14.31947 0.72 153 153 153
4.281474 -14.646075 0.721 153 153 153
4.030447 -14.722434 0.721 153 153 153
4.255003 -14.068057 0.723 153 153 153
4.291598 -14.372896 0.722 153 153 153
3.848627 -14.696009 0.722 153 153 153
4.406389 -14.156416 0.722 153 153 153
4.354774 -14.180621 0.722 153 153 153
4.755078 -14.293677 0.72 153 153 153
4.31988 -14.535454 0.721 153 153 153
4.122246 -14.412309 0.722 153 153 153
4.467202 -14.334427 0.721 153 153 153
3.885972 -14.607295 0.722 153 153 153
4.218123 -14.684503 0.721 153 153 153
4.019802 -14.769759 0.721 153 153 153
4.298972 -14.226262 0.722 153 153 153
4.226571 -14.337519 0.722 153 153 153
4.482855 -14.098858 0.722 153 153 153
4.175224 -14.149741 0.723 153 153 153
4.41555 -14.422585 0.721 153 153 153
4.241617 -14.122965 0.723 153 153 153
3.980882 -14.535564 0.722 153 153 153
4.003899 -14.743699 0.722 153 153 153
4.602835 -14.436082 0.72 153 153 153
3.907709 -14.630715 0.722 153 153 153
3.757816 -14.816965 0.722 153 153 153
4.362263 -14.313504 0.722 153 153 153
4.273764 -14.54226 0.721 153 153 153
4.413713 -14.252177 0.722 153 153 153
4.373303 -14.155271 0.722 153 153 153
4.561135 -14.273422 0.721 153 153 153
4.723015 -14.098891 0.721 153 153 153
4.24017 -14.372506 0.722 153 153 153
4.373256 -14.573874 0.721 153 153 153
4.265512 -14.509996 0.721 153 153 153
4.252364 -14.062223 0.723 153 153 153
4.41277 -14.494121 0.721 153 153 153
4.487289 -14.162844 0.722 153 153 153
4.132735 -14.444589 0.722 153 153 153
4.411387 -14.55851 0.721 153 153 153
3.961713 -14.586403 0.722 153 153 153
3.873351 -14.561582 0.723 153 153 153
4.896307 -14.18831 0.72 153 153 153
4.22607 -14.521326 0.721 153 153 153
4.563317 -14.339628 0.721 153 153 153
4.206982 -14.149088 0.723 153 153 153
4.127784 -14.330956 0.722 153 153 153
4.320466 -14.576157 0.721 153 153 153
4.462981 -14.360333 0.721 153 153 153
4.426017 -14.516582 0.721 153 153 153
3.937452 -14.600977 0.722 153 153 153
4.162317 -14.08256 0.723 153 153 153
4.245235 -14.529968 0.721 153 153 153
4.882904 -14.245453 0.72 153 153 153
3.706061 -14.91854 0.722 153 153 153
4.389714 -14.585627 0.721 153 153 153
4.617036 -14.273847 0.721 153 153 153
4.261113 -13.97016 0.723 153 153 153
4.902693 -14.230846 0.72 153 153 153
4.761664 -14.133174 0.721 153 153 153
4.487136 -14.182968 0.722 153 153 153
3.770362 -14.754896 0.722 153 153 153
4.40958 -14.443112 0.721 153 153 153
4.445717 -14.336946 0.721 153 153 153
4.251074 -13.996471 0.723 153 153 153
4.515767 -14.417532 0.721 153 153 153
3.986737 -14.471208 0.722 153 153 153
4.856802 -14.149102 0.72 153 153 153
4.217725 -14.383516 0.722 153 153 153
3.931707 -14.532954 0.722 153 153 153
4.068358 -14.50045 0.722 153 153 153
3.785378 -14.956709 0.722 153 153 153
4.145969 -14.174116 0.723 153 153 153
3.68511 -14.968471 0.722 153 153 153
4.079182 -14.311803 0.723 153 153 153
4.232902 -14.681931 0.721 153 153 153
3.892282 -14.777736 0.722 153 153 153
4.514995 -14.401425 0.721 153 153 153
4.093144 -14.652247 0.721 153 153 153
4.321026 -14.26668 0.722 153 153 153
4.180485 -14.635022 0.721 153 153 153
3.762767 -14.930598 0.722 153 153 153
3.959528 -14.579678 0.722 153 153 153
4.427986 -14.021517 0.722 153 153 153
4.345123 -13.979297 0.723 153 153 153
4.091329 -14.184436 0.723 153 153 153
3.802888 -14.82983 0.722 153 153 153
4.688316 -14.310165 0.72 153 153 153
4.429822 -14.427613 0.721 153 153 153
4.919741 -14.223819 0.72 153 153 153
4.31907 -14.583302 0.721 153 153 153
4.374173 -14.217442 0.722 153 153 153
3.890785 -14.562608 0.723 153 153 153
4.333115 -14.029294 0.723 153 153 153
3.810597 -14.697957 0.722 153 153 153
4.746151 -14.291374 0.72 153 153 153
3.99031 -14.825438 0.721 153 153 153
3.780065 -14.949513 0.722 153 153 153
4.170938 -14.125112 0.723 153 153 153
4.218149 -14.563305 0.721 153 153 153
4.781185 -14.330548 0.72 153 153 153
3.890979 -14.654738 0.722 153 153 153
3.961708 -14.410195 0.723 153 153 153
4.301671 -14.106426 0.723 153 153 153
4.416187 -13.985203 0.722 153 153 153
4.488133 -14.110524 0.722 153 153 153
4.333658 -13.957743 0.723 153 153 153
4.080051 -14.373974 0.722 153 153 153
3.730726 -14.909782 0.722 153 153 153
4.448173 -14.543584 0.721 153 153 153
4.000454 -14.726232 0.722 153 153 153
4.161532 -14.244897 0.723 153 153 153
4.314047 -14.066716 0.723 153 153 153
4.250225 -14.34396 0.722 153 153 153
4.833398 -14.168602 0.72 153 153 153
4.164239 -14.477475 0.722 153 153 153
3.981078 -14.392006 0.723 153 153 153
4.708398 -14.198064 0.721 153 153 153
4.13139 -14.680714 0.721 153 153 153
4.08524 -14.220614 0.723 153 153 153
4.651191 -14.369813 0.72 153 153 153
3.964458 -14.755028 0.722 153 153 153
4.89543 -14.245102 0.72 153 153 153
3.707741 -14.932864 0.722 153 153 153
4.605291 -14.407031 0.72 153 153 153
4.398931 -14.31423 0.721 153 153 153
4.204168 -14.460783 0.722 153 153 153
4.37935 -14.242525 0.722 153 153 153
4.595613 -14.326904 0.721 153 153 153
4.066775 -14.767879 0.721 153 153 153
4.597167 -14.240153 0.721 153 153 153
4.642582 -14.384505 0.72 153 153 153
4.851532 -14.25416 0.72 153 153 153
4.639286 -14.406394 0.72 153 153 153
4.182508 -14.309456 0.722 153 153 153
3.953423 -14.618093 0.722 153 153 153
4.775215 -14.115388 0.721 153 153 153
4.420234 -14.041136 0.722 153 153 153
4.67709 -14.257308 0.721 153 153 153
4.188143 -14.274169 0.722 153 153 153
4.09836 -14.37769 0.722 153 153 153
4.38125 -13.992092 0.723 153 153 153
4.945143 -14.235641 0.72 153 153 153
3.74538 -14.982345 0.722 153 153 153
4.12444 -14.53576 0.722 153 153 153
4.054789 -14.284784 0.723 153 153 153
4.544593 -14.27285 0.721 153 153 153
4.132031 -14.18385 0.723 153 153 153
4.020277 -14.707151 0.722 153 153 153
4.042044 -14.314204 0.723 153 153 153
4.372013 -14.325207 0.722 153 153 153
4.856174 -14.231833 0.72 153 153 153
4.259105 -14.52918 0.721 153 153 153
4.208836 -14.317259 0.722 153 153 153
4.543779 -14.144489 0.722 153 153 153
4.232163 -14.661354 0.721 153 153 153
4.820419 -14.169846 0.72 153 153 153
4.617571 -14.321257 0.721 153 153 153
4.33078 -14.454589 0.721 153 153 153
4.322045 -14.13252 0.722 153 153 153
4.717397 -14.367632 0.72 153 153 153
4.238061 -14.473563 0.722 153 153 153
4.20276 -14.646372 0.721 153 153 153
3.73818 -14.81145 0.722 153 153 153
4.31754 -14.136958 0.722 153 153 153
4.436107 -14.012187 0.722 153 153 153
4.285102 -13.991363 0.723 153 153 153
4.45679 -14.409928 0.721 153 153 153
3.888374 -14.880121 0.722 153 153 153
4.309389 -14.091279 0.723 153 153 153
4.333467 -14.277508 0.722 153 153 153
4.295599 -14.140369 0.722 153 153 153
3.877181 -14.587103 0.723 153 153 153
3.828507 -14.872064 0.722 153 153 153
4.203786 -14.628939 0.721 153 153 153
4.623774 -14.093218 0.721 153 153 153
4.047657 -14.340632 0.723 153 153 153
4.635179 -14.240442 0.721 153 153 153
4.34909 -13.986929 0.723 153 153 153
4.371941 -14.157944 0.722 153 153 153
3.763255 -14.925236 0.722 153 153 153
4.167137 -14.390288 0.722 153 153 153
4.074965 -14.278229 0.723 153 153 153
4.929847 -14.188565 0.72 153 153 153
3.78035 -14.735293 0.722 153 153 153
4.146185 -14.675907 0.721 153 153 153
4.3321 -14.339663 0.722 153 153 153
4.659266 -14.072021 0.721 153 153 153
4.496992 -14.121773 0.722 153 153 153
4.369799 -14.263473 0.722 153 153 153
4.916669 -14.157159 0.72 153 153 153
4.450328 -14.023924 0.722 153 153 153
4.545111 -14.086807 0.722 153 153 153
4.444584 -14.191589 0.722 153 153 153
4.158018 -14.707749 0.721 153 153 153
4.077272 -14.209821 0.723 153 153 153
4.185691 -14.00805 0.723 153 153 153
4.761481 -14.098289 0.721 153 153 153
4.481666 -14.491065 0.721 153 153 153
4.465467 -14.386292 0.721 153 153 153
3.992143 -14.583951 0.722 153 153 153
4.58482 -14.334872 0.721 153 153 153
3.992499 -14.772683 0.721 153 153 153
4.122226 -14.474026 0.722 153 153 153
4.685551 -14.203258 0.721 153 153 153
4.117317 -14.472647 0.722 153 153 153
4.570644 -14.140221 0.721 153 153 153
3.918482 -14.684464 0.722 153 153 153
4.576589 -14.240892 0.721 153 153 153
4.148663 -14.585139 0.722 153 153 153
4.759398 -14.313837 0.72 153 153 153
4.263544 -14.297997 0.722 153 153 153
3.866472 -14.583891 0.723 153 153 153
4.127445 -14.139987 0.723 153 153 153
4.416861 -14.190932 0.722 153 153 153
4.288535 -14.422963 0.722 153 153 153
4.13423 -14.24782 0.723 153 153 153
4.754531 -14.189023 0.721 153 153 153
4.410564 -14.077736 0.722 153 153 153
4.415791 -14.096112 0.722 153 153 153
4.037881 -14.45013 0.722 153 153 153
4.111852 -14.249887 0.723 153 153 153
4.073644 -14.628844 0.722 153 153 153
4.06821 -14.225405 0.723 153 153 153
3.822418 -14.908243 0.722 153 153 153
4.354834 -14.054951 0.722 153 153 153
4.237403 -14.501287 0.721 153 153 153
4.584654 -14.297751 0.721 153 153 153
3.763832 -14.849212 0.722 153 153 153
4.239185 -14.266505 0.722 153 153 153
4.117253 -14.186421 0.723 153 153 153
3.87419 -14.804432 0.722 153 153 153
4.351711 -13.995 0.723 153 153 153
4.556495 -14.06006 0.722 153 153 153
4.029268 -14.759992 0.721 153 153 153
4.172432 -14.635408 0.721 153 153 153
4.130457 -14.332318 0.722 153 153 153
4.040512 -14.574926 0.722 153 153 153
3.907951 -14.53993 0.723 153 153 153
4.657161 -14.113598 0.721 153 153 153
3.864936 -14.904093 0.722 153 153 153
4.056028 -14.592933 0.722 153 153 153
4.32154 -14.14012 0.722 153 153 153
4.443081 -14.50732 0.721 153 153 153
4.545667 -14.0725 0.722 153 153 153
4.640233 -14.340659 0.721 153 153 153
4.540486 -14.342587 0.721 153 153 153
4.626324 -14.169713 0.721 153 153 153
4.290596 -14.504821 0.721 153 153 153
4.362959 -14.221828 0.722 153 153 153
4.731106 -14.270241 0.72 153 153 153
4.62847 -14.240392 0.721 153 153 153
4.165359 -14.329899 0.722 153 153 153
4.807635 -14.263218 0.72 153 153 153
4.210207 -14.431313 0.722 153 153 153
4.435551 -14.262183 0.722 153 153 153
4.71114 -14.190483 0.721 153 153 153
4.233157 -13.941326 0.723 153 153 153
4.390809 -14.559249 0.721 153 153 153
