ply
format ascii 1.0
element vertex 1417
property double x
property double y
property double z
property uchar red
property uchar green
property uchar blue
element face 0
property list uchar int vertex_indices
end_header
1.067949 -19.032227 0.166 84 84 0
1.0886 -18.963064 0.279 84 84 0
0.9845 -19.184992 0.349 84 84 0
0.943488 -19.285307 0.315 84 84 0
1.034404 -19.091454 0.257 84 84 0
1.101714 -18.943932 0.219 84 84 0
1.051724 -19.048653 0.265 84 84 0
1.097073 -18.966259 0.167 84 84 0
0.981844 -19.181395 0.404 84 84 0
1.017874 -19.148127 0.155 84 84 0
1.088447 -18.983189 0.18 84 84 0
0.903049 -19.369078 0.361 84 84 0
1.128097 -18.885548 0.215 84 84 0
1.039313 -19.092833 0.186 84 84 0
1.072608 -19.007666 0.236 84 84 0
1.000758 -19.164097 0.275 84 84 0
1.062989 -19.037556 0.197 84 84 0
1.001951 -19.183784 0.151 84 84 0
1.081722 -18.985373 0.242 84 84 0
1.006508 -19.172636 0.154 84 84 0
0.810605 -19.528484 0.619 84 84 0
1.105397 -18.930098 0.253 84 84 0
1.004742 -19.169493 0.197 84 84 0
0.984835 -19.199753 0.275 84 84 0
0.905069 -19.338682 0.493 84 84 0
1.053524 -19.047323 0.254 84 84 0
1.129391 -18.891817 0.166 84 84 0
1.044075 -19.054855 0.323 84 84 0
0.988165 -19.173393 0.377 84 84 0
1.046192 -19.070524 0.225 84 84 0
0.984011 -19.190355 0.331 84 84 0
0.910516 -19.327991 0.479 84 84 0
1.044427 -19.067379 0.261 84 84 0
1.144003 -18.852125 0.2 84 84 0
0.863267 -19.425127 0.533 84 84 0
0.995294 -19.177025 0.263 84 84 0
1.051185 -19.060722 0.209 84 84 0
1.005786 -19.149824 0.289 84 84 0
1.102402 -18.971218 0.064 84 84 0
1.062853 -19.055445 0.097 84 84 0
1.110624 -18.948473 0.091 84 84 0
1.059709 -19.057209 0.123 84 84 0
1.074657 -19.032278 0.081 84 84 0
1.033765 -19.11694 0.122 84 84 0
1.166147 -18.82188 0.088 84 84 0
1.056515 -19.065681 0.116 84 84 0
1.109296 -18.946674 0.117 84 84 0
1.194834 -18.754568 0.107 84 84 0
1.13245 -18.901232 0.081 84 84 0
1.054227 -19.072372 0.117 84 84 0
1.084225 -19.009094 0.084 84 84 0
1.077449 -19.017988 0.122 84 84 0
1.079282 -19.01219 0.127 84 84 0
1.107027 -18.951128 0.119 84 84 0
1.129272 -18.907469 0.079 84 84 0
1.146558 -18.869139 0.077 84 84 0
1.013755 -19.160616 0.135 84 84 0
1.084259 -19.004623 0.105 84 84 0
1.127438 -18.913269 0.065 84 84 0
1.141598 -18.874468 0.114 84 84 0
1.073347 -19.028242 0.111 84 84 0
1.101057 -18.971655 0.08 84 84 0
1.092902 -18.985458 0.101 84 84 0
1.198919 -18.74655 0.102 84 84 0
1.058297 -19.066589 0.091 84 84 0
1.128834 -18.906124 0.103 84 84 0
1.064669 -19.05188 0.091 84 84 0
1.175698 -18.800936 0.089 84 84 0
1.13519 -18.89365 0.089 84 84 0
1.086512 -19.002403 0.09 84 84 0
1.133846 -18.894087 0.105 84 84 0
1.090632 -18.989912 0.109 84 84 0
1.125674 -18.910126 0.114 84 84 0
1.173899 -18.802261 0.101 84 84 0
1.145213 -18.869576 0.095 84 84 0
1.173444 -18.803154 0.109 84 84 0
1.074237 -19.028696 0.106 84 84 0
1.150711 -18.852175 0.118 84 84 0
1.07153 -19.031809 0.12 84 84 0
1.16433 -18.825447 0.096 84 84 0
1.144287 -18.873594 0.075 84 84 0
1.129254 -18.909706 0.068 84 84 0
1.179818 -18.788445 0.113 84 84 0
1.02877 -19.126743 0.126 84 84 0
1.16845 -18.812956 0.113 84 84 0
1.095608 -18.982347 0.084 84 84 0
1.064669 -19.05188 0.093 84 84 0
1.122865 -18.926651 0.06 84 84 0
1.115584 -18.943144 0.059 84 84 0
1.131525 -18.905251 0.065 84 84 0
1.058331 -19.062119 0.115 84 84 0
1.102419 -18.968983 0.083 84 84 0
1.026937 -19.132542 0.124 84 84 0
1.061491 -19.058117 0.1 84 84 0
1.15024 -18.855303 0.112 84 84 0
1.019656 -19.149035 0.128 84 84 0
1.131559 -18.900778 0.087 84 84 0
1.128852 -18.903889 0.102 84 84 0
1.10558 -18.964981 0.054 84 84 0
1.100602 -18.972548 0.086 84 84 0
1.082409 -19.012659 0.086 84 84 0
1.134771 -18.89007 0.119 84 84 0
1.057859 -19.065245 0.113 84 84 0
1.086512 -19.002403 0.087 84 84 0
1.045568 -19.093775 0.101 84 84 0
1.202568 -18.737186 0.105 84 84 0
1.091052 -18.993494 0.084 84 84 0
1.097408 -18.98102 0.07 84 84 0
1.031023 -19.124523 0.119 84 84 0
1.176606 -18.799152 0.095 84 84 0
1.137478 -18.886959 0.089 84 84 0
1.014209 -19.159727 0.135 84 84 0
1.08831 -19.001076 0.077 84 84 0
1.212572 -18.715347 0.105 84 84 0
1.017387 -19.15349 0.126 84 84 0
1.117451 -18.932871 0.096 84 84 0
1.079265 -19.014423 0.126 84 84 0
1.1552 -18.849974 0.073 84 84 0
1.055573 -19.071936 0.091 84 84 0
1.118813 -18.930199 0.091 84 84 0
1.102384 -18.973455 0.059 84 84 0
1.133357 -18.89945 0.072 84 84 0
1.160212 -18.837936 0.086 84 84 0
1.13519 -18.89365 0.091 84 84 0
1.114727 -18.938217 0.093 84 84 0
1.148424 -18.858868 0.111 84 84 0
1.102015 -18.963165 0.114 84 84 0
1.103377 -18.960493 0.109 84 84 0
1.179818 -18.788445 0.11 84 84 0
1.126076 -18.915943 0.073 84 84 0
1.179818 -18.788445 0.111 84 84 0
1.095155 -18.983238 0.094 84 84 0
1.122898 -18.92218 0.083 84 84 0
1.209848 -18.720694 0.106 84 84 0
1.072858 -19.033606 0.093 84 84 0
1.148878 -18.857977 0.118 84 84 0
1.134283 -18.895432 0.086 84 84 0
1.172082 -18.805828 0.108 84 84 0
1.083754 -19.012222 0.07 84 84 0
1.176186 -18.79557 0.112 84 84 0
1.101074 -18.969421 0.089 84 84 0
1.130616 -18.907032 0.06 84 84 0
1.117014 -18.931526 0.106 84 84 0
1.067881 -19.041172 0.112 84 84 0
1.197103 -18.750114 0.104 84 84 0
1.144287 -18.873594 0.086 84 84 0
1.193 -18.760368 0.099 84 84 0
1.123336 -18.923525 0.065 84 84 0
1.051016 -19.083082 0.097 84 84 0
1.145683 -18.866449 0.099 84 84 0
1.130196 -18.903452 0.094 84 84 0
1.112002 -18.943563 0.108 84 84 0
1.206217 -18.727821 0.107 84 84 0
1.089218 -18.999294 0.072 84 84 0
1.165238 -18.823664 0.103 84 84 0
1.080122 -19.01935 0.076 84 84 0
1.152947 -18.852194 0.093 84 84 0
1.148844 -18.862448 0.091 84 84 0
1.189822 -18.766605 0.103 84 84 0
1.07242 -19.032261 0.113 84 84 0
1.054699 -19.069246 0.125 84 84 0
1.093775 -18.98815 0.085 84 84 0
1.092902 -18.985458 0.108 84 84 0
1.155705 -18.842375 0.107 84 84 0
1.04693 -19.091103 0.101 84 84 0
1.146574 -18.866903 0.096 84 84 0
1.079685 -19.018005 0.088 84 84 0
1.053303 -19.076391 0.099 84 84 0
1.137897 -18.890541 0.073 84 84 0
1.18661 -18.777313 0.089 84 84 0
1.037867 -19.106686 0.13 84 84 0
1.167997 -18.813845 0.11 84 84 0
1.139277 -18.885632 0.072 84 84 0
1.051941 -19.079063 0.099 84 84 0
1.179818 -18.788445 0.11 84 84 0
1.154763 -18.848629 0.09 84 84 0
1.039229 -19.104012 0.125 84 84 0
1.074725 -19.023335 0.121 84 84 0
1.111549 -18.944454 0.1 84 84 0
1.055153 -19.068356 0.122 84 84 0
1.138386 -18.885178 0.096 84 84 0
1.136099 -18.891869 0.083 84 84 0
1.11925 -18.931543 0.078 84 84 0
1.102889 -18.965857 0.085 84 84 0
1.036488 -19.111595 0.122 84 84 0
0.999647 -19.192709 0.134 84 84 0
1.085184 -19.000605 0.118 84 84 0
1.168434 -18.815189 0.107 84 84 0
1.079702 -19.015768 0.11 84 84 0
1.120226 -18.920818 0.121 84 84 0
1.09924 -18.975222 0.081 84 84 0
1.114222 -18.945816 0.058 84 84 0
1.088362 -18.994368 0.119 84 84 0
1.196195 -18.751896 0.112 84 84 0
1.117939 -18.927509 0.123 84 84 0
1.18392 -18.778189 0.108 84 84 0
1.071496 -19.03628 0.091 84 84 0
1.12337 -18.919052 0.091 84 84 0
1.173899 -18.802261 0.103 84 84 0
1.123858 -18.913689 0.116 84 84 0
1.057859 -19.065245 0.104 84 84 0
1.10605 -18.961855 0.078 84 84 0
1.058784 -19.061228 0.119 84 84 0
1.131559 -18.900778 0.089 84 84 0
1.102419 -18.968983 0.086 84 84 0
1.110658 -18.944 0.122 84 84 0
1.091506 -18.992603 0.091 84 84 0
1.141144 -18.875359 0.12 84 84 0
1.102436 -18.966747 0.085 84 84 0
1.146154 -18.863323 0.114 84 84 0
1.132938 -18.89587 0.098 84 84 0
1.117939 -18.927509 0.121 84 84 0
1.052848 -19.077284 0.097 84 84 0
1.110187 -18.947128 0.107 84 84 0
1.013755 -19.160616 0.13 84 84 0
1.101998 -18.965403 0.099 84 84 0
1.200735 -18.742987 0.099 84 84 0
1.067393 -19.046534 0.091 84 84 0
1.077415 -19.022459 0.093 84 84 0
1.106538 -18.956491 0.094 84 84 0
1.080156 -19.014877 0.112 84 84 0
1.137478 -18.886959 0.1 84 84 0
1.063324 -19.052317 0.115 84 84 0
1.140639 -18.882957 0.077 84 84 0
1.149786 -18.856194 0.107 84 84 0
1.094751 -18.977423 0.125 84 84 0
1.176606 -18.799152 0.095 84 84 0
1.096062 -18.981457 0.086 84 84 0
1.132921 -18.898106 0.089 84 84 0
1.071479 -19.038515 0.083 84 84 0
1.11471 -18.940454 0.085 84 84 0
1.064233 -19.050535 0.115 84 84 0
1.07834 -19.018442 0.114 84 84 0
1.149282 -18.863792 0.071 84 84 0
1.104688 -18.964527 0.067 84 84 0
1.041499 -19.099558 0.116 84 84 0
1.077432 -19.020224 0.105 84 84 0
1.181651 -18.782642 0.113 84 84 0
1.123352 -18.921289 0.082 84 84 0
1.116056 -18.940016 0.06 84 84 0
1.043298 -19.098228 0.103 84 84 0
1.088782 -18.99795 0.084 84 84 0
1.201206 -18.739859 0.111 84 84 0
1.075145 -19.026915 0.104 84 84 0
1.081484 -19.016676 0.083 84 84 0
1.186191 -18.773733 0.11 84 84 0
1.166584 -18.823227 0.088 84 84 0
1.070151 -19.036716 0.106 84 84 0
1.111986 -18.945799 0.091 84 84 0
1.068807 -19.037153 0.121 84 84 0
1.019202 -19.149925 0.12 84 84 0
1.056026 -19.071047 0.093 84 84 0
1.170232 -18.813864 0.094 84 84 0
1.091977 -18.989475 0.098 84 84 0
1.208941 -18.722475 0.111 84 84 0
1.210757 -18.71891 0.103 84 84 0
1.153872 -18.848175 0.108 84 84 0
1.088748 -19.00242 0.067 84 84 0
1.136099 -18.891869 0.081 84 84 0
1.205224 -18.740782 0.087 84 84 0
1.238247 -18.691391 0.07 84 84 0
1.228951 -18.678799 0.107 84 84 0
1.196547 -18.764421 0.08 84 84 0
1.148289 -18.876755 0.055 84 84 0
1.234279 -18.683758 0.088 84 84 0
1.169138 -18.840242 0.051 84 84 0
1.209997 -18.76005 0.053 84 84 0
1.237691 -18.705698 0.054 84 84 0
1.182962 -18.786678 0.084 84 84 0
1.24689 -18.672226 0.072 84 84 0
1.221801 -18.736883 0.054 84 84 0
1.246435 -18.673119 0.073 84 84 0
1.248791 -18.657482 0.087 84 84 0
1.173377 -18.812098 0.076 84 84 0
1.177395 -18.813023 0.066 84 84 0
1.271775 -18.634401 0.06 84 84 0
1.208686 -18.756016 0.06 84 84 0
1.160614 -18.843754 0.067 84 84 0
1.150189 -18.862011 0.068 84 84 0
1.272614 -18.641563 0.051 84 84 0
1.182304 -18.814402 0.051 84 84 0
1.206149 -18.736765 0.09 84 84 0
1.254051 -18.671387 0.059 84 84 0
1.282249 -18.609436 0.066 84 84 0
1.309422 -18.56492 0.056 84 84 0
1.224995 -18.728411 0.056 84 84 0
1.271405 -18.624113 0.074 84 84 0
1.265083 -18.632114 0.08 84 84 0
1.215496 -18.742651 0.062 84 84 0
1.240046 -18.690063 0.067 84 84 0
1.210218 -18.730982 0.087 84 84 0
1.312565 -18.563154 0.053 84 84 0
1.224525 -18.731539 0.052 84 84 0
1.244029 -18.695461 0.052 84 84 0
1.245124 -18.669083 0.082 84 84 0
1.232311 -18.707447 0.064 84 84 0
1.224275 -18.705597 0.086 84 84 0
1.233876 -18.677942 0.098 84 84 0
1.173377 -18.812098 0.075 84 84 0
1.195537 -18.779619 0.063 84 84 0
1.167339 -18.841568 0.053 84 84 0
1.236414 -18.697191 0.066 84 84 0
1.196161 -18.756369 0.091 84 84 0
1.256996 -18.636972 0.091 84 84 0
1.192478 -18.770205 0.083 84 84 0
1.203188 -18.773415 0.052 84 84 0
1.196394 -18.784544 0.055 84 84 0
1.175107 -18.819714 0.063 84 84 0
1.25913 -18.650406 0.071 84 84 0
1.275945 -18.615202 0.074 84 84 0
1.207023 -18.739456 0.085 84 84 0
1.170216 -18.816097 0.077 84 84 0
1.193654 -18.792126 0.053 84 84 0
1.241611 -18.660559 0.1 84 84 0
1.16201 -18.836609 0.072 84 84 0
1.276297 -18.627728 0.059 84 84 0
1.264176 -18.633896 0.08 84 84 0
1.236533 -18.68154 0.086 84 84 0
1.171913 -18.828186 0.06 84 84 0
1.282148 -18.622852 0.051 84 84 0
1.266274 -18.651802 0.052 84 84 0
1.238348 -18.677977 0.087 84 84 0
1.23344 -18.676596 0.099 84 84 0
1.220625 -18.714962 0.083 84 84 0
1.223871 -18.699781 0.095 84 84 0
1.20573 -18.733183 0.095 84 84 0
1.159168 -18.857607 0.054 84 84 0
1.146506 -18.875847 0.062 84 84 0
1.19796 -18.755039 0.086 84 84 0
1.179295 -18.798279 0.077 84 84 0
1.239779 -18.666359 0.097 84 84 0
1.272715 -18.628147 0.065 84 84 0
1.204197 -18.758217 0.07 84 84 0
1.271439 -18.61964 0.079 84 84 0
1.154258 -18.856228 0.066 84 84 0
1.243609 -18.691879 0.057 84 84 0
1.228764 -18.703396 0.078 84 84 0
1.144673 -18.881647 0.058 84 84 0
1.147886 -18.870937 0.063 84 84 0
1.199322 -18.752365 0.088 84 84 0
1.25047 -18.671806 0.065 84 84 0
1.162867 -18.841536 0.064 84 84 0
1.252473 -18.643646 0.095 84 84 0
1.264022 -18.654022 0.056 84 84 0
1.22508 -18.717232 0.07 84 84 0
1.261938 -18.633881 0.084 84 84 0
1.210133 -18.742163 0.075 84 84 0
1.237741 -18.698992 0.061 84 84 0
1.28852 -18.608143 0.053 84 84 0
1.268681 -18.629459 0.075 84 84 0
1.129675 -18.913288 0.055 84 84 0
1.239325 -18.66725 0.097 84 84 0
1.227351 -18.712776 0.07 84 84 0
1.227889 -18.700705 0.082 84 84 0
1.227571 -18.683708 0.105 84 84 0
1.206098 -18.743473 0.083 84 84 0
1.290824 -18.599215 0.058 84 84 0
1.197994 -18.750568 0.092 84 84 0
1.212891 -18.732344 0.08 84 84 0
1.175193 -18.808535 0.075 84 84 0
1.290875 -18.592506 0.067 84 84 0
1.221534 -18.713179 0.084 84 84 0
1.198363 -18.760857 0.08 84 84 0
1.166987 -18.829044 0.071 84 84 0
1.245494 -18.679371 0.066 84 84 0
1.252438 -18.648119 0.089 84 84 0
1.275843 -18.628618 0.058 84 84 0
1.149197 -18.874973 0.055 84 84 0
1.295415 -18.583597 0.067 84 84 0
1.306243 -18.571157 0.057 84 84 0
1.167475 -18.823681 0.075 84 84 0
1.249058 -18.681187 0.057 84 84 0
1.165205 -18.828136 0.075 84 84 0
1.243139 -18.695007 0.054 84 84 0
1.22377 -18.713196 0.079 84 84 0
1.123302 -18.927996 0.052 84 84 0
1.210099 -18.746634 0.069 84 84 0
1.193216 -18.790781 0.054 84 84 0
1.192343 -18.788092 0.06 84 84 0
1.240113 -18.68112 0.077 84 84 0
1.289412 -18.608597 0.052 84 84 0
1.255044 -18.658424 0.072 84 84 0
1.215717 -18.713583 0.096 84 84 0
1.21343 -18.720272 0.094 84 84 0
1.266899 -18.628551 0.078 84 84 0
1.267654 -18.646893 0.056 84 84 0
1.239489 -18.70437 0.051 84 84 0
1.221449 -18.72436 0.069 84 84 0
1.22394 -18.690836 0.103 84 84 0
1.1515 -18.866047 0.061 84 84 0
1.286739 -18.607235 0.06 84 84 0
1.219718 -18.716742 0.082 84 84 0
1.165138 -18.83708 0.064 84 84 0
1.20931 -18.732765 0.087 84 84 0
1.259533 -18.656223 0.064 84 84 0
1.266899 -18.628551 0.079 84 84 0
1.264192 -18.63166 0.083 84 84 0
1.348969 -18.480694 0.078 84 84 0
1.331633 -18.525734 0.057 84 84 0
1.363951 -18.451292 0.073 84 84 0
1.342563 -18.499876 0.059 84 84 0
1.347573 -18.487839 0.067 84 84 0
1.366237 -18.444599 0.076 84 84 0
1.360773 -18.457529 0.071 84 84 0
1.333465 -18.519932 0.059 84 84 0
1.36306 -18.450836 0.081 84 84 0
1.360841 -18.448584 0.097 84 84 0
1.360285 -18.462891 0.061 84 84 0
1.333919 -18.519041 0.059 84 84 0
1.348919 -18.487402 0.062 84 84 0
1.347557 -18.490076 0.057 84 84 0
1.352097 -18.481165 0.058 84 84 0
1.366255 -18.442364 0.085 84 84 0
1.369484 -18.429419 0.099 84 84 0
1.353997 -18.466421 0.089 84 84 0
1.354905 -18.46464 0.089 84 84 0
1.347557 -18.490076 0.062 84 84 0
1.344413 -18.49184 0.073 84 84 0
1.343941 -18.494968 0.068 84 84 0
1.348498 -18.483822 0.073 84 84 0
1.367633 -18.437454 0.086 84 84 0
1.348464 -18.488293 0.062 84 84 0
1.339385 -18.506113 0.067 84 84 0
1.342143 -18.496296 0.073 84 84 0
1.362555 -18.458437 0.058 84 84 0
1.348986 -18.478458 0.085 84 84 0
1.327529 -18.535988 0.052 84 84 0
1.357158 -18.46242 0.084 84 84 0
1.363514 -18.449945 0.079 84 84 0
1.339351 -18.510586 0.051 84 84 0
1.359427 -18.457966 0.08 84 84 0
0.736468 -19.691607 0.083 84 84 0
0.758731 -19.64571 0.098 84 84 0
0.736939 -19.688478 0.087 84 84 0
0.73598 -19.696968 0.077 84 84 0
0.747869 -19.662624 0.099 84 84 0
0.736116 -19.679081 0.101 84 84 0
0.747886 -19.660387 0.102 84 84 0
0.725289 -19.691521 0.107 84 84 0
0.752658 -19.679655 0.065 84 84 0
0.759922 -19.665398 0.071 84 84 0
0.748306 -19.663967 0.096 84 84 0
0.764077 -19.648434 0.083 84 84 0
0.741899 -19.683151 0.082 84 84 0
0.746252 -19.698835 0.053 84 84 0
0.734028 -19.718422 0.051 84 84 0
0.746927 -19.668879 0.091 84 84 0
0.763673 -19.642618 0.093 84 84 0
0.74052 -19.688059 0.078 84 84 0
0.729777 -19.68932 0.101 84 84 0
0.747631 -19.693928 0.057 84 84 0
0.737309 -19.698767 0.071 84 84 0
0.74237 -19.680023 0.087 84 84 0
0.764599 -19.638599 0.097 84 84 0
0.730197 -19.6929 0.095 84 84 0
0.764548 -19.645308 0.087 84 84 0
0.748692 -19.67202 0.085 84 84 0
0.735242 -19.676392 0.106 84 84 0
0.737058 -19.672827 0.107 84 84 0
0.753215 -19.665348 0.085 84 84 0
0.738199 -19.699221 0.07 84 84 0
0.747902 -19.658152 0.104 84 84 0
0.750826 -19.685453 0.062 84 84 0
0.749884 -19.691708 0.055 84 84 0
0.729272 -19.696918 0.09 84 84 0
0.747313 -19.676931 0.079 84 84 0
0.739125 -19.695204 0.073 84 84 0
0.751819 -19.672493 0.076 84 84 0
0.763623 -19.649324 0.083 84 84 0
0.758192 -19.657782 0.084 84 84 0
0.774064 -19.628834 0.09 84 84 0
0.781681 -19.627102 0.073 84 84 0
0.778553 -19.626631 0.083 84 84 0
0.783479 -19.625774 0.073 84 84 0
0.779444 -19.627085 0.079 84 84 0
0.783394 -19.636953 0.056 84 84 0
0.777192 -19.629303 0.081 84 84 0
0.776652 -19.641375 0.065 84 84 0
0.772079 -19.654757 0.059 84 84 0
0.774803 -19.64941 0.059 84 84 0
0.779326 -19.642738 0.056 84 84 0
0.775812 -19.634212 0.078 84 84 0
1.828734 -19.202135 0.383 84 84 0
1.811885 -19.24181 0.38 84 84 0
1.84775 -19.171421 0.377 84 84 0
1.927822 -18.992245 0.383 84 84 0
1.589663 -19.706581 0.384 84 84 0
1.876453 -19.10187 0.382 84 84 0
1.569233 -19.746675 0.385 84 84 0
1.617844 -19.646866 0.384 84 84 0
1.704641 -19.465504 0.382 84 84 0
1.744541 -19.393805 0.373 84 84 0
1.604679 -19.672705 0.385 84 84 0
1.814205 -19.230648 0.385 84 84 0
1.741767 -19.405857 0.369 84 84 0
1.855587 -19.140621 0.386 84 84 0
1.57833 -19.72662 0.387 84 84 0
1.563769 -19.759604 0.384 84 84 0
1.921466 -19.004719 0.383 84 84 0
1.600088 -19.688324 0.381 84 84 0
1.802737 -19.268574 0.374 84 84 0
1.684211 -19.505598 0.384 84 84 0
1.654567 -19.581402 0.374 84 84 0
1.732334 -19.411154 0.38 84 84 0
1.623796 -19.628576 0.388 84 84 0
1.835509 -19.193241 0.378 84 84 0
1.723119 -19.446861 0.368 84 84 0
1.790548 -19.283688 0.382 84 84 0
1.670138 -19.53322 0.386 84 84 0
1.667346 -19.54751 0.379 84 84 0
1.636508 -19.603628 0.386 84 84 0
1.850575 -19.152658 0.384 84 84 0
1.73827 -19.395098 0.381 84 84 0
1.63333 -19.609865 0.387 84 84 0
1.661443 -19.559093 0.38 84 84 0
1.816391 -19.237371 0.376 84 84 0
1.726501 -19.413792 0.386 84 84 0
1.676006 -19.526108 0.381 84 84 0
1.898329 -19.047924 0.387 84 84 0
1.818224 -19.231571 0.377 84 84 0
1.812826 -19.235556 0.384 84 84 0
1.703802 -19.458342 0.388 84 84 0
1.803259 -19.258739 0.38 84 84 0
1.818728 -19.223972 0.382 84 84 0
1.70274 -19.480247 0.374 84 84 0
1.758734 -19.350531 0.382 84 84 0
1.720883 -19.446844 0.372 84 84 0
1.730854 -19.429476 0.368 84 84 0
1.814205 -19.230648 0.383 84 84 0
1.656502 -19.562185 0.386 84 84 0
1.644142 -19.599659 0.379 84 84 0
1.734939 -19.421459 0.367 84 84 0
1.849599 -19.163385 0.378 84 84 0
1.782341 -19.304199 0.381 84 84 0
1.661427 -19.561329 0.379 84 84 0
1.636979 -19.6005 0.388 84 84 0
1.670036 -19.546637 0.376 84 84 0
1.630033 -19.631754 0.376 84 84 0
1.537891 -19.81039 0.388 84 84 0
1.781519 -19.2948 0.387 84 84 0
1.745971 -19.382185 0.378 84 84 0
1.768183 -19.342999 0.374 84 84 0
1.805478 -19.260992 0.376 84 84 0
1.594622 -19.701252 0.381 84 84 0
1.757372 -19.353203 0.383 84 84 0
1.753587 -19.380455 0.369 84 84 0
1.623309 -19.633938 0.385 84 84 0
1.630488 -19.630861 0.377 84 84 0
1.87193 -19.108545 0.385 84 84 0
1.708761 -19.453012 0.385 84 84 0
1.810574 -19.237776 0.384 84 84 0
1.787738 -19.300213 0.375 84 84 0
1.759676 -19.344276 0.385 84 84 0
1.725541 -19.422281 0.381 84 84 0
1.938752 -18.966387 0.385 84 84 0
1.851887 -19.156694 0.381 84 84 0
1.835947 -19.194586 0.377 84 84 0
1.772354 -19.323799 0.381 84 84 0
1.640038 -19.609915 0.377 84 84 0
1.855973 -19.148674 0.38 84 84 0
1.735411 -19.418331 0.369 84 84 0
1.704505 -19.483393 0.37 84 84 0
1.561464 -19.768532 0.383 84 84 0
1.639216 -19.600515 0.384 84 84 0
1.755085 -19.359894 0.381 84 84 0
1.665144 -19.54302 0.387 84 84 0
1.66965 -19.538582 0.382 84 84 0
1.878774 -19.090708 0.386 84 84 0
1.92604 -18.991337 0.387 84 84 0
1.863742 -19.126818 0.383 84 84 0
1.64875 -19.581804 0.383 84 84 0
1.909629 -19.032356 0.382 84 84 0
1.531064 -19.825991 0.387 84 84 0
1.635045 -19.619717 0.378 84 84 0
1.894176 -19.064886 0.381 84 84 0
1.766888 -19.336727 0.38 84 84 0
1.642763 -19.604568 0.376 84 84 0
1.898733 -19.05374 0.383 84 84 0
1.846405 -19.171858 0.377 84 84 0
1.836871 -19.190569 0.379 84 84 0
1.7228 -19.429865 0.379 84 84 0
1.848323 -19.154879 0.387 84 84 0
1.750494 -19.375511 0.377 84 84 0
1.699228 -19.471724 0.386 84 84 0
1.661376 -19.568037 0.374 84 84 0
1.869207 -19.113892 0.385 84 84 0
1.683303 -19.507381 0.385 84 84 0
1.600996 -19.686541 0.381 84 84 0
1.903289 -19.042595 0.383 84 84 0
1.645503 -19.596987 0.377 84 84 0
1.776894 -19.31489 0.381 84 84 0
1.805478 -19.260992 0.376 84 84 0
1.873241 -19.112581 0.38 84 84 0
1.844657 -19.166477 0.384 84 84 0
1.71224 -19.466007 0.37 84 84 0
1.728584 -19.433933 0.369 84 84 0
1.784089 -19.309578 0.373 84 84 0
1.568779 -19.747566 0.386 84 84 0
1.629261 -19.615648 0.388 84 84 0
1.932832 -18.980207 0.385 84 84 0
1.681788 -19.530178 0.371 84 84 0
1.734032 -19.423239 0.368 84 84 0
1.573319 -19.738655 0.385 84 84 0
1.716797 -19.454863 0.371 84 84 0
1.795909 -19.284176 0.375 84 84 0
1.790598 -19.276979 0.387 84 84 0
1.633785 -19.608973 0.387 84 84 0
1.761525 -19.336241 0.388 84 84 0
1.885516 -19.086287 0.38 84 84 0
1.902364 -19.046612 0.382 84 84 0
1.692684 -19.508795 0.37 84 84 0
1.802402 -19.253813 0.386 84 84 0
1.749654 -19.368349 0.384 84 84 0
1.822275 -19.228025 0.375 84 84 0
1.866415 -19.128181 0.379 84 84 0
1.725558 -19.420046 0.383 84 84 0
1.654248 -19.564405 0.387 84 84 0
1.858747 -19.136621 0.384 84 84 0
1.879177 -19.096525 0.382 84 84 0
1.886945 -19.074669 0.386 84 84 0
1.511071 -19.867434 0.388 84 84 0
1.865541 -19.125492 0.381 84 84 0
1.620534 -19.64599 0.381 84 84 0
1.88143 -19.094307 0.38 84 84 0
1.61243 -19.653086 0.388 84 84 0
1.845934 -19.174984 0.377 84 84 0
1.655156 -19.562624 0.387 84 84 0
1.843749 -19.168261 0.385 84 84 0
1.679234 -19.513165 0.387 84 84 0
1.704657 -19.463268 0.383 84 84 0
1.861505 -19.126802 0.058 84 84 0
1.858311 -19.135275 0.055 84 84 0
1.935374 -18.939976 0.058 84 84 0
1.899339 -19.032726 0.055 84 84 0
1.830969 -19.202152 0.058 84 84 0
1.813633 -19.24719 0.056 84 84 0
1.92214 -18.974758 0.058 84 84 0
1.903913 -19.019344 0.057 84 84 0
1.897506 -19.038525 0.054 84 84 0
1.873343 -19.099165 0.055 84 84 0
1.89569 -19.042089 0.055 84 84 0
1.834601 -19.195024 0.057 84 84 0
1.913935 -18.995268 0.057 84 84 0
1.83598 -19.190115 0.056 84 84 0
1.894799 -19.041636 0.058 84 84 0
1.883382 -19.072853 0.054 84 84 0
1.917363 -19.014973 0.258 84 84 0
1.89569 -19.042089 0.077 84 84 0
1.972198 -18.861095 0.15 84 84 0
1.930126 -18.983316 0.273 84 84 0
1.902921 -19.032305 0.138 84 84 0
1.911143 -19.009558 0.12 84 84 0
1.944454 -18.922155 0.087 84 84 0
1.955703 -18.913296 0.22 84 84 0
1.863776 -19.122347 0.066 84 84 0
1.875579 -19.099182 0.112 84 84 0
1.93672 -18.939539 0.084 84 84 0
1.905241 -19.021143 0.102 84 84 0
1.973612 -18.851715 0.1 84 84 0
1.921483 -19.002481 0.242 84 84 0
1.961604 -18.901712 0.244 84 84 0
1.946605 -18.933352 0.211 84 84 0
1.907443 -19.025631 0.161 84 84 0
1.92562 -18.987755 0.226 84 84 0
1.977494 -18.870529 0.308 84 84 0
1.971239 -18.869585 0.203 84 84 0
1.97154 -18.888819 0.326 84 84 0
1.916 -19.017647 0.255 84 84 0
1.849566 -19.167856 0.148 84 84 0
1.968045 -18.878059 0.204 84 84 0
1.972533 -18.875856 0.271 84 84 0
1.947077 -18.930225 0.196 84 84 0
1.865523 -19.127726 0.148 84 84 0
1.943342 -18.950769 0.266 84 84 0
1.95106 -18.935621 0.294 84 84 0
1.952019 -18.927132 0.25 84 84 0
1.940687 -18.94717 0.203 84 84 0
1.976756 -18.849949 0.154 84 84 0
1.959975 -18.88068 0.069 84 84 0
1.912539 -19.002413 0.081 84 84 0
1.887871 -19.070652 0.141 84 84 0
1.933371 -18.968136 0.22 84 84 0
1.917902 -19.002903 0.184 84 84 0
1.931692 -18.953812 0.096 84 84 0
1.975224 -18.874983 0.309 84 84 0
1.909713 -19.021175 0.18 84 84 0
1.914202 -19.018974 0.245 84 84 0
1.848641 -19.171875 0.151 84 84 0
1.831843 -19.204842 0.098 84 84 0
1.935743 -18.950264 0.136 84 84 0
1.931203 -18.959175 0.125 84 84 0
1.940754 -18.938227 0.136 84 84 0
1.961757 -18.881588 0.117 84 84 0
1.952206 -18.902536 0.088 84 84 0
1.91713 -18.986797 0.064 84 84 0
1.812237 -19.254335 0.092 84 84 0
1.909259 -19.022068 0.174 84 84 0
1.920223 -18.991737 0.151 84 84 0
1.910553 -19.028337 0.233 84 84 0
1.946707 -18.919937 0.121 84 84 0
1.937895 -18.96146 0.243 84 84 0
1.936635 -18.95072 0.162 84 84 0
1.803157 -19.272156 0.066 84 84 0
1.88412 -19.093431 0.227 84 84 0
1.967001 -18.897728 0.321 84 84 0
1.913396 -19.007339 0.134 84 84 0
1.819063 -19.238733 0.108 84 84 0
1.894193 -19.062651 0.197 84 84 0
1.908334 -19.026085 0.192 84 84 0
1.912488 -19.009121 0.147 84 84 0
1.978219 -18.83386 0.064 84 84 0
1.911075 -19.018501 0.173 84 84 0
1.927589 -18.964066 0.097 84 84 0
1.931726 -18.949339 0.066 84 84 0
1.932146 -18.952921 0.095 84 84 0
1.842772 -19.178986 0.101 84 84 0
1.958375 -18.914658 0.291 84 84 0
1.964362 -18.891895 0.221 84 84 0
1.810421 -19.257898 0.089 84 84 0
1.978152 -18.842804 0.127 84 84 0
1.958762 -18.92271 0.355 84 84 0
1.929876 -18.957375 0.073 84 84 0
1.958375 -18.914658 0.286 84 84 0
1.953568 -18.899862 0.088 84 84 0
1.897808 -19.057758 0.216 84 84 0
1.9649 -18.879824 0.161 84 84 0
1.961082 -18.911549 0.301 84 84 0
1.959958 -18.882917 0.09 84 84 0
1.910269 -19.00687 0.083 84 84 0
1.890191 -19.05949 0.105 84 84 0
1.961672 -18.892769 0.183 84 84 0
1.820425 -19.236061 0.114 84 84 0
1.827303 -19.213753 0.072 84 84 0
1.851937 -19.149986 0.063 84 84 0
1.923736 -19.000263 0.274 84 84 0
1.971053 -18.894182 0.364 84 84 0
1.932985 -18.960083 0.151 84 84 0
1.907375 -19.034575 0.235 84 84 0
1.912806 -19.026119 0.256 84 84 0
1.95207 -18.920424 0.221 84 84 0
1.888342 -19.067524 0.125 84 84 0
1.943529 -18.926174 0.103 84 84 0
1.97746 -18.875 0.347 84 84 0
1.802215 -19.278408 0.082 84 84 0
1.905661 -19.024723 0.134 84 84 0
1.973459 -18.871838 0.255 84 84 0
1.944823 -18.932444 0.178 84 84 0
1.952121 -18.913715 0.169 84 84 0
1.975291 -18.866039 0.238 84 84 0
1.948841 -18.933369 0.25 84 84 0
1.898716 -19.055977 0.224 84 84 0
1.856495 -19.13884 0.059 84 84 0
1.860564 -19.133055 0.086 84 84 0
1.918911 -18.987705 0.1 84 84 0
1.96359 -18.87579 0.097 84 84 0
1.965876 -18.869099 0.103 84 84 0
1.951633 -18.919079 0.196 84 84 0
1.946504 -18.946768 0.298 84 84 0
1.824075 -19.226696 0.115 84 84 0
1.931993 -18.973043 0.23 84 84 0
1.845548 -19.166931 0.073 84 84 0
1.851365 -19.166529 0.165 84 84 0
1.911597 -19.008669 0.125 84 84 0
1.948807 -18.937841 0.284 84 84 0
1.898262 -19.056868 0.217 84 84 0
1.830027 -19.208406 0.082 84 84 0
1.89468 -19.057287 0.164 84 84 0
1.952473 -18.926241 0.261 84 84 0
1.954255 -18.927149 0.292 84 84 0
1.976268 -18.855312 0.175 84 84 0
1.951044 -18.937859 0.323 84 84 0
1.905089 -19.041265 0.229 84 84 0
1.978941 -18.856674 0.235 84 84 0
1.881515 -19.083126 0.109 84 84 0
1.920626 -18.997557 0.193 84 84 0
1.961336 -18.878008 0.081 84 84 0
1.943864 -18.940935 0.21 84 84 0
1.879127 -19.103233 0.205 84 84 0
1.908453 -19.010433 0.077 84 84 0
1.895151 -19.054161 0.147 84 84 0
1.969038 -18.865097 0.126 84 84 0
1.9572 -18.892735 0.103 84 84 0
1.970247 -18.882547 0.259 84 84 0
1.956542 -18.920458 0.294 84 84 0
1.892007 -19.055925 0.115 84 84 0
1.96944 -18.870914 0.166 84 84 0
1.890175 -19.061724 0.115 84 84 0
1.870165 -19.105402 0.077 84 84 0
1.827253 -19.220459 0.12 84 84 0
1.960729 -18.899023 0.205 84 84 0
1.898295 -19.052395 0.188 84 84 0
1.824091 -19.224461 0.093 84 84 0
1.867407 -19.115219 0.098 84 84 0
1.95972 -18.914221 0.313 84 84 0
1.957854 -18.924494 0.349 84 84 0
1.858731 -19.138857 0.106 84 84 0
1.90065 -19.03676 0.127 84 84 0
1.885499 -19.088524 0.227 84 84 0
1.928009 -18.967648 0.121 84 84 0
1.939914 -18.931067 0.081 84 84 0
1.926965 -18.987316 0.248 84 84 0
1.890629 -19.060835 0.107 84 84 0
1.917346 -19.017208 0.277 84 84 0
1.975444 -18.845915 0.101 84 84 0
1.891587 -19.052345 0.074 84 84 0
1.956542 -18.920458 0.294 84 84 0
1.944942 -18.916792 0.069 84 84 0
1.802215 -19.278408 0.093 84 84 0
1.859168 -19.1402 0.115 84 84 0
1.877832 -19.096962 0.153 84 84 0
1.886912 -19.079142 0.188 84 84 0
1.857839 -19.138403 0.082 84 84 0
1.92831 -18.986881 0.269 84 84 0
1.960866 -18.881134 0.082 84 84 0
1.927134 -18.964958 0.087 84 84 0
1.867356 -19.121927 0.138 84 84 0
1.957047 -18.912859 0.245 84 84 0
1.917533 -18.992613 0.107 84 84 0
1.898414 -19.036743 0.077 84 84 0
1.955366 -18.898535 0.12 84 84 0
1.973998 -18.859768 0.172 84 84 0
1.963606 -18.873552 0.078 84 84 0
1.943563 -18.921701 0.062 84 84 0
1.896059 -19.052378 0.152 84 84 0
1.847732 -19.173656 0.16 84 84 0
1.922845 -18.999807 0.253 84 84 0
1.936198 -18.949373 0.132 84 84 0
1.885567 -19.079578 0.16 84 84 0
1.95513 -18.92984 0.333 84 84 0
1.820442 -19.233826 0.102 84 84 0
1.967035 -18.893257 0.281 84 84 0
1.949902 -18.911463 0.104 84 84 0
1.91116 -19.007324 0.1 84 84 0
1.881532 -19.080889 0.1 84 84 0
1.941208 -18.937336 0.134 84 84 0
1.916523 -19.007811 0.203 84 84 0
1.967188 -18.873133 0.146 84 84 0
1.963301 -18.913801 0.356 84 84 0
1.973056 -18.866022 0.195 84 84 0
1.926443 -18.997152 0.297 84 84 0
1.974502 -18.852169 0.136 84 84 0
1.896951 -19.052832 0.167 84 84 0
1.979564 -18.833424 0.085 84 84 0
1.816811 -19.240953 0.078 84 84 0
1.973645 -18.847242 0.068 84 84 0
1.951633 -18.919079 0.195 84 84 0
1.924207 -18.997135 0.258 84 84 0
1.872316 -19.116598 0.184 84 84 0
1.980489 -18.829405 0.073 84 84 0
1.868684 -19.123726 0.165 84 84 0
1.910066 -19.033701 0.26 84 84 0
1.944925 -18.919027 0.071 84 84 0
1.81269 -19.253445 0.106 84 84 0
1.94711 -18.925753 0.169 84 84 0
1.814523 -19.247644 0.096 84 84 0
1.853299 -19.147312 0.063 84 84 0
1.871963 -19.104074 0.088 84 84 0
1.803141 -19.274391 0.07 84 84 0
1.882354 -19.090288 0.175 84 84 0
1.973425 -18.87631 0.286 84 84 0
1.886509 -19.073326 0.124 84 84 0
1.964243 -18.907547 0.34 84 84 0
1.953148 -18.896282 0.064 84 84 0
1.825016 -19.220444 0.073 84 84 0
1.80541 -19.269938 0.086 84 84 0
1.91069 -19.010448 0.114 84 84 0
1.931976 -18.975281 0.251 84 84 0
1.931504 -18.978409 0.256 84 84 0
1.898313 -19.050159 0.185 84 84 0
1.860075 -19.13842 0.114 84 84 0
1.804031 -19.274845 0.086 84 84 0
1.973526 -18.862894 0.185 84 84 0
1.904368 -19.018452 0.061 84 84 0
1.963992 -18.881605 0.155 84 84 0
1.889165 -19.076923 0.199 84 84 0
1.956309 -18.892281 0.081 84 84 0
1.958762 -18.92271 0.353 84 84 0
1.942537 -18.939135 0.181 84 84 0
1.897354 -19.058649 0.216 84 84 0
1.956644 -18.907042 0.208 84 84 0
1.882758 -19.096106 0.225 84 84 0
1.972216 -18.85886 0.141 84 84 0
1.830045 -19.206169 0.071 84 84 0
1.965151 -18.905766 0.339 84 84 0
1.947497 -18.933805 0.23 84 84 0
1.887905 -19.066181 0.102 84 84 0
1.885113 -19.080471 0.163 84 84 0
1.908232 -19.039501 0.269 84 84 0
1.847767 -19.169184 0.124 84 84 0
1.909259 -19.022068 0.181 84 84 0
1.979428 -18.851311 0.217 84 84 0
1.953096 -18.90299 0.102 84 84 0
1.877446 -19.088909 0.077 84 84 0
1.972886 -18.888382 0.349 84 84 0
1.839612 -19.182987 0.082 84 84 0
1.972466 -18.8848 0.315 84 84 0
1.956962 -18.924038 0.319 84 84 0
1.927856 -18.98777 0.268 84 84 0
1.941997 -18.951206 0.26 84 84 0
1.958091 -18.893188 0.136 84 84 0
1.92806 -18.960939 0.067 84 84 0
1.876016 -19.100527 0.148 84 84 0
1.932582 -18.954266 0.11 84 84 0
1.878774 -19.090708 0.119 84 84 0
1.970802 -18.86824 0.177 84 84 0
1.954289 -18.922676 0.264 84 84 0
1.949482 -18.907883 0.072 84 84 0
1.911092 -19.016268 0.156 84 84 0
1.965707 -18.891457 0.258 84 84 0
1.87151 -19.104965 0.081 84 84 0
1.899709 -19.043015 0.149 84 84 0
1.955163 -18.925367 0.305 84 84 0
1.868231 -19.124617 0.171 84 84 0
1.944386 -18.931099 0.154 84 84 0
1.883263 -19.088507 0.182 84 84 0
1.907528 -19.01445 0.092 84 84 0
1.791285 -19.304264 0.066 84 84 0
1.961722 -18.886061 0.137 84 84 0
1.946674 -18.924408 0.149 84 84 0
1.867827 -19.118801 0.118 84 84 0
1.949834 -18.920406 0.179 84 84 0
1.914724 -19.00914 0.177 84 84 0
1.947479 -18.936043 0.246 84 84 0
1.881935 -19.086708 0.147 84 84 0
1.886895 -19.081379 0.186 84 84 0
1.892025 -19.05369 0.093 84 84 0
1.957115 -18.903915 0.176 84 84 0
1.895151 -19.054161 0.151 84 84 0
1.834062 -19.207094 0.147 84 84 0
1.967035 -18.893257 0.29 84 84 0
1.79448 -19.295794 0.066 84 84 0
1.937089 -18.949827 0.151 84 84 0
1.933978 -18.947121 0.086 84 84 0
1.840907 -19.189257 0.147 84 84 0
1.84691 -19.164259 0.073 84 84 0
1.817281 -19.237825 0.076 84 84 0
1.968532 -18.872696 0.173 84 84 0
1.846808 -19.177675 0.157 84 84 0
1.954676 -18.930729 0.332 84 84 0
1.891452 -19.070232 0.191 84 84 0
1.936214 -18.947138 0.125 84 84 0
1.797221 -19.288212 0.074 84 84 0
1.837763 -19.191023 0.103 84 84 0
1.963755 -18.91291 0.358 84 84 0
1.965639 -18.900402 0.315 84 84 0
1.871862 -19.117489 0.187 84 84 0
1.963789 -18.908438 0.332 84 84 0
1.876453 -19.10187 0.156 84 84 0
1.973964 -18.864239 0.208 84 84 0
1.803141 -19.274391 0.073 84 84 0
1.799945 -19.282864 0.079 84 84 0
1.840537 -19.178968 0.071 84 84 0
1.937475 -18.95788 0.221 84 84 0
1.969559 -18.855261 0.071 84 84 0
1.976586 -18.872311 0.307 84 84 0
1.975224 -18.874983 0.297 84 84 0
1.887399 -19.07378 0.143 84 84 0
1.863219 -19.136654 0.169 84 84 0
1.91528 -18.994831 0.093 84 84 0
1.966513 -18.903091 0.356 84 84 0
1.966598 -18.891912 0.268 84 84 0
1.84691 -19.164259 0.078 84 84 0
1.815465 -19.24139 0.066 84 84 0
1.90435 -19.020687 0.077 84 84 0
1.912941 -19.008232 0.134 84 84 0
1.953768 -18.932512 0.328 84 84 0
1.977612 -18.854876 0.21 84 84 0
1.814541 -19.245407 0.063 84 84 0
1.871913 -19.110781 0.139 84 84 0
1.934666 -18.974407 0.294 84 84 0
1.954425 -18.904789 0.147 84 84 0
1.799963 -19.280628 0.063 84 84 0
1.908805 -19.022959 0.166 84 84 0
1.887871 -19.070652 0.127 84 84 0
1.865138 -19.119673 0.086 84 84 0
1.943496 -18.930645 0.135 84 84 0
1.950203 -18.930696 0.255 84 84 0
1.968601 -18.86375 0.104 84 84 0
1.973021 -18.870493 0.24 84 84 0
1.935709 -18.954737 0.161 84 84 0
1.930074 -18.990025 0.307 84 84 0
1.961655 -18.895004 0.211 84 84 0
1.975156 -18.883926 0.37 84 84 0
1.969708 -18.894619 0.339 84 84 0
1.903709 -19.046175 0.245 84 84 0
1.898801 -19.044796 0.15 84 84 0
1.977527 -18.866055 0.277 84 84 0
1.831878 -19.200369 0.063 84 84 0
1.893688 -19.07025 0.243 84 84 0
1.904618 -19.044394 0.257 84 84 0
1.976535 -18.879017 0.357 84 84 0
1.956122 -18.916878 0.253 84 84 0
1.930597 -18.980188 0.247 84 84 0
1.954425 -18.904789 0.138 84 84 0
1.925098 -18.997589 0.28 84 84 0
1.882389 -19.085815 0.151 84 84 0
1.91326 -19.025229 0.261 84 84 0
1.888813 -19.064398 0.11 84 84 0
1.919752 -18.994865 0.163 84 84 0
1.97608 -18.87991 0.348 84 84 0
1.873359 -19.09693 0.069 84 84 0
1.957234 -18.888264 0.069 84 84 0
1.95375 -18.934748 0.338 84 84 0
1.966144 -18.892803 0.261 84 84 0
1.894765 -19.046108 0.083 84 84 0
1.970616 -18.892838 0.342 84 84 0
1.890998 -19.071123 0.191 84 84 0
1.906502 -19.031883 0.19 84 84 0
1.972517 -18.878094 0.272 84 84 0
1.96174 -18.883825 0.133 84 84 0
1.977226 -18.846823 0.137 84 84 0
1.968584 -18.865988 0.124 84 84 0
1.818609 -19.239624 0.111 84 84 0
1.887468 -19.064835 0.097 84 84 0
1.908351 -19.023848 0.164 84 84 0
1.789469 -19.307831 0.078 84 84 0
1.977125 -18.860239 0.231 84 84 0
1.942872 -18.953897 0.278 84 84 0
1.947162 -18.919044 0.119 84 84 0
1.931254 -18.952467 0.074 84 84 0
1.826798 -19.221352 0.124 84 84 0
1.932027 -18.968573 0.2 84 84 0
1.915565 -19.0163 0.252 84 84 0
1.830901 -19.211096 0.127 84 84 0
1.898868 -19.035852 0.086 84 84 0
1.796751 -19.291336 0.083 84 84 0
1.967692 -18.865534 0.104 84 84 0
1.921551 -18.993538 0.184 84 84 0
1.978572 -18.846386 0.16 84 84 0
1.906972 -19.028759 0.186 84 84 0
1.933423 -18.961428 0.165 84 84 0
1.911546 -19.015377 0.166 84 84 0
1.872787 -19.113472 0.172 84 84 0
1.973845 -18.879892 0.307 84 84 0
1.950288 -18.919516 0.168 84 84 0
1.918407 -18.995304 0.147 84 84 0
1.974939 -18.853514 0.141 84 84 0
1.830952 -19.20439 0.075 84 84 0
1.929773 -18.970791 0.175 84 84 0
1.973442 -18.874075 0.259 84 84 0
1.839561 -19.189695 0.128 84 84 0
1.96796 -18.889238 0.272 84 84 0
1.809479 -19.264154 0.108 84 84 0
1.886424 -19.084505 0.208 84 84 0
1.947025 -18.936934 0.235 84 84 0
1.871459 -19.111673 0.128 84 84 0
1.937156 -18.940884 0.084 84 84 0
1.935709 -18.954737 0.17 84 84 0
1.959839 -18.898569 0.191 84 84 0
1.965791 -18.880278 0.171 84 84 0
1.977998 -18.862928 0.261 84 84 0
1.883717 -19.087616 0.191 84 84 0
1.917096 -18.991268 0.094 84 84 0
1.956945 -18.926275 0.335 84 84 0
1.972987 -18.874966 0.267 84 84 0
1.91511 -19.017193 0.244 84 84 0
1.874251 -19.097383 0.091 84 84 0
1.939359 -18.945372 0.158 84 84 0
1.843227 -19.178095 0.111 84 84 0
1.944369 -18.933336 0.169 84 84 0
1.968953 -18.876278 0.2 84 84 0
1.855014 -19.157164 0.168 84 84 0
1.882877 -19.080454 0.118 84 84 0
1.929253 -18.980625 0.236 84 84 0
1.90662 -19.016232 0.08 84 84 0
1.906586 -19.020706 0.116 84 84 0
1.866415 -19.128181 0.156 84 84 0
1.823655 -19.223116 0.083 84 84 0
1.928025 -18.965412 0.107 84 84 0
1.901053 -19.042578 0.162 84 84 0
1.919769 -18.99263 0.15 84 84 0
1.957047 -18.912859 0.241 84 84 0
1.886997 -19.067961 0.103 84 84 0
1.978538 -18.850857 0.191 84 84 0
1.962881 -18.910219 0.335 84 84 0
1.894646 -19.06176 0.191 84 84 0
1.899743 -19.038542 0.12 84 84 0
1.953551 -18.9021 0.109 84 84 0
1.86137 -19.14469 0.184 84 84 0
1.953784 -18.930275 0.316 84 84 0
1.869207 -19.113892 0.117 84 84 0
1.944671 -18.952568 0.314 84 84 0
1.882928 -19.073744 0.069 84 84 0
1.969674 -18.89909 0.37 84 84 0
1.958998 -18.891407 0.125 84 84 0
1.896951 -19.052832 0.177 84 84 0
1.949244 -18.939186 0.288 84 84 0
1.784004 -19.320759 0.064 84 84 0
1.949347 -18.92577 0.212 84 84 0
1.97309 -18.861549 0.172 84 84 0
1.966683 -18.880732 0.186 84 84 0
1.932531 -18.960974 0.16 84 84 0
1.973879 -18.87542 0.282 84 84 0
1.896933 -19.055069 0.178 84 84 0
1.980489 -18.829405 0.067 84 84 0
1.838199 -19.192368 0.124 84 84 0
1.888847 -19.059927 0.076 84 84 0
1.879109 -19.105469 0.222 84 84 0
1.980438 -18.836113 0.115 84 84 0
1.890191 -19.05949 0.092 84 84 0
1.919264 -19.000229 0.198 84 84 0
1.95972 -18.914221 0.304 84 84 0
1.873292 -19.105873 0.126 84 84 0
1.975342 -18.859329 0.201 84 84 0
1.94215 -18.931082 0.105 84 84 0
1.920307 -18.98056 0.072 84 84 0
1.956962 -18.924038 0.329 84 84 0
1.871005 -19.112564 0.139 84 84 0
1.870466 -19.124634 0.201 84 84 0
1.945294 -18.929317 0.161 84 84 0
1.830447 -19.211987 0.113 84 84 0
1.974753 -18.878109 0.32 84 84 0
1.876856 -19.107689 0.212 84 84 0
1.948875 -18.928898 0.218 84 84 0
1.94173 -18.927502 0.084 84 84 0
1.933371 -18.968136 0.217 84 84 0
1.88429 -19.071072 0.071 84 84 0
1.970013 -18.85437 0.066 84 84 0
1.871409 -19.11838 0.174 84 84 0
1.880539 -19.093853 0.176 84 84 0
1.941175 -18.941809 0.166 84 84 0
1.946083 -18.943188 0.262 84 84 0
1.835005 -19.20084 0.124 84 84 0
1.928042 -18.963175 0.085 84 84 0
1.906013 -19.037249 0.229 84 84 0
1.875022 -19.113489 0.206 84 84 0
1.85229 -19.16251 0.153 84 84 0
1.951145 -18.924442 0.22 84 84 0
1.917481 -18.999321 0.165 84 84 0
1.922913 -18.990866 0.203 84 84 0
1.860093 -19.136183 0.107 84 84 0
1.943546 -18.923937 0.08 84 84 0
1.869661 -19.113001 0.112 84 84 0
1.886878 -19.083614 0.218 84 84 0
1.85091 -19.167419 0.171 84 84 0
1.916205 -18.990814 0.083 84 84 0
1.820913 -19.230698 0.073 84 84 0
1.911967 -19.018955 0.2 84 84 0
1.932969 -18.962318 0.163 84 84 0
1.965303 -18.885641 0.21 84 84 0
1.958579 -18.887825 0.093 84 84 0
1.934416 -18.948465 0.106 84 84 0
1.866029 -19.120129 0.098 84 84 0
1.879279 -19.083109 0.07 84 84 0
1.902784 -19.050194 0.259 84 84 0
1.977561 -18.861584 0.253 84 84 0
1.974031 -18.855295 0.149 84 84 0
1.918709 -19.014534 0.285 84 84 0
1.92646 -18.994915 0.28 84 84 0
1.881919 -19.088943 0.169 84 84 0
1.915093 -19.019426 0.256 84 84 0
1.83598 -19.190115 0.065 84 84 0
1.884659 -19.081362 0.153 84 84 0
1.807243 -19.264135 0.071 84 84 0
1.901576 -19.032742 0.102 84 84 0
1.971375 -18.851698 0.077 84 84 0
1.954255 -18.927149 0.309 84 84 0
1.93601 -18.97397 0.309 84 84 0
1.943847 -18.943171 0.233 84 84 0
1.87151 -19.104965 0.088 84 84 0
1.876033 -19.098291 0.125 84 84 0
1.965388 -18.87446 0.129 84 84 0
1.86865 -19.128199 0.201 84 84 0
1.942469 -18.948078 0.243 84 84 0
1.95745 -18.918676 0.299 84 84 0
1.894193 -19.062651 0.186 84 84 0
1.931135 -18.968119 0.174 84 84 0
1.875563 -19.101418 0.137 84 84 0
1.975275 -18.868275 0.252 84 84 0
1.956712 -18.898098 0.136 84 84 0
1.936198 -18.949373 0.131 84 84 0
1.803123 -19.276627 0.093 84 84 0
1.947951 -18.932915 0.227 84 84 0
1.908436 -19.012669 0.092 84 84 0
1.904146 -19.04752 0.261 84 84 0
1.955146 -18.927603 0.321 84 84 0
1.965269 -18.890112 0.241 84 84 0
1.972551 -18.873621 0.237 84 84 0
1.871862 -19.117489 0.187 84 84 0
1.841394 -19.183895 0.114 84 84 0
1.939359 -18.945372 0.171 84 84 0
1.857738 -19.151819 0.17 84 84 0
1.944874 -18.925735 0.131 84 84 0
1.956762 -18.89139 0.09 84 84 0
1.808151 -19.262354 0.08 84 84 0
1.804972 -19.268593 0.063 84 84 0
1.809496 -19.261917 0.096 84 84 0
1.977277 -18.840115 0.088 84 84 0
1.812254 -19.252098 0.072 84 84 0
1.933741 -18.978424 0.296 84 84 0
1.887013 -19.065727 0.086 84 84 0
1.912051 -19.007778 0.119 84 84 0
1.928446 -18.968992 0.13 84 84 0
1.928815 -18.97928 0.213 84 84 0
1.847313 -19.170076 0.115 84 84 0
1.911614 -19.006432 0.107 84 84 0
1.928377 -18.977936 0.201 84 84 0
1.959402 -18.897224 0.173 84 84 0
1.951985 -18.931604 0.291 84 84 0
1.892042 -19.051453 0.079 84 84 0
1.945396 -18.915901 0.062 84 84 0
1.944267 -18.946751 0.259 84 84 0
1.883281 -19.086269 0.17 84 84 0
1.971961 -18.892399 0.361 84 84 0
1.938836 -18.955208 0.218 84 84 0
1.974684 -18.887054 0.378 84 84 0
1.924882 -18.967176 0.063 84 84 0
1.808588 -19.2637 0.104 84 84 0
1.882004 -19.077763 0.084 84 84 0
1.942451 -18.950315 0.254 84 84 0
1.917045 -18.997974 0.134 84 84 0
1.859202 -19.135729 0.085 84 84 0
1.788561 -19.30961 0.071 84 84 0
1.947985 -18.928444 0.204 84 84 0
1.918793 -19.003357 0.215 84 84 0
1.910099 -19.029228 0.235 84 84 0
1.936652 -18.948483 0.146 84 84 0
1.884608 -19.08807 0.209 84 84 0
1.892377 -19.066214 0.178 84 84 0
1.974718 -18.882582 0.356 84 84 0
1.781264 -19.328341 0.062 84 84 0
1.900718 -19.027815 0.066 84 84 0
1.937475 -18.95788 0.218 84 84 0
1.878218 -19.105015 0.206 84 84 0
1.951599 -18.923552 0.223 84 84 0
1.911512 -19.019848 0.189 84 84 0
1.882423 -19.081343 0.107 84 84 0
1.849549 -19.170092 0.158 84 84 0
1.972903 -18.886147 0.341 84 84 0
1.850541 -19.157131 0.084 84 84 0
1.863742 -19.126818 0.106 84 84 0
1.953449 -18.915516 0.195 84 84 0
1.975461 -18.843678 0.075 84 84 0
1.876487 -19.097399 0.132 84 84 0
1.954743 -18.921785 0.269 84 84 0
1.91528 -18.994831 0.088 84 84 0
1.92293 -18.988628 0.172 84 84 0
1.879631 -19.095633 0.174 84 84 0
1.943075 -18.927065 0.09 84 84 0
1.892898 -19.056379 0.13 84 84 0
1.973005 -18.87273 0.249 84 84 0
1.928883 -18.970339 0.151 84 84 0
1.980422 -18.83835 0.138 84 84 0
1.974821 -18.869165 0.248 84 84 0
1.97536 -18.857094 0.185 84 84 0
1.954964 -18.892717 0.064 84 84 0
1.905678 -19.022486 0.105 84 84 0
1.934228 -18.973063 0.265 84 84 0
1.95333 -18.931168 0.32 84 84 0
1.860983 -19.136637 0.128 84 84 0
1.971625 -18.877638 0.251 84 84 0
1.958125 -18.888718 0.098 84 84 0
1.903358 -19.033649 0.15 84 84 0
1.961689 -18.890533 0.165 84 84 0
1.933371 -18.968136 0.213 84 84 0
1.884273 -19.073309 0.083 84 84 0
1.928276 -18.991352 0.284 84 84 0
1.843681 -19.177204 0.105 84 84 0
1.834601 -19.195024 0.076 84 84 0
1.875983 -19.104998 0.17 84 84 0
1.954879 -18.903898 0.138 84 84 0
1.946741 -18.915464 0.078 84 84 0
1.964328 -18.896366 0.258 84 84 0
1.923804 -18.99132 0.221 84 84 0
1.954492 -18.895845 0.078 84 84 0
1.850037 -19.16473 0.137 84 84 0
1.935675 -18.959208 0.197 84 84 0
1.868265 -19.120146 0.144 84 84 0
1.966802 -18.86508 0.087 84 84 0
1.904651 -19.039921 0.211 84 84 0
1.971677 -18.87093 0.21 84 84 0
1.935222 -18.960098 0.204 84 84 0
1.907494 -19.018923 0.114 84 84 0
1.919701 -19.001574 0.217 84 84 0
1.885164 -19.073761 0.102 84 84 0
1.86095 -19.141108 0.161 84 84 0
1.957166 -18.897207 0.148 84 84 0
1.956071 -18.923584 0.311 84 84 0
1.89325 -19.068905 0.226 84 84 0
1.824982 -19.224916 0.107 84 84 0
1.950237 -18.926224 0.212 84 84 0
1.976823 -18.841005 0.091 84 84 0
1.784459 -19.319866 0.063 84 84 0
1.980018 -18.832533 0.09 84 84 0
1.871005 -19.112564 0.135 84 84 0
1.945227 -18.938261 0.215 84 84 0
1.913447 -19.000633 0.09 84 84 0
1.932832 -18.980207 0.3 84 84 0
1.816339 -19.24408 0.086 84 84 0
1.950742 -18.918625 0.181 84 84 0
1.939341 -18.947609 0.176 84 84 0
1.948439 -18.927551 0.207 84 84 0
1.974031 -18.855295 0.133 84 84 0
1.953602 -18.895391 0.066 84 84 0
1.780356 -19.330122 0.06 84 84 0
1.891604 -19.050108 0.064 84 84 0
1.886424 -19.084505 0.203 84 84 0
1.862765 -19.137545 0.161 84 84 0
1.86238 -19.129492 0.096 84 84 0
1.827235 -19.222696 0.133 84 84 0
1.942939 -18.944952 0.229 84 84 0
1.913783 -19.015392 0.212 84 84 0
1.922391 -19.000698 0.245 84 84 0
1.914185 -19.02121 0.256 84 84 0
1.903273 -19.04483 0.233 84 84 0
1.962597 -18.888752 0.171 84 84 0
1.859133 -19.144674 0.151 84 84 0
1.931187 -18.961411 0.123 84 84 0
1.955299 -18.907478 0.178 84 84 0
1.972216 -18.85886 0.137 84 84 0
1.856393 -19.152256 0.152 84 84 0
1.803123 -19.276627 0.081 84 84 0
1.955418 -18.891827 0.062 84 84 0
1.962898 -18.907984 0.313 84 84 0
1.920677 -18.990847 0.148 84 84 0
1.940267 -18.94359 0.176 84 84 0
1.980001 -18.834768 0.102 84 84 0
1.970298 -18.875839 0.216 84 84 0
1.948574 -18.909664 0.072 84 84 0
1.938802 -18.959681 0.26 84 84 0
1.967455 -18.896837 0.326 84 84 0
1.968651 -18.857044 0.063 84 84 0
1.833642 -19.203514 0.113 84 84 0
1.897388 -19.054176 0.199 84 84 0
1.891537 -19.059052 0.112 84 84 0
1.926108 -18.982391 0.195 84 84 0
1.914236 -19.014502 0.215 84 84 0
1.96448 -18.876244 0.123 84 84 0
1.960174 -18.91333 0.313 84 84 0
1.946639 -18.928881 0.186 84 84 0
1.950152 -18.937405 0.292 84 84 0
1.871039 -19.108091 0.1 84 84 0
1.892058 -19.049217 0.068 84 84 0
1.889301 -19.059036 0.072 84 84 0
1.909612 -19.034592 0.266 84 84 0
1.974486 -18.854404 0.146 84 84 0
1.875494 -19.110361 0.195 84 84 0
1.934178 -18.979771 0.314 84 84 0
1.906184 -19.014887 0.068 84 84 0
1.875176 -19.093363 0.076 84 84 0
1.810404 -19.260136 0.109 84 84 0
1.977579 -18.859348 0.242 84 84 0
1.907948 -19.018032 0.12 84 84 0
1.940737 -18.940464 0.147 84 84 0
1.95081 -18.909681 0.118 84 84 0
1.879177 -19.096525 0.168 84 84 0
1.941056 -18.95746 0.275 84 84 0
1.808588 -19.2637 0.094 84 84 0
1.942014 -18.948971 0.231 84 84 0
1.919701 -19.001574 0.212 84 84 0
1.92335 -18.99221 0.205 84 84 0
1.907881 -19.026976 0.188 84 84 0
1.89051 -19.076487 0.23 84 84 0
1.896985 -19.048361 0.131 84 84 0
1.871409 -19.11838 0.192 84 84 0
1.879228 -19.089817 0.114 84 84 0
1.973072 -18.863785 0.191 84 84 0
1.917902 -19.002903 0.195 84 84 0
1.97906 -18.841022 0.136 84 84 0
1.860127 -19.131712 0.083 84 84 0
1.885567 -19.079578 0.16 84 84 0
1.865994 -19.124601 0.125 84 84 0
1.859587 -19.143782 0.162 84 84 0
1.975745 -18.865147 0.251 84 84 0
1.955668 -18.917768 0.257 84 84 0
1.828229 -19.209734 0.071 84 84 0
1.8837 -19.089851 0.207 84 84 0
1.949783 -18.927114 0.222 84 84 0
1.962228 -18.878462 0.105 84 84 0
1.944234 -18.951223 0.29 84 84 0
1.921165 -18.985485 0.124 84 84 0
1.90598 -19.041719 0.243 84 84 0
1.958778 -18.920475 0.335 84 84 0
1.834079 -19.204859 0.128 84 84 0
1.852341 -19.155802 0.113 84 84 0
1.939188 -18.967733 0.314 84 84 0
1.947916 -18.937387 0.257 84 84 0
1.876436 -19.104107 0.178 84 84 0
1.897472 -19.042997 0.107 84 84 0
1.940215 -18.950298 0.206 84 84 0
1.825907 -19.220898 0.108 84 84 0
1.928798 -18.981518 0.236 84 84 0
1.929421 -18.958267 0.07 84 84 0
1.952138 -18.91148 0.143 84 84 0
1.864128 -19.134871 0.164 84 84 0
1.864633 -19.127274 0.134 84 84 0
1.903726 -19.04394 0.22 84 84 0
1.935675 -18.959208 0.192 84 84 0
1.868281 -19.11791 0.13 84 84 0
1.977023 -18.873655 0.316 84 84 0
1.864564 -19.136217 0.179 84 84 0
1.90418 -19.043049 0.226 84 84 0
1.963942 -18.888313 0.198 84 84 0
1.80087 -19.278847 0.066 84 84 0
1.870029 -19.123289 0.189 84 84 0
1.938468 -18.944918 0.148 84 84 0
1.905645 -19.026958 0.134 84 84 0
1.95577 -18.904352 0.161 84 84 0
1.910655 -19.014923 0.155 84 84 0
1.973612 -18.851715 0.102 84 84 0
1.960814 -18.887842 0.139 84 84 0
1.947848 -18.946331 0.328 84 84 0
1.907057 -19.017578 0.102 84 84 0
1.926125 -18.980156 0.171 84 84 0
1.880573 -19.08938 0.142 84 84 0
1.896985 -19.048361 0.145 84 84 0
1.97536 -18.857094 0.184 84 84 0
1.923383 -18.987738 0.172 84 84 0
1.951531 -18.932495 0.296 84 84 0
1.949953 -18.904755 0.073 84 84 0
1.802232 -19.276175 0.078 84 84 0
1.892763 -19.074266 0.242 84 84 0
1.964884 -18.882059 0.162 84 84 0
1.905678 -19.022486 0.109 84 84 0
1.955163 -18.925367 0.302 84 84 0
1.883365 -19.07509 0.097 84 84 0
1.905071 -19.043503 0.252 84 84 0
