ply
format ascii 1.0
element vertex 1375
property double x
property double y
property double z
property uchar red
property uchar green
property uchar blue
element face 0
property list uchar int vertex_indices
end_header
2.927622 -18.252518 0.716 255 84 0
3.012565 -18.138672 0.717 255 84 0
2.862765 -18.19478 0.716 255 84 0
2.626513 -18.328049 0.714 255 84 0
2.763855 -18.26335 0.715 255 84 0
2.33125 -18.2225 0.715 255 84 0
2.5036 -18.318172 0.714 255 84 0
2.954386 -18.261665 0.716 255 84 0
3.002245 -18.319721 0.715 255 84 0
2.581674 -18.107674 0.716 255 84 0
2.559721 -18.289528 0.715 255 84 0
2.89471 -18.40522 0.714 255 84 0
2.947661 -18.263851 0.716 255 84 0
2.939994 -18.272289 0.716 255 84 0
2.577782 -18.207823 0.715 255 84 0
2.765522 -18.220428 0.716 255 84 0
2.933117 -18.05891 0.718 255 84 0
2.686787 -18.282442 0.715 255 84 0
2.713195 -18.338547 0.715 255 84 0
2.545766 -18.301497 0.715 255 84 0
2.723463 -18.164206 0.716 255 84 0
2.968736 -18.138788 0.717 255 84 0
2.9584 -18.086384 0.717 255 84 0
3.027903 -18.062313 0.718 255 84 0
2.650331 -18.371611 0.714 255 84 0
2.82356 -18.410494 0.714 255 84 0
3.02517 -18.186623 0.717 255 84 0
2.774458 -18.339458 0.715 255 84 0
2.926943 -18.341959 0.715 255 84 0
2.938106 -18.108591 0.717 255 84 0
3.021908 -18.204039 0.717 255 84 0
3.053097 -18.160448 0.717 255 84 0
2.856006 -18.437126 0.714 255 84 0
2.693703 -18.19618 0.716 255 84 0
2.97676 -18.083391 0.718 255 84 0
3.057747 -18.254847 0.716 255 84 0
2.680295 -18.312805 0.715 255 84 0
2.91522 -18.177738 0.717 255 84 0
2.537505 -18.152508 0.716 255 84 0
2.873419 -18.264181 0.716 255 84 0
3.142762 -18.072577 0.718 255 84 0
2.711901 -18.096586 0.717 255 84 0
2.551091 -18.130251 0.716 255 84 0
2.688077 -18.112507 0.717 255 84 0
2.666124 -18.294361 0.715 255 84 0
2.93741 -18.435955 0.714 255 84 0
2.290667 -18.207432 0.715 255 84 0
2.544362 -18.191916 0.716 255 84 0
2.581988 -18.184151 0.716 255 84 0
2.756196 -18.152826 0.716 255 84 0
2.591984 -18.281277 0.715 255 84 0
2.800811 -18.226065 0.716 255 84 0
2.99278 -18.329489 0.715 255 84 0
2.835891 -18.082323 0.717 255 84 0
2.817951 -18.324583 0.715 255 84 0
2.752234 -18.321402 0.715 255 84 0
3.01769 -18.170464 0.717 255 84 0
2.837554 -18.098883 0.717 255 84 0
2.916276 -18.451 0.714 255 84 0
2.994125 -18.093363 0.718 255 84 0
2.827981 -18.417236 0.714 255 84 0
2.822525 -18.311201 0.715 255 84 0
3.142898 -18.054689 0.718 255 84 0
2.462334 -18.216337 0.715 255 84 0
2.882834 -18.261122 0.716 255 84 0
2.835284 -18.339027 0.715 255 84 0
2.505675 -18.221586 0.715 255 84 0
2.829429 -18.403383 0.714 255 84 0
3.038383 -18.213556 0.717 255 84 0
2.686091 -18.138432 0.716 255 84 0
2.86299 -18.106232 0.717 255 84 0
2.733675 -18.291742 0.715 255 84 0
2.81076 -18.270414 0.715 255 84 0
3.026287 -18.098526 0.718 255 84 0
2.765658 -18.202541 0.716 255 84 0
2.324275 -18.198742 0.715 255 84 0
2.425679 -18.272858 0.715 255 84 0
2.634366 -18.295013 0.715 255 84 0
2.750736 -18.341963 0.715 255 84 0
2.544175 -18.216513 0.715 255 84 0
2.70232 -18.298214 0.715 255 84 0
2.687144 -18.235487 0.715 255 84 0
2.414215 -18.251305 0.715 255 84 0
2.391826 -18.196125 0.715 255 84 0
3.136491 -18.073872 0.718 255 84 0
2.932199 -18.415342 0.714 255 84 0
2.817931 -18.150612 0.717 255 84 0
3.187203 -17.991966 0.719 255 84 0
2.807446 -18.29454 0.715 255 84 0
2.494071 -18.277403 0.715 255 84 0
2.967866 -18.076616 0.718 255 84 0
2.926769 -18.18811 0.716 255 84 0
2.449308 -18.164808 0.716 255 84 0
2.966801 -18.393692 0.715 255 84 0
3.132189 -18.051477 0.718 255 84 0
2.541319 -18.180265 0.716 255 84 0
2.955103 -18.343962 0.715 255 84 0
2.656794 -18.28624 0.715 255 84 0
2.764148 -18.401545 0.714 255 84 0
2.649691 -18.161409 0.716 255 84 0
2.63518 -18.187685 0.716 255 84 0
2.751449 -18.248051 0.716 255 84 0
2.68719 -18.28826 0.715 255 84 0
2.398682 -18.235533 0.715 255 84 0
2.986951 -18.036959 0.718 255 84 0
2.572683 -18.29052 0.715 255 84 0
2.898461 -18.382439 0.715 255 84 0
2.97787 -18.290466 0.716 255 84 0
2.462147 -18.240934 0.715 255 84 0
2.835183 -18.116753 0.717 255 84 0
2.580702 -18.294607 0.715 255 84 0
2.809529 -18.31468 0.715 255 84 0
2.722707 -18.145864 0.716 255 84 0
2.605849 -18.339968 0.714 255 84 0
2.384697 -18.192493 0.715 255 84 0
2.957123 -18.077877 0.718 255 84 0
2.724536 -18.199545 0.716 255 84 0
2.742547 -18.360237 0.714 255 84 0
2.754101 -18.075439 0.717 255 84 0
2.749034 -18.389355 0.714 255 84 0
2.635452 -18.151911 0.716 255 84 0
2.651554 -18.210619 0.716 255 84 0
2.711145 -18.313932 0.715 255 84 0
2.976539 -18.348148 0.715 255 84 0
2.945043 -18.431988 0.714 255 84 0
2.95179 -18.132399 0.717 255 84 0
2.791539 -18.327961 0.715 255 84 0
2.697704 -18.199343 0.716 255 84 0
2.377383 -18.213457 0.715 255 84 0
2.650392 -18.245941 0.715 255 84 0
3.114721 -18.054922 0.718 255 84 0
2.993001 -18.300421 0.716 255 84 0
2.690631 -18.12952 0.716 255 84 0
2.467056 -18.242313 0.715 255 84 0
2.971591 -18.175035 0.717 255 84 0
2.795006 -18.283712 0.715 255 84 0
2.841135 -18.098463 0.717 255 84 0
2.534619 -18.29694 0.715 255 84 0
3.124484 -18.123869 0.718 255 84 0
2.41144 -18.263357 0.715 255 84 0
2.634532 -18.332134 0.714 255 84 0
2.822602 -18.418983 0.714 255 84 0
2.91236 -18.436659 0.714 255 84 0
3.040733 -18.021713 0.718 255 84 0
3.008534 -18.316191 0.716 255 84 0
2.394375 -18.272621 0.714 255 84 0
2.24425 -18.195005 0.715 255 84 0
2.625749 -18.192982 0.716 255 84 0
2.47261 -18.158724 0.716 255 84 0
2.744682 -18.137981 0.717 255 84 0
2.855539 -18.380772 0.715 255 84 0
2.559109 -18.134336 0.716 255 84 0
2.771186 -18.24015 0.716 255 84 0
2.708671 -18.345221 0.715 255 84 0
3.022612 -18.229088 0.716 255 84 0
2.538244 -18.173086 0.716 255 84 0
2.670928 -18.13295 0.716 255 84 0
2.791146 -18.203182 0.716 255 84 0
2.786482 -18.287226 0.715 255 84 0
2.885829 -18.455688 0.714 255 84 0
2.757053 -18.393442 0.714 255 84 0
2.469509 -18.272743 0.715 255 84 0
2.480799 -18.14045 0.716 255 84 0
2.727684 -18.1383 0.716 255 84 0
2.891731 -18.444105 0.714 255 84 0
2.845722 -18.142326 0.717 255 84 0
2.917095 -18.284191 0.716 255 84 0
2.46314 -18.227972 0.715 255 84 0
2.970475 -18.263128 0.716 255 84 0
2.752098 -18.1036 0.717 255 84 0
2.943091 -18.217751 0.716 255 84 0
2.754886 -18.148792 0.716 255 84 0
2.835428 -18.202175 0.716 255 84 0
3.14838 -18.039526 0.718 255 84 0
2.905296 -18.247875 0.716 255 84 0
2.694903 -18.332594 0.715 255 84 0
2.778353 -18.415518 0.714 255 84 0
2.894875 -18.442341 0.714 255 84 0
2.788879 -18.148155 0.717 255 84 0
3.065923 -18.179327 0.717 255 84 0
2.787869 -18.399042 0.714 255 84 0
2.893199 -18.368536 0.715 255 84 0
2.979016 -18.25738 0.716 255 84 0
3.083107 -18.154413 0.717 255 84 0
2.781951 -18.412861 0.714 255 84 0
2.925721 -18.267262 0.716 255 84 0
3.050216 -18.245398 0.716 255 84 0
2.916531 -18.181772 0.717 255 84 0
2.659492 -18.166405 0.716 255 84 0
2.380069 -18.272064 0.714 255 84 0
2.897659 -18.075636 0.717 255 84 0
2.79689 -18.271204 0.715 255 84 0
3.047382 -18.147434 0.717 255 84 0
3.013804 -18.211132 0.716 255 84 0
2.524195 -18.315199 0.714 255 84 0
2.76769 -18.229389 0.716 255 84 0
2.967526 -18.357025 0.715 255 84 0
2.758046 -18.144791 0.716 255 84 0
2.474256 -18.177521 0.716 255 84 0
2.9238 -18.108034 0.717 255 84 0
2.815339 -18.197552 0.716 255 84 0
2.632355 -18.20645 0.716 255 84 0
2.81936 -18.374683 0.715 255 84 0
2.47404 -18.147106 0.716 255 84 0
3.021934 -18.08284 0.718 255 84 0
2.520936 -18.273134 0.715 255 84 0
2.425922 -18.182074 0.715 255 84 0
2.586235 -18.272736 0.715 255 84 0
2.237541 -18.194954 0.715 255 84 0
2.701344 -18.308939 0.715 255 84 0
2.975834 -18.08741 0.718 255 84 0
2.752183 -18.092421 0.717 255 84 0
2.285185 -18.222597 0.715 255 84 0
2.919539 -18.197895 0.716 255 84 0
3.112417 -18.06385 0.718 255 84 0
2.907905 -18.434389 0.714 255 84 0
2.623623 -18.296274 0.715 255 84 0
2.876215 -18.190411 0.716 255 84 0
3.046139 -18.134455 0.717 255 84 0
2.666587 -18.174507 0.716 255 84 0
2.890857 -18.441416 0.714 255 84 0
2.793342 -18.267151 0.715 255 84 0
2.966241 -18.231791 0.716 255 84 0
3.024916 -18.220161 0.716 255 84 0
2.917642 -18.153158 0.717 255 84 0
3.094971 -18.005577 0.719 255 84 0
2.363394 -18.229898 0.715 255 84 0
2.75694 -18.113924 0.717 255 84 0
2.585637 -18.174788 0.716 255 84 0
3.034428 -18.263168 0.716 255 84 0
2.661067 -18.253624 0.715 255 84 0
2.405139 -18.209642 0.715 255 84 0
2.756596 -18.218124 0.716 255 84 0
2.769909 -18.231644 0.716 255 84 0
2.360169 -18.183363 0.715 255 84 0
2.760485 -18.353664 0.715 255 84 0
2.784878 -18.144995 0.717 255 84 0
2.698684 -18.129135 0.716 255 84 0
3.009773 -18.152962 0.717 255 84 0
2.377196 -18.238052 0.715 255 84 0
2.754546 -18.193512 0.716 255 84 0
2.890718 -18.047407 0.718 255 84 0
3.065045 -18.23612 0.716 255 84 0
2.879605 -18.274069 0.716 255 84 0
2.89872 -18.05373 0.718 255 84 0
2.938209 -18.095175 0.717 255 84 0
2.986844 -18.345543 0.715 255 84 0
2.442736 -18.14687 0.716 255 84 0
2.751759 -18.384008 0.714 255 84 0
2.931356 -18.231974 0.716 255 84 0
2.811116 -18.223459 0.716 255 84 0
2.911699 -18.288176 0.716 255 84 0
3.105234 -18.126408 0.717 255 84 0
2.718206 -18.090822 0.717 255 84 0
2.861106 -18.11874 0.717 255 84 0
2.999879 -18.042423 0.718 255 84 0
2.709783 -18.316607 0.715 255 84 0
2.56945 -18.127258 0.716 255 84 0
2.517381 -18.152355 0.716 255 84 0
2.702048 -18.33399 0.715 255 84 0
2.733399 -18.387001 0.714 255 84 0
2.436643 -18.242529 0.715 255 84 0
2.909543 -18.33646 0.715 255 84 0
2.244334 -18.183825 0.715 255 84 0
3.123097 -18.012053 0.719 255 84 0
2.954331 -18.327854 0.715 255 84 0
2.48589 -18.176714 0.716 255 84 0
2.423596 -18.252716 0.715 255 84 0
2.710908 -18.109549 0.717 255 84 0
2.536614 -18.152054 0.716 255 84 0
3.080642 -18.066738 0.718 255 84 0
2.857754 -18.206818 0.716 255 84 0
2.787564 -18.203602 0.716 255 84 0
2.939252 -18.075504 0.718 255 84 0
3.04347 -18.073612 0.718 255 84 0
2.989038 -18.233307 0.716 255 84 0
3.003145 -18.201214 0.717 255 84 0
2.937156 -18.233807 0.716 255 84 0
2.880793 -18.353235 0.715 255 84 0
2.655309 -18.128357 0.716 255 84 0
3.004198 -18.298269 0.716 255 84 0
2.557867 -18.121357 0.716 255 84 0
2.924614 -18.236395 0.716 255 84 0
2.80221 -18.395126 0.714 255 84 0
2.550119 -18.317184 0.714 255 84 0
2.940767 -18.288397 0.716 255 84 0
3.049792 -18.065611 0.718 255 84 0
2.708706 -18.105061 0.717 255 84 0
2.668046 -18.217899 0.716 255 84 0
2.927804 -18.287403 0.716 255 84 0
2.847206 -18.06452 0.717 255 84 0
2.996127 -18.300892 0.716 255 84 0
2.559412 -18.153568 0.716 255 84 0
2.334106 -18.258745 0.714 255 84 0
3.169616 -18.011065 0.719 255 84 0
3.00519 -18.285307 0.716 255 84 0
3.025798 -18.103889 0.717 255 84 0
2.705786 -18.253965 0.715 255 84 0
2.421852 -18.187855 0.715 255 84 0
2.966868 -18.384748 0.715 255 84 0
2.956206 -18.434309 0.714 255 84 0
2.962465 -18.375771 0.715 255 84 0
2.612796 -18.308714 0.715 255 84 0
2.748814 -18.182735 0.716 255 84 0
2.18386 -18.196783 0.715 255 84 0
2.453907 -18.265917 0.715 255 84 0
2.575835 -18.169794 0.716 255 84 0
2.623877 -18.262735 0.715 255 84 0
2.792813 -18.160261 0.716 255 84 0
2.465911 -18.275398 0.715 255 84 0
2.903697 -18.281853 0.716 255 84 0
2.656543 -18.2603 0.715 255 84 0
2.441383 -18.266268 0.715 255 84 0
2.759408 -18.377806 0.714 255 84 0
2.395254 -18.215828 0.715 255 84 0
2.616877 -18.360176 0.714 255 84 0
2.312102 -18.21162 0.715 255 84 0
3.099603 -18.102213 0.718 255 84 0
2.619995 -18.243921 0.715 255 84 0
2.465915 -18.215918 0.715 255 84 0
3.152669 -18.004673 0.719 255 84 0
3.066242 -18.196325 0.717 255 84 0
2.659361 -18.124811 0.716 255 84 0
2.693194 -18.26326 0.715 255 84 0
2.44081 -18.282812 0.714 255 84 0
2.270661 -18.191628 0.715 255 84 0
2.767584 -18.302286 0.715 255 84 0
3.004359 -18.159184 0.717 255 84 0
3.036563 -18.276602 0.716 255 84 0
2.488157 -18.231739 0.715 255 84 0
2.875578 -18.392105 0.715 255 84 0
2.822352 -18.157354 0.717 255 84 0
3.027215 -18.270716 0.716 255 84 0
3.103354 -18.079433 0.718 255 84 0
2.234415 -18.194483 0.715 255 84 0
3.008903 -18.326481 0.715 255 84 0
2.887183 -18.100601 0.717 255 84 0
2.977634 -18.086082 0.718 255 84 0
2.391911 -18.184944 0.715 255 84 0
2.899708 -18.335938 0.715 255 84 0
2.611968 -18.358797 0.714 255 84 0
2.838356 -18.405685 0.714 255 84 0
2.454497 -18.247137 0.715 255 84 0
3.125091 -18.102856 0.718 255 84 0
2.606079 -18.191938 0.716 255 84 0
2.801485 -18.196104 0.716 255 84 0
2.596396 -18.171291 0.716 255 84 0
3.002025 -18.348789 0.715 255 84 0
2.775637 -18.301901 0.715 255 84 0
2.600062 -18.159691 0.716 255 84 0
2.994465 -18.048643 0.718 255 84 0
2.718147 -18.216492 0.716 255 84 0
2.707446 -18.094316 0.717 255 84 0
3.028777 -18.065002 0.718 255 84 0
2.701675 -18.383183 0.714 255 84 0
2.979347 -18.331623 0.715 255 84 0
2.908287 -18.266235 0.716 255 84 0
2.421585 -18.16415 0.716 255 84 0
2.791854 -18.168751 0.716 255 84 0
2.411881 -18.205221 0.715 255 84 0
2.75211 -18.396534 0.714 255 84 0
2.435069 -18.155308 0.716 255 84 0
2.232178 -18.194466 0.715 255 84 0
2.90712 -18.361038 0.715 255 84 0
2.871544 -18.393415 0.714 255 84 0
2.997647 -18.218613 0.716 255 84 0
2.753778 -18.117924 0.717 255 84 0
2.614759 -18.10882 0.716 255 84 0
2.780427 -18.318932 0.715 255 84 0
2.566103 -18.155855 0.716 255 84 0
2.735267 -18.141041 0.716 255 84 0
2.528994 -18.213266 0.715 255 84 0
3.078342 -18.016184 0.718 255 84 0
3.020995 -18.265303 0.716 255 84 0
2.639636 -18.189957 0.716 255 84 0
2.429774 -18.145876 0.716 255 84 0
2.716199 -18.178463 0.716 255 84 0
3.076853 -18.153471 0.717 255 84 0
2.534429 -18.14533 0.716 255 84 0
2.806522 -18.062868 0.717 255 84 0
2.554074 -18.26757 0.715 255 84 0
2.666731 -18.273346 0.715 255 84 0
2.835338 -18.272837 0.715 255 84 0
3.056054 -18.183279 0.717 255 84 0
2.816521 -18.336201 0.715 255 84 0
3.070739 -18.075161 0.718 255 84 0
2.72491 -18.150354 0.716 255 84 0
2.865005 -18.371004 0.715 255 84 0
2.806891 -18.073158 0.717 255 84 0
2.48864 -18.285858 0.715 255 84 0
2.766468 -18.154694 0.716 255 84 0
2.390073 -18.250225 0.715 255 84 0
2.948038 -18.390865 0.715 255 84 0
2.51789 -18.320963 0.714 255 84 0
2.719165 -18.31802 0.715 255 84 0
3.0658 -18.018772 0.718 255 84 0
2.836514 -18.059072 0.717 255 84 0
3.080544 -18.020674 0.718 255 84 0
2.978477 -18.269451 0.716 255 84 0
2.716296 -18.224527 0.716 255 84 0
2.353661 -18.21596 0.715 255 84 0
2.939803 -18.356367 0.715 255 84 0
2.589413 -18.266499 0.715 255 84 0
2.9953 -18.115286 0.717 255 84 0
2.981129 -18.096842 0.717 255 84 0
2.774806 -18.175777 0.716 255 84 0
2.908024 -18.418737 0.714 255 84 0
2.883823 -18.071953 0.717 255 84 0
2.89802 -18.204887 0.716 255 84 0
3.037046 -18.09503 0.718 255 84 0
2.559971 -18.315468 0.714 255 84 0
2.693559 -18.097343 0.717 255 84 0
3.01217 -18.249582 0.716 255 84 0
2.930639 -18.385366 0.715 255 84 0
2.805405 -18.150965 0.717 255 84 0
3.100613 -18.087015 0.718 255 84 0
2.853995 -18.112871 0.717 255 84 0
2.923846 -18.160809 0.717 255 84 0
2.980573 -18.346838 0.715 255 84 0
2.87874 -18.152414 0.717 255 84 0
2.853486 -18.179951 0.716 255 84 0
2.627684 -18.173765 0.716 255 84 0
2.868756 -18.348225 0.715 255 84 0
2.894498 -18.315325 0.715 255 84 0
2.837359 -18.242441 0.716 255 84 0
2.630153 -18.20196 0.716 255 84 0
3.045448 -18.166651 0.717 255 84 0
2.682388 -18.213984 0.716 255 84 0
2.799711 -18.311922 0.715 255 84 0
2.447925 -18.229198 0.715 255 84 0
3.033953 -18.090088 0.718 255 84 0
3.004347 -18.101938 0.717 255 84 0
2.972639 -18.331572 0.715 255 84 0
2.662391 -18.314905 0.715 255 84 0
2.486107 -18.207127 0.715 255 84 0
2.667749 -18.374874 0.714 255 84 0
2.630395 -18.111174 0.716 255 84 0
2.711532 -18.321987 0.715 255 84 0
2.738724 -18.215754 0.716 255 84 0
2.71367 -18.275938 0.715 255 84 0
2.597338 -18.165037 0.716 255 84 0
2.706911 -18.282595 0.715 255 84 0
2.909204 -18.145491 0.717 255 84 0
2.695464 -18.258806 0.715 255 84 0
2.7202 -18.181623 0.716 255 84 0
3.029409 -18.158478 0.717 255 84 0
2.661699 -18.347099 0.714 255 84 0
2.940347 -18.049126 0.718 255 84 0
2.346652 -18.196676 0.715 255 84 0
2.925581 -18.108942 0.717 255 84 0
2.79196 -18.095854 0.717 255 84 0
2.895406 -18.313543 0.715 255 84 0
2.903208 -18.051527 0.718 255 84 0
2.942239 -18.153345 0.717 255 84 0
2.717934 -18.362286 0.714 255 84 0
2.318657 -18.231796 0.715 255 84 0
2.831135 -18.296509 0.715 255 84 0
2.787797 -18.231779 0.716 255 84 0
3.128654 -18.104671 0.718 255 84 0
2.735359 -18.246586 0.715 255 84 0
3.010278 -18.145363 0.717 255 84 0
2.86134 -18.382605 0.715 255 84 0
2.338348 -18.171122 0.715 255 84 0
2.95372 -18.40835 0.715 255 84 0
2.304808 -18.170868 0.715 255 84 0
2.941204 -18.054052 0.718 255 84 0
2.923532 -18.320019 0.715 255 84 0
2.861068 -18.182693 0.716 255 84 0
2.743633 -18.217133 0.716 255 84 0
2.909437 -18.409355 0.714 255 84 0
2.901604 -18.380674 0.715 255 84 0
2.84525 -18.145452 0.717 255 84 0
2.992861 -18.377789 0.715 255 84 0
3.021267 -18.229527 0.716 255 84 0
2.416099 -18.238796 0.715 255 84 0
2.653599 -18.294712 0.715 255 84 0
3.155155 -18.030632 0.718 255 84 0
2.813497 -18.086626 0.717 255 84 0
2.819263 -18.328617 0.715 255 84 0
2.874068 -18.119732 0.717 255 84 0
2.96529 -18.357008 0.715 255 84 0
3.061078 -18.228487 0.716 255 84 0
2.61123 -18.102531 0.717 255 84 0
3.016926 -18.271084 0.716 255 84 0
2.826896 -18.324652 0.715 255 84 0
2.759934 -18.308491 0.715 255 84 0
2.372661 -18.187483 0.715 255 84 0
2.734647 -18.104811 0.717 255 84 0
2.687202 -18.345505 0.714 255 84 0
2.977196 -18.084738 0.718 255 84 0
2.778005 -18.107822 0.717 255 84 0
3.046185 -18.187227 0.717 255 84 0
2.972436 -18.122715 0.717 255 84 0
2.527479 -18.236063 0.715 255 84 0
2.801862 -18.32312 0.715 255 84 0
2.639335 -18.170723 0.716 255 84 0
2.584296 -18.115744 0.716 255 84 0
3.021505 -18.198223 0.717 255 84 0
3.004313 -18.106409 0.717 255 84 0
2.882503 -18.18688 0.716 255 84 0
2.710602 -18.149797 0.716 255 84 0
2.301562 -18.186049 0.715 255 84 0
3.104249 -18.020407 0.718 255 84 0
2.815478 -18.355869 0.715 255 84 0
2.950648 -18.341692 0.715 255 84 0
3.073866 -18.075632 0.718 255 84 0
2.940763 -18.112188 0.717 255 84 0
2.792774 -18.224215 0.716 255 84 0
2.613457 -18.22151 0.715 255 84 0
2.896759 -18.429832 0.714 255 84 0
2.983013 -18.320023 0.715 255 84 0
2.9252 -18.277098 0.716 255 84 0
3.021466 -18.262175 0.716 255 84 0
3.044408 -18.126839 0.717 255 84 0
2.662764 -18.265713 0.715 255 84 0
2.76055 -18.168512 0.716 255 84 0
2.493718 -18.264877 0.715 255 84 0
2.978299 -18.410774 0.715 255 84 0
2.865842 -18.20196 0.716 255 84 0
2.80306 -18.283325 0.715 255 84 0
2.664423 -18.106066 0.717 255 84 0
2.988371 -18.379992 0.715 255 84 0
3.02198 -18.135612 0.717 255 84 0
2.77316 -18.392668 0.714 255 84 0
3.032091 -18.040878 0.718 255 84 0
2.554307 -18.295748 0.715 255 84 0
2.986395 -18.286953 0.716 255 84 0
3.026604 -18.115524 0.717 255 84 0
2.558796 -18.293547 0.715 255 84 0
2.254016 -18.20447 0.715 255 84 0
2.501105 -18.175488 0.716 255 84 0
2.665037 -18.201777 0.716 255 84 0
2.731859 -18.295307 0.715 255 84 0
3.042953 -18.259655 0.716 255 84 0
2.989259 -18.204239 0.716 255 84 0
2.975422 -18.200556 0.716 255 84 0
2.244567 -18.212002 0.715 255 84 0
2.957623 -18.365446 0.715 255 84 0
2.962338 -18.039007 0.718 255 84 0
2.852527 -18.188442 0.716 255 84 0
2.93892 -18.472639 0.714 255 84 0
3.059619 -18.185095 0.717 255 84 0
2.848687 -18.281883 0.715 255 84 0
2.605243 -18.125294 0.716 255 84 0
2.70235 -18.117535 0.717 255 84 0
2.607954 -18.298391 0.715 255 84 0
2.523873 -18.121994 0.716 255 84 0
2.680066 -18.225147 0.716 255 84 0
2.610063 -18.197334 0.716 255 84 0
2.964395 -18.416035 0.714 255 84 0
2.770432 -18.221807 0.716 255 84 0
3.009089 -18.301884 0.716 255 84 0
3.121934 -18.047375 0.718 255 84 0
3.017024 -18.081463 0.718 255 84 0
2.377722 -18.168737 0.715 255 84 0
2.968448 -18.1768 0.717 255 84 0
2.49996 -18.208574 0.715 255 84 0
2.985614 -18.389809 0.715 255 84 0
2.420236 -18.22407 0.715 255 84 0
2.836433 -18.24646 0.716 255 84 0
2.76758 -18.12608 0.717 255 84 0
3.019468 -18.230854 0.716 255 84 0
2.974103 -18.079794 0.718 255 84 0
2.685748 -18.242632 0.715 255 84 0
2.370704 -18.268415 0.714 255 84 0
2.28448 -18.197546 0.715 255 84 0
2.609766 -18.354309 0.714 255 84 0
2.400697 -18.264618 0.715 255 84 0
3.053695 -18.258394 0.716 255 84 0
3.000485 -18.257095 0.716 255 84 0
2.793088 -18.065002 0.717 255 84 0
3.048468 -18.240019 0.716 255 84 0
2.816258 -18.253014 0.716 255 84 0
2.938174 -18.099648 0.717 255 84 0
2.713564 -18.113146 0.717 255 84 0
2.481647 -18.264338 0.715 255 84 0
2.404096 -18.229313 0.715 255 84 0
2.511666 -18.139343 0.716 255 84 0
2.977043 -18.340549 0.715 255 84 0
2.386544 -18.243938 0.715 255 84 0
2.92374 -18.233706 0.716 255 84 0
2.704934 -18.189558 0.716 255 84 0
2.951768 -18.429804 0.714 255 84 0
3.081694 -18.163795 0.717 255 84 0
2.911193 -18.295774 0.715 255 84 0
2.585421 -18.144375 0.716 255 84 0
2.877734 -18.108131 0.717 255 84 0
2.364556 -18.194576 0.715 255 84 0
2.484185 -18.283588 0.715 255 84 0
2.549912 -18.167809 0.716 255 84 0
2.493549 -18.287237 0.715 255 84 0
2.357895 -18.247299 0.715 255 84 0
2.956923 -18.045227 0.718 255 84 0
3.1147 -18.11664 0.718 255 84 0
2.584775 -18.229343 0.715 255 84 0
2.301512 -18.192757 0.715 255 84 0
2.872138 -18.079468 0.717 255 84 0
2.447242 -18.142431 0.716 255 84 0
2.310455 -18.192823 0.715 255 84 0
3.076013 -18.146311 0.717 255 84 0
2.891133 -18.346159 0.715 255 84 0
2.849553 -18.167847 0.716 255 84 0
2.561015 -18.295799 0.715 255 84 0
2.463917 -18.184597 0.715 255 84 0
2.56183 -18.188471 0.716 255 84 0
2.5532 -18.264881 0.715 255 84 0
2.514296 -18.264139 0.715 255 84 0
2.708549 -18.184666 0.716 255 84 0
2.802109 -18.408543 0.714 255 84 0
2.488381 -18.14319 0.716 255 84 0
2.656722 -18.354666 0.714 255 84 0
2.584317 -18.289715 0.715 255 84 0
2.537586 -18.200809 0.715 255 84 0
2.912207 -18.456783 0.714 255 84 0
2.929956 -18.062912 0.718 255 84 0
2.953385 -18.157902 0.717 255 84 0
2.770868 -18.223152 0.716 255 84 0
2.386899 -18.196981 0.715 255 84 0
2.931877 -18.457827 0.714 255 84 0
2.693639 -18.145643 0.716 255 84 0
2.519753 -18.134483 0.716 255 84 0
2.46866 -18.148855 0.716 255 84 0
2.553127 -18.333305 0.714 255 84 0
2.942904 -18.478037 0.714 255 84 0
3.090626 -18.106617 0.718 255 84 0
2.479212 -18.231672 0.715 255 84 0
2.894392 -18.152534 0.717 255 84 0
2.289928 -18.186853 0.715 255 84 0
2.586192 -18.16048 0.716 255 84 0
2.834588 -18.195015 0.716 255 84 0
2.262694 -18.180834 0.715 255 84 0
2.284595 -18.241375 0.714 255 84 0
2.723759 -18.24292 0.716 255 84 0
2.863847 -18.346846 0.715 255 84 0
3.109443 -18.043255 0.718 255 84 0
3.064561 -18.182001 0.717 255 84 0
2.873338 -18.215879 0.716 255 84 0
3.047306 -18.039652 0.718 255 84 0
2.729254 -18.285002 0.715 255 84 0
2.681599 -18.200113 0.716 255 84 0
2.807515 -18.285595 0.715 255 84 0
3.045176 -18.202427 0.717 255 84 0
2.389912 -18.153624 0.716 255 84 0
2.813628 -18.363907 0.715 255 84 0
2.531425 -18.305414 0.714 255 84 0
2.834834 -18.280436 0.715 255 84 0
2.301575 -18.243294 0.715 255 84 0
2.309717 -18.172245 0.715 255 84 0
2.813221 -18.181883 0.716 255 84 0
2.57301 -18.188557 0.716 255 84 0
2.834953 -18.264784 0.716 255 84 0
2.74715 -18.401863 0.714 255 84 0
2.902233 -18.062254 0.718 255 84 0
2.897794 -18.057749 0.718 255 84 0
2.906908 -18.271145 0.716 255 84 0
2.837061 -18.399414 0.714 255 84 0
2.680291 -18.372286 0.714 255 84 0
2.839425 -18.264818 0.716 255 84 0
3.024962 -18.037247 0.718 255 84 0
2.306165 -18.227674 0.715 255 84 0
2.837596 -18.211136 0.716 255 84 0
2.951072 -18.285791 0.716 255 84 0
2.591335 -18.190037 0.716 255 84 0
2.54036 -18.188755 0.716 255 84 0
2.929969 -18.355844 0.715 255 84 0
3.03882 -18.214901 0.717 255 84 0
2.709813 -18.135927 0.716 255 84 0
2.79277 -18.283693 0.715 255 84 0
2.813055 -18.380449 0.714 255 84 0
2.417194 -18.212418 0.715 255 84 0
2.480001 -18.245543 0.715 255 84 0
2.798947 -18.412542 0.714 255 84 0
3.067337 -18.169947 0.717 255 84 0
2.326188 -18.241243 0.715 255 84 0
2.659411 -18.35379 0.714 255 84 0
2.230498 -18.180141 0.715 255 84 0
2.962663 -18.408419 0.715 255 84 0
2.516647 -18.307985 0.714 255 84 0
2.393989 -18.264566 0.715 255 84 0
2.854882 -18.172806 0.716 255 84 0
2.863075 -18.33074 0.715 255 84 0
2.683978 -18.298969 0.715 255 84 0
2.895088 -18.060858 0.718 255 84 0
2.479543 -18.305914 0.714 255 84 0
2.769095 -18.33897 0.715 255 84 0
2.994829 -18.118414 0.717 255 84 0
2.894782 -18.336794 0.715 255 84 0
2.442222 -18.273432 0.715 255 84 0
2.895961 -18.299236 0.715 255 84 0
2.676948 -18.105713 0.717 255 84 0
2.968651 -18.149967 0.717 255 84 0
2.543306 -18.154341 0.716 255 84 0
2.855973 -18.20591 0.716 255 84 0
2.337979 -18.160833 0.715 255 84 0
2.963598 -18.049751 0.718 255 84 0
2.707225 -18.359074 0.714 255 84 0
2.823981 -18.414074 0.714 255 84 0
2.786813 -18.361467 0.715 255 84 0
2.981969 -18.339693 0.715 255 84 0
2.960249 -18.314035 0.715 255 84 0
3.014414 -18.130636 0.717 255 84 0
2.575907 -18.337057 0.714 255 84 0
2.887688 -18.328691 0.715 255 84 0
2.901236 -18.370386 0.715 255 84 0
2.463429 -18.18996 0.715 255 84 0
2.679612 -18.226038 0.716 255 84 0
2.926192 -18.264135 0.716 255 84 0
2.812474 -18.280266 0.715 255 84 0
2.866037 -18.29409 0.715 255 84 0
2.548931 -18.238016 0.715 255 84 0
2.708141 -18.238329 0.716 255 84 0
2.401983 -18.154163 0.716 255 84 0
2.942141 -18.107281 0.717 255 84 0
2.993345 -18.196218 0.717 255 84 0
2.94047 -18.209682 0.716 255 84 0
3.06213 -18.089853 0.718 255 84 0
3.118905 -18.092968 0.718 255 84 0
2.903997 -18.065397 0.718 255 84 0
2.591738 -18.195854 0.716 255 84 0
2.740646 -18.374981 0.714 255 84 0
2.953992 -18.136887 0.717 255 84 0
2.398177 -18.243132 0.715 255 84 0
2.541052 -18.156561 0.716 255 84 0
2.928912 -18.082581 0.717 255 84 0
2.675904 -18.125383 0.716 255 84 0
2.846582 -18.32346 0.715 255 84 0
2.741962 -18.083845 0.717 255 84 0
2.945595 -18.241474 0.716 255 84 0
3.105603 -18.136696 0.717 255 84 0
2.512247 -18.239525 0.715 255 84 0
2.840002 -18.188793 0.716 255 84 0
2.511297 -18.129053 0.716 255 84 0
2.823535 -18.060316 0.717 255 84 0
2.273873 -18.180918 0.715 255 84 0
2.493799 -18.313179 0.714 255 84 0
2.345221 -18.208294 0.715 255 84 0
3.001321 -18.088051 0.718 255 84 0
3.100091 -18.096851 0.718 255 84 0
2.497406 -18.191559 0.715 255 84 0
2.88846 -18.109108 0.717 255 84 0
3.026829 -18.026974 0.718 255 84 0
2.982015 -18.156776 0.717 255 84 0
2.872727 -18.296377 0.715 255 84 0
2.520509 -18.152826 0.716 255 84 0
2.535379 -18.2558 0.715 255 84 0
2.53776 -18.118969 0.716 255 84 0
2.831643 -18.229427 0.716 255 84 0
2.837719 -18.371693 0.715 255 84 0
2.581454 -18.136742 0.716 255 84 0
3.04411 -18.283813 0.716 255 84 0
2.997608 -18.282566 0.716 255 84 0
2.921359 -18.370539 0.715 255 84 0
2.979796 -18.390213 0.715 255 84 0
2.67447 -18.196482 0.716 255 84 0
2.738257 -18.159399 0.716 255 84 0
2.698307 -18.237806 0.715 255 84 0
2.448896 -18.277952 0.715 255 84 0
2.654282 -18.145792 0.716 255 84 0
3.060929 -18.189129 0.717 255 84 0
2.868467 -18.150549 0.717 255 84 0
2.63196 -18.317358 0.715 255 84 0
2.894027 -18.318453 0.715 255 84 0
2.879469 -18.291956 0.715 255 84 0
2.846714 -18.129364 0.717 255 84 0
2.334122 -18.25651 0.714 255 84 0
2.916522 -18.300734 0.715 255 84 0
2.784747 -18.33909 0.715 255 84 0
2.628253 -18.216703 0.716 255 84 0
3.1147 -18.11664 0.718 255 84 0
3.011687 -18.195465 0.717 255 84 0
2.505017 -18.24931 0.715 255 84 0
2.670775 -18.153072 0.716 255 84 0
2.724777 -18.344448 0.715 255 84 0
2.370208 -18.157053 0.715 255 84 0
2.559165 -18.303835 0.715 255 84 0
2.555949 -18.138338 0.716 255 84 0
2.734617 -18.285488 0.715 255 84 0
2.675433 -18.364199 0.714 255 84 0
2.851933 -18.266701 0.716 255 84 0
2.947687 -18.142653 0.717 255 84 0
3.029553 -18.257317 0.716 255 84 0
2.634935 -18.337952 0.714 255 84 0
2.548893 -18.301968 0.715 255 84 0
3.121247 -18.020088 0.718 255 84 0
2.777008 -18.180265 0.716 255 84 0
2.875214 -18.086647 0.717 255 84 0
2.918381 -18.409424 0.714 255 84 0
2.924537 -18.364302 0.715 255 84 0
2.902419 -18.273346 0.716 255 84 0
2.857449 -18.247066 0.716 255 84 0
3.030032 -18.135227 0.717 255 84 0
2.948336 -18.46958 0.714 255 84 0
2.857372 -18.374971 0.715 255 84 0
2.65864 -18.101997 0.717 255 84 0
2.885015 -18.09164 0.717 255 84 0
2.672081 -18.216589 0.716 255 84 0
2.540119 -18.279541 0.715 255 84 0
2.516129 -18.258339 0.715 255 84 0
3.083192 -18.143234 0.717 255 84 0
2.947254 -18.317514 0.715 255 84 0
2.961154 -18.136045 0.717 255 84 0
2.419595 -18.249556 0.715 255 84 0
3.042744 -18.110279 0.717 255 84 0
2.903929 -18.31003 0.715 255 84 0
2.53014 -18.180182 0.716 255 84 0
2.927075 -18.383551 0.715 255 84 0
2.471074 -18.243238 0.715 255 84 0
2.740612 -18.143764 0.716 255 84 0
2.586138 -18.226669 0.715 255 84 0
2.961934 -18.268879 0.716 255 84 0
2.928743 -18.104942 0.717 255 84 0
2.909301 -18.191555 0.716 255 84 0
2.883865 -18.184206 0.716 255 84 0
2.874785 -18.437716 0.714 255 84 0
2.896382 -18.067129 0.718 255 84 0
2.807675 -18.382198 0.714 255 84 0
2.623326 -18.21756 0.715 255 84 0
2.739717 -18.202791 0.716 255 84 0
2.651511 -18.334053 0.715 255 84 0
2.987748 -18.167555 0.717 255 84 0
2.931271 -18.243155 0.716 255 84 0
3.063696 -18.060349 0.718 255 84 0
2.653866 -18.318419 0.715 255 84 0
3.0319 -18.124956 0.717 255 84 0
3.013057 -18.07383 0.718 255 84 0
2.834333 -18.228554 0.716 255 84 0
2.689158 -18.264572 0.715 255 84 0
2.607097 -18.293467 0.715 255 84 0
2.671118 -18.284561 0.715 255 84 0
3.093867 -18.150917 0.717 255 84 0
2.413078 -18.165428 0.715 255 84 0
2.933651 -18.106319 0.717 255 84 0
2.363904 -18.162819 0.715 255 84 0
2.438039 -18.235384 0.715 255 84 0
2.826612 -18.303183 0.715 255 84 0
2.95683 -18.175369 0.717 255 84 0
2.699605 -18.184597 0.716 255 84 0
2.917384 -18.24618 0.716 255 84 0
3.10346 -18.006536 0.719 255 84 0
2.78322 -18.304642 0.715 255 84 0
2.95627 -18.249157 0.716 255 84 0
2.552716 -18.210764 0.715 255 84 0
2.888345 -18.300968 0.715 255 84 0
2.556603 -18.170095 0.716 255 84 0
3.136024 -18.017517 0.719 255 84 0
3.068936 -18.135971 0.717 255 84 0
2.909323 -18.129839 0.717 255 84 0
2.77742 -18.302809 0.715 255 84 0
3.002501 -18.050493 0.718 255 84 0
2.299407 -18.234331 0.715 255 84 0
2.598912 -18.252258 0.715 255 84 0
3.020457 -18.041685 0.718 255 84 0
3.000532 -18.074181 0.718 255 84 0
2.770606 -18.139967 0.717 255 84 0
2.89219 -18.148045 0.717 255 84 0
3.061103 -18.107288 0.718 255 84 0
2.4447 -18.182661 0.715 255 84 0
2.636038 -18.192612 0.716 255 84 0
2.820247 -18.198931 0.716 255 84 0
2.357798 -18.201233 0.715 255 84 0
2.92111 -18.10891 0.717 255 84 0
2.884188 -18.141724 0.717 255 84 0
2.360589 -18.186943 0.715 255 84 0
3.112952 -18.111259 0.718 255 84 0
3.014733 -18.147633 0.717 255 84 0
2.942468 -18.47669 0.714 255 84 0
2.756807 -18.30802 0.715 255 84 0
2.307901 -18.17581 0.715 255 84 0
2.952481 -18.100203 0.717 255 84 0
2.889271 -18.061262 0.718 255 84 0
3.011016 -18.165943 0.717 255 84 0
2.975516 -18.306101 0.716 255 84 0
2.920837 -18.380373 0.715 255 84 0
2.718082 -18.165955 0.716 255 84 0
2.617199 -18.317694 0.715 255 84 0
2.878887 -18.427462 0.714 255 84 0
2.474036 -18.206589 0.715 255 84 0
2.582369 -18.251686 0.715 255 84 0
2.862493 -18.230556 0.716 255 84 0
2.980887 -18.187628 0.717 255 84 0
2.700822 -18.318773 0.715 255 84 0
2.747592 -18.108038 0.717 255 84 0
2.863419 -18.226538 0.716 255 84 0
2.470599 -18.305847 0.714 255 84 0
2.802389 -18.253803 0.716 255 84 0
3.168152 -18.027153 0.719 255 84 0
2.678293 -18.340965 0.715 255 84 0
2.957221 -18.359631 0.715 255 84 0
2.736454 -18.220207 0.716 255 84 0
3.037263 -18.125444 0.717 255 84 0
2.547158 -18.118145 0.716 255 84 0
2.890569 -18.243738 0.716 255 84 0
2.89322 -18.071131 0.717 255 84 0
2.69885 -18.166256 0.716 255 84 0
2.621739 -18.308783 0.715 255 84 0
3.021547 -18.310476 0.716 255 84 0
2.693745 -18.308435 0.715 255 84 0
2.316761 -18.187057 0.715 255 84 0
3.068846 -18.206633 0.717 255 84 0
2.836196 -18.277763 0.715 255 84 0
3.132744 -18.03717 0.718 255 84 0
2.89597 -18.415962 0.714 255 84 0
2.513711 -18.223436 0.715 255 84 0
2.794396 -18.128519 0.717 255 84 0
2.643332 -18.233364 0.715 255 84 0
2.622588 -18.196981 0.716 255 84 0
2.777572 -18.282684 0.715 255 84 0
2.879758 -18.253942 0.716 255 84 0
2.757189 -18.375553 0.714 255 84 0
3.029265 -18.295328 0.716 255 84 0
3.013816 -18.03269 0.718 255 84 0
2.610024 -18.261288 0.715 255 84 0
2.694059 -18.384912 0.714 255 84 0
2.888498 -18.280844 0.716 255 84 0
2.849218 -18.388773 0.714 255 84 0
2.737112 -18.192486 0.716 255 84 0
3.055248 -18.171644 0.717 255 84 0
2.949218 -18.353308 0.715 255 84 0
2.691538 -18.363426 0.714 255 84 0
1.662715 -18.036743 0.684 255 84 0
1.566032 -17.988605 0.686 255 84 0
1.45385 -17.920221 0.669 255 84 0
1.485387 -17.948635 0.687 255 84 0
1.623039 -18.019896 0.688 255 84 0
1.529064 -17.968645 0.685 255 84 0
1.411603 -17.888596 0.653 255 84 0
1.48764 -17.946417 0.682 255 84 0
1.619963 -18.012716 0.681 255 84 0
1.412779 -17.910519 0.686 255 84 0
1.344205 -17.871088 0.68 255 84 0
1.414595 -17.906954 0.679 255 84 0
1.513564 -17.948402 0.666 255 84 0
1.41515 -17.892647 0.657 255 84 0
1.698321 -18.059376 0.691 255 84 0
1.560754 -17.976936 0.673 255 84 0
1.523802 -17.954741 0.667 255 84 0
1.404526 -17.878254 0.643 255 84 0
1.489877 -17.946434 0.681 255 84 0
1.467165 -17.933739 0.68 255 84 0
1.551407 -17.97105 0.671 255 84 0
1.565225 -17.976971 0.669 255 84 0
1.623477 -18.02124 0.691 255 84 0
1.437846 -17.907578 0.662 255 84 0
1.581179 -17.996323 0.685 255 84 0
1.63906 -18.030304 0.691 255 84 0
1.615912 -18.016264 0.689 255 84 0
1.411183 -17.885014 0.648 255 84 0
1.600799 -18.004074 0.682 255 84 0
1.40624 -17.888107 0.657 255 84 0
1.600799 -18.004074 0.682 255 84 0
1.627948 -18.021275 0.686 255 84 0
1.536175 -17.974514 0.687 255 84 0
1.362547 -17.870333 0.664 255 84 0
1.516641 -17.955582 0.673 255 84 0
1.412461 -17.89352 0.66 255 84 0
1.418159 -17.90877 0.68 255 84 0
1.361673 -17.867643 0.661 255 84 0
1.609288 -18.005033 0.676 255 84 0
1.354427 -17.879663 0.684 255 84 0
1.413318 -17.898447 0.667 255 84 0
1.541623 -17.963821 0.667 255 84 0
1.634674 -18.019089 0.679 255 84 0
1.553171 -17.974195 0.673 255 84 0
1.629748 -18.019947 0.684 255 84 0
1.451245 -17.909916 0.656 255 84 0
1.555777 -17.984501 0.687 255 84 0
1.408964 -17.882761 0.646 255 84 0
1.510874 -17.949276 0.669 255 84 0
1.634639 -18.023561 0.685 255 84 0
1.634236 -18.017744 0.677 255 84 0
1.472191 -17.919466 0.653 255 84 0
1.492231 -17.930799 0.655 255 84 0
1.431541 -17.913343 0.676 255 84 0
1.612835 -18.009085 0.68 255 84 0
1.510789 -17.960457 0.686 255 84 0
1.364211 -17.886894 0.688 255 84 0
1.415065 -17.903828 0.675 255 84 0
1.38089 -17.869577 0.649 255 84 0
1.526895 -17.959684 0.672 255 84 0
1.377224 -17.881178 0.669 255 84 0
1.376804 -17.877598 0.664 255 84 0
1.531351 -17.961954 0.673 255 84 0
1.411603 -17.888596 0.654 255 84 0
1.626637 -18.017239 0.682 255 84 0
1.407013 -17.904213 0.681 255 84 0
1.437761 -17.918756 0.679 255 84 0
1.394135 -17.89204 0.672 255 84 0
1.443998 -17.921936 0.679 255 84 0
1.416377 -17.907862 0.679 255 84 0
1.473015 -17.928864 0.667 255 84 0
1.598176 -17.996004 0.671 255 84 0
1.59367 -18.000441 0.681 255 84 0
1.499677 -17.951427 0.68 255 84 0
1.637783 -18.021797 0.681 255 84 0
1.387109 -17.874992 0.651 255 84 0
1.429708 -17.919144 0.686 255 84 0
1.594981 -18.004477 0.687 255 84 0
1.643532 -18.030336 0.689 255 84 0
1.604816 -18.004999 0.679 255 84 0
1.481522 -17.927586 0.659 255 84 0
1.433827 -17.906652 0.664 255 84 0
1.509109 -17.946133 0.665 255 84 0
1.626637 -18.017239 0.682 255 84 0
1.705449 -18.063007 0.691 255 84 0
1.338372 -17.873728 0.689 255 84 0
1.57896 -17.994068 0.683 255 84 0
1.514002 -17.949747 0.667 255 84 0
1.454287 -17.921566 0.67 255 84 0
1.392456 -17.877716 0.652 255 84 0
1.538411 -17.974531 0.686 255 84 0
1.577178 -17.99316 0.683 255 84 0
1.52197 -17.960543 0.677 255 84 0
1.412057 -17.887703 0.652 255 84 0
1.646256 -18.02499 0.679 255 84 0
1.422614 -17.911039 0.679 255 84 0
1.447511 -17.93046 0.689 255 84 0
1.553591 -17.977776 0.678 255 84 0
1.515227 -17.964962 0.69 255 84 0
1.725942 -18.073448 0.69 255 84 0
1.561224 -17.973808 0.666 255 84 0
1.546464 -17.974144 0.678 255 84 0
1.411082 -17.89843 0.668 255 84 0
1.492617 -17.938852 0.666 255 84 0
1.586071 -17.999937 0.687 255 84 0
1.545187 -17.965637 0.667 255 84 0
1.636421 -18.024469 0.685 255 84 0
1.405316 -17.892124 0.664 255 84 0
1.420445 -17.902079 0.667 255 84 0
1.345097 -17.871542 0.679 255 84 0
1.517464 -17.964979 0.687 255 84 0
1.477521 -17.924427 0.657 255 84 0
1.485892 -17.941036 0.676 255 84 0
1.519717 -17.962761 0.683 255 84 0
1.458373 -17.913548 0.656 255 84 0
1.397331 -17.883568 0.657 255 84 0
1.609271 -18.007269 0.68 255 84 0
1.482748 -17.942802 0.68 255 84 0
1.419941 -17.909678 0.679 255 84 0
1.437913 -17.898634 0.648 255 84 0
1.687209 -18.050346 0.686 255 84 0
1.442806 -17.902248 0.649 255 84 0
1.734398 -18.07888 0.691 255 84 0
1.466375 -17.919868 0.658 255 84 0
1.544682 -17.973236 0.679 255 84 0
1.373711 -17.872654 0.658 255 84 0
1.366565 -17.87126 0.663 255 84 0
1.563444 -17.976063 0.668 255 84 0
1.483321 -17.926258 0.655 255 84 0
1.535402 -17.958406 0.664 255 84 0
1.515681 -17.964071 0.688 255 84 0
1.455144 -17.926493 0.677 255 84 0
1.478781 -17.935169 0.673 255 84 0
1.488616 -17.935692 0.665 255 84 0
1.394623 -17.886677 0.665 255 84 0
1.582574 -17.989178 0.674 255 84 0
1.538462 -17.967823 0.675 255 84 0
1.51491 -17.947966 0.664 255 84 0
1.506891 -17.94388 0.664 255 84 0
1.557139 -17.981827 0.682 255 84 0
1.558013 -17.984518 0.685 255 84 0
1.397313 -17.885803 0.661 255 84 0
1.379409 -17.887903 0.678 255 84 0
1.685261 -18.012318 0.638 255 84 0
1.678837 -18.033735 0.668 255 84 0
1.731305 -18.073936 0.687 255 84 0
1.707838 -18.0429 0.662 255 84 0
1.943217 -18.14263 0.641 255 84 0
1.840716 -18.094893 0.644 255 84 0
1.534109 -17.952137 0.655 255 84 0
1.907945 -18.13476 0.653 255 84 0
2.127251 -18.230789 0.638 255 84 0
1.862368 -18.129494 0.675 255 84 0
1.891334 -18.143131 0.674 255 84 0
1.78502 -18.067636 0.646 255 84 0
1.58098 -17.963673 0.641 255 84 0
1.752876 -18.060236 0.655 255 84 0
1.599975 -17.994677 0.668 255 84 0
1.716243 -18.055038 0.672 255 84 0
1.675274 -18.031919 0.669 255 84 0
1.777858 -18.068476 0.651 255 84 0
1.571162 -17.960915 0.643 255 84 0
1.548784 -17.96298 0.66 255 84 0
1.829485 -18.101517 0.66 255 84 0
1.4963 -17.925016 0.645 255 84 0
1.695449 -18.025366 0.647 255 84 0
1.491862 -17.920509 0.642 255 84 0
1.85457 -18.09634 0.638 255 84 0
1.687396 -18.025751 0.653 255 84 0
1.49277 -17.918728 0.64 255 84 0
1.936928 -18.14616 0.65 255 84 0
1.711033 -18.034428 0.649 255 84 0
1.743041 -18.059715 0.661 255 84 0
1.691715 -18.045908 0.675 255 84 0
1.542128 -17.956223 0.656 255 84 0
1.590764 -17.970903 0.644 255 84 0
1.521282 -17.933256 0.639 255 84 0
2.046136 -18.193947 0.643 255 84 0
1.476261 -17.913683 0.643 255 84 0
1.59552 -17.992407 0.669 255 84 0
2.07021 -18.20397 0.641 255 84 0
1.879784 -18.132757 0.668 255 84 0
1.664565 -18.028708 0.672 255 84 0
1.725306 -18.039455 0.647 255 84 0
1.631716 -17.996258 0.651 255 84 0
1.793306 -18.095428 0.675 255 84 0
1.680336 -18.013174 0.641 255 84 0
1.793493 -18.070831 0.644 255 84 0
1.737241 -18.057882 0.663 255 84 0
1.755498 -18.068308 0.665 255 84 0
1.658328 -18.02553 0.671 255 84 0
1.612029 -17.99745 0.664 255 84 0
2.091543 -18.221573 0.648 255 84 0
1.732701 -18.066792 0.678 255 84 0
1.93476 -18.137199 0.639 255 84 0
1.99439 -18.176561 0.653 255 84 0
1.848702 -18.103451 0.651 255 84 0
1.732888 -18.042196 0.645 255 84 0
1.990792 -18.179216 0.659 255 84 0
1.814708 -18.104088 0.673 255 84 0
1.53463 -17.942301 0.642 255 84 0
1.702911 -18.043756 0.667 255 84 0
1.641886 -18.011541 0.664 255 84 0
1.876777 -18.116634 0.651 255 84 0
1.605423 -17.983984 0.652 255 84 0
1.874507 -18.121088 0.657 255 84 0
1.686085 -18.021715 0.648 255 84 0
1.815598 -18.104542 0.673 255 84 0
1.706595 -18.029922 0.646 255 84 0
1.51496 -17.941257 0.654 255 84 0
1.840262 -18.095783 0.647 255 84 0
1.619259 -17.987667 0.648 255 84 0
1.863713 -18.129057 0.673 255 84 0
2.062628 -18.201229 0.641 255 84 0
1.864739 -18.111624 0.651 255 84 0
1.560907 -17.956812 0.645 255 84 0
1.898581 -18.131111 0.655 255 84 0
1.774561 -18.090366 0.681 255 84 0
1.608516 -17.988928 0.656 255 84 0
1.604549 -17.981295 0.648 255 84 0
2.08218 -18.217924 0.65 255 84 0
1.769216 -18.087643 0.681 255 84 0
1.932961 -18.138527 0.644 255 84 0
1.82624 -18.116697 0.681 255 84 0
1.465098 -17.911362 0.647 255 84 0
1.922287 -18.130842 0.64 255 84 0
1.86168 -18.102209 0.641 255 84 0
2.036335 -18.188953 0.643 255 84 0
1.725623 -18.056452 0.668 255 84 0
1.832057 -18.116295 0.678 255 84 0
2.09652 -18.214008 0.636 255 84 0
1.83969 -18.112328 0.668 255 84 0
1.96455 -18.160233 0.651 255 84 0
1.987346 -18.161749 0.639 255 84 0
1.48117 -17.915062 0.642 255 84 0
1.552382 -17.960325 0.655 255 84 0
1.95648 -18.162857 0.659 255 84 0
1.6454 -18.020065 0.672 255 84 0
1.882072 -18.126066 0.659 255 84 0
2.047901 -18.197092 0.645 255 84 0
1.715437 -18.043406 0.658 255 84 0
1.559158 -17.951431 0.639 255 84 0
1.969509 -18.154903 0.641 255 84 0
2.08714 -18.212595 0.64 255 84 0
1.910987 -18.14641 0.666 255 84 0
1.781439 -18.068056 0.649 255 84 0
1.631699 -17.998493 0.653 255 84 0
2.01532 -18.188347 0.654 255 84 0
1.859007 -18.100845 0.641 255 84 0
1.735527 -18.048031 0.651 255 84 0
1.851375 -18.104813 0.651 255 84 0
1.750908 -18.083925 0.687 255 84 0
1.988674 -18.163548 0.64 255 84 0
1.858083 -18.104864 0.646 255 84 0
2.036335 -18.188953 0.643 255 84 0
1.789508 -18.065435 0.64 255 84 0
1.452641 -17.902771 0.643 255 84 0
1.788164 -18.065872 0.641 255 84 0
1.574187 -17.974802 0.66 255 84 0
1.554652 -17.95587 0.648 255 84 0
1.665019 -18.027817 0.67 255 84 0
1.857022 -18.12677 0.676 255 84 0
1.667255 -18.027834 0.669 255 84 0
1.795594 -18.088737 0.665 255 84 0
1.470041 -17.908268 0.64 255 84 0
1.624906 -18.009623 0.671 255 84 0
1.47579 -17.916809 0.647 255 84 0
1.738268 -18.040449 0.64 255 84 0
1.695381 -18.034309 0.659 255 84 0
1.755448 -18.075014 0.673 255 84 0
1.752252 -18.083488 0.686 255 84 0
1.676585 -18.035955 0.673 255 84 0
1.725658 -18.051979 0.663 255 84 0
1.923461 -18.152765 0.667 255 84 0
1.662078 -18.00275 0.64 255 84 0
1.747042 -18.062876 0.663 255 84 0
1.791944 -18.098101 0.68 255 84 0
1.69353 -18.042345 0.671 255 84 0
1.932507 -18.139418 0.645 255 84 0
1.620065 -17.9993 0.662 255 84 0
1.710528 -18.042027 0.659 255 84 0
1.862066 -18.110262 0.651 255 84 0
1.90164 -18.140526 0.665 255 84 0
1.593301 -17.990152 0.667 255 84 0
1.906062 -18.147268 0.671 255 84 0
1.72786 -18.056469 0.666 255 84 0
1.760725 -18.086683 0.684 255 84 0
1.675358 -18.020739 0.655 255 84 0
1.55198 -17.954508 0.647 255 84 0
1.93602 -18.147942 0.653 255 84 0
1.66734 -18.016653 0.654 255 84 0
1.634288 -18.011036 0.668 255 84 0
1.935566 -18.148832 0.654 255 84 0
1.715755 -18.060402 0.68 255 84 0
1.779016 -18.092636 0.681 255 84 0
1.777841 -18.070713 0.654 255 84 0
1.609878 -17.986254 0.652 255 84 0
1.703718 -18.055391 0.681 255 84 0
1.875028 -18.111254 0.645 255 84 0
1.559057 -17.964848 0.657 255 84 0
1.524813 -17.939543 0.646 255 84 0
1.535959 -17.944101 0.644 255 84 0
1.84692 -18.102543 0.65 255 84 0
1.539 -17.955751 0.658 255 84 0
1.569329 -17.966715 0.652 255 84 0
1.614702 -17.998812 0.665 255 84 0
2.056845 -18.197159 0.639 255 84 0
1.699801 -18.041052 0.664 255 84 0
1.765685 -18.081354 0.675 255 84 0
1.715538 -18.029989 0.641 255 84 0
1.944022 -18.154264 0.655 255 84 0
1.768579 -18.053648 0.639 255 84 0
1.741832 -18.042265 0.641 255 84 0
1.695885 -18.026709 0.649 255 84 0
1.758659 -18.064306 0.657 255 84 0
1.514103 -17.936331 0.648 255 84 0
1.708156 -18.059898 0.683 255 84 0
1.511396 -17.939442 0.654 255 84 0
1.800065 -18.08877 0.663 255 84 0
1.965003 -18.159344 0.649 255 84 0
1.818306 -18.101433 0.667 255 84 0
1.55598 -17.957668 0.65 255 84 0
1.685699 -18.013662 0.64 255 84 0
1.83389 -18.110495 0.67 255 84 0
1.876323 -18.117525 0.651 255 84 0
1.945906 -18.141756 0.639 255 84 0
1.571531 -17.971205 0.657 255 84 0
1.499427 -17.925488 0.644 255 84 0
1.649099 -18.003994 0.649 255 84 0
1.938761 -18.14036 0.641 255 84 0
1.911912 -18.142391 0.66 255 84 0
1.42813 -17.891403 0.645 255 84 0
1.705046 -18.05719 0.681 255 84 0
1.679864 -18.016302 0.646 255 84 0
1.733359 -18.03907 0.642 255 84 0
1.560941 -17.952339 0.639 255 84 0
2.135708 -18.236219 0.64 255 84 0
1.671692 -18.032339 0.671 255 84 0
1.510976 -17.935862 0.65 255 84 0
1.663691 -18.026018 0.668 255 84 0
1.884223 -18.137262 0.672 255 84 0
1.872339 -18.112127 0.647 255 84 0
1.832982 -18.112276 0.673 255 84 0
1.425037 -17.886461 0.641 255 84 0
1.417017 -17.882374 0.641 255 84 0
1.769334 -18.071989 0.66 255 84 0
1.741713 -18.057917 0.66 255 84 0
1.823651 -18.104156 0.667 255 84 0
1.812069 -18.098253 0.668 255 84 0
2.064881 -18.199009 0.637 255 84 0
1.939669 -18.138578 0.639 255 84 0
1.479824 -17.915499 0.643 255 84 0
1.565362 -17.959082 0.645 255 84 0
2.083978 -18.216597 0.647 255 84 0
1.511833 -17.940786 0.655 255 84 0
1.579618 -17.966347 0.646 255 84 0
1.75459 -18.070089 0.667 255 84 0
1.708661 -18.052299 0.673 255 84 0
1.813096 -18.08082 0.644 255 84 0
1.938223 -18.152431 0.657 255 84 0
1.76787 -18.088079 0.682 255 84 0
1.688808 -18.016371 0.64 255 84 0
2.060863 -18.198084 0.638 255 84 0
1.432584 -17.893673 0.646 255 84 0
1.673526 -18.026541 0.662 255 84 0
1.623141 -18.006479 0.669 255 84 0
1.924051 -18.133987 0.643 255 84 0
1.565277 -17.970263 0.659 255 84 0
1.553728 -17.959888 0.654 255 84 0
1.683798 -18.028406 0.659 255 84 0
1.697196 -18.030745 0.654 255 84 0
1.775469 -18.088583 0.678 255 84 0
1.660126 -18.024202 0.669 255 84 0
1.891402 -18.134186 0.664 255 84 0
1.870137 -18.107639 0.643 255 84 0
1.897758 -18.121712 0.643 255 84 0
1.520761 -17.94309 0.652 255 84 0
1.870858 -18.130453 0.672 255 84 0
1.968181 -18.153107 0.64 255 84 0
1.682503 -18.022135 0.651 255 84 0
1.618317 -17.993921 0.655 255 84 0
1.793931 -18.072176 0.646 255 84 0
1.859915 -18.099064 0.638 255 84 0
1.896009 -18.116333 0.638 255 84 0
1.675897 -18.008669 0.639 255 84 0
1.879416 -18.122467 0.656 255 84 0
1.672584 -18.032793 0.672 255 84 0
1.56447 -17.958628 0.645 255 84 0
1.491828 -17.924982 0.648 255 84 0
1.724631 -18.069414 0.685 255 84 0
1.51185 -17.938551 0.652 255 84 0
1.689008 -18.049019 0.682 255 84 0
1.732485 -18.036379 0.638 255 84 0
1.813532 -18.082165 0.645 255 84 0
1.825887 -18.104172 0.666 255 84 0
1.767133 -18.067501 0.656 255 84 0
1.723438 -18.049726 0.662 255 84 0
1.804186 -18.076279 0.645 255 84 0
1.76266 -18.067467 0.659 255 84 0
1.638424 -17.996309 0.647 255 84 0
1.899875 -18.137383 0.662 255 84 0
1.466914 -17.907799 0.642 255 84 0
1.726867 -18.069431 0.685 255 84 0
1.961389 -18.164234 0.658 255 84 0
1.49277 -17.918728 0.64 255 84 0
1.955691 -18.148987 0.642 255 84 0
1.791121 -18.088703 0.668 255 84 0
1.571111 -17.967623 0.652 255 84 0
1.503848 -17.932228 0.649 255 84 0
1.52841 -17.936888 0.64 255 84 0
1.895925 -18.127512 0.652 255 84 0
1.950713 -18.156551 0.655 255 84 0
1.952563 -18.148516 0.643 255 84 0
1.813447 -18.093344 0.66 255 84 0
1.852754 -18.099905 0.644 255 84 0
1.753245 -18.070526 0.669 255 84 0
2.006023 -18.175755 0.645 255 84 0
1.876357 -18.113052 0.646 255 84 0
1.865648 -18.10984 0.649 255 84 0
1.532309 -17.953465 0.658 255 84 0
1.684116 -18.045404 0.68 255 84 0
1.872776 -18.113472 0.648 255 84 0
1.899018 -18.132456 0.656 255 84 0
1.705148 -18.043776 0.665 255 84 0
1.907894 -18.141468 0.663 255 84 0
1.854383 -18.120935 0.67 255 84 0
1.754068 -18.079924 0.68 255 84 0
1.837487 -18.107838 0.663 255 84 0
1.882509 -18.127411 0.66 255 84 0
2.135254 -18.23711 0.641 255 84 0
1.810457 -18.074986 0.638 255 84 0
1.878173 -18.109489 0.64 255 84 0
1.838934 -18.093985 0.645 255 84 0
1.753716 -18.0674 0.665 255 84 0
1.788483 -18.082869 0.663 255 84 0
1.618788 -17.990793 0.652 255 84 0
1.866959 -18.113876 0.652 255 84 0
1.730533 -18.057831 0.667 255 84 0
2.112088 -18.225307 0.641 255 84 0
1.720885 -18.032713 0.641 255 84 0
2.050103 -18.20158 0.65 255 84 0
1.664145 -18.025127 0.666 255 84 0
2.03087 -18.201881 0.664 255 84 0
2.045597 -18.206018 0.66 255 84 0
1.766474 -18.095224 0.692 255 84 0
2.172188 -18.261541 0.653 255 84 0
1.992052 -18.18996 0.674 255 84 0
2.156014 -18.271257 0.684 255 84 0
2.134244 -18.252308 0.669 255 84 0
2.128041 -18.244659 0.66 255 84 0
2.109279 -18.241833 0.67 255 84 0
2.175213 -18.275429 0.674 255 84 0
2.075403 -18.226818 0.671 255 84 0
2.026296 -18.215265 0.69 255 84 0
1.934119 -18.162687 0.675 255 84 0
2.169532 -18.257944 0.65 255 84 0
