ply
format ascii 1.0
element vertex 1268
property double x
property double y
property double z
property uchar red
property uchar green
property uchar blue
element face 0
property list uchar int vertex_indices
end_header
4.413311 -16.072388 0.662 255 170 127
4.367132 -16.028656 0.576 255 170 127
4.389589 -16.07489 0.607 255 170 127
4.382852 -16.019831 0.616 255 170 127
4.422607 -16.08498 0.678 255 170 127
4.367064 -16.0376 0.571 255 170 127
4.4136 -16.034374 0.678 255 170 127
4.401626 -16.079901 0.632 255 170 127
4.373288 -15.983532 0.61 255 170 127
4.428718 -15.987083 0.734 255 170 127
4.384379 -16.054277 0.603 255 170 127
4.38149 -16.022503 0.611 255 170 127
4.408551 -16.110365 0.634 255 170 127
4.44504 -16.016726 0.757 255 170 127
4.402852 -16.095116 0.627 255 170 127
4.4141 -16.086258 0.657 255 170 127
4.4115 -16.01647 0.683 255 170 127
4.397511 -16.032909 0.642 255 170 127
4.3475 -15.963658 0.559 255 170 127
4.406336 -16.04863 0.657 255 170 127
4.410625 -16.013779 0.682 255 170 127
4.444468 -16.033268 0.749 255 170 127
4.396382 -16.063761 0.627 255 170 127
4.359083 -15.96956 0.585 255 170 127
4.360106 -16.011606 0.568 255 170 127
4.434047 -15.992043 0.743 255 170 127
4.386551 -16.003757 0.631 255 170 127
4.408071 -15.996765 0.683 255 170 127
4.383692 -16.026993 0.614 255 170 127
4.37493 -16.06181 0.578 255 170 127
4.391121 -16.049858 0.622 255 170 127
4.396009 -16.112953 0.604 255 170 127
4.404601 -16.100496 0.629 255 170 127
4.399128 -15.996697 0.663 255 170 127
4.437492 -16.009512 0.744 255 170 127
4.446521 -15.9984 0.77 255 170 127
4.355332 -15.99234 0.565 255 170 127
4.340826 -15.959135 0.546 255 170 127
4.446368 -16.018522 0.761 255 170 127
4.399187 -16.106716 0.613 255 170 127
4.389122 -16.018536 0.63 255 170 127
4.399895 -16.072285 0.63 255 170 127
4.382351 -15.967948 0.638 255 170 127
4.395822 -16.137548 0.593 255 170 127
4.466174 -16.001678 0.814 255 170 127
4.396204 -15.969395 0.668 255 170 127
4.395491 -16.063307 0.625 255 170 127
4.42831 -16.040747 0.71 255 170 127
4.450521 -16.00156 0.778 255 170 127
4.381871 -16.090036 0.582 255 170 127
4.380569 -15.96704 0.633 255 170 127
4.39359 -16.078051 0.614 255 170 127
4.399946 -16.065577 0.634 255 170 127
4.391846 -16.013189 0.638 255 170 127
4.406684 -16.120636 0.626 255 170 127
4.384587 -15.967965 0.641 255 170 127
4.394134 -16.006498 0.647 255 170 127
4.382512 -16.06455 0.595 255 170 127
4.388164 -16.027025 0.625 255 170 127
4.431403 -16.045691 0.715 255 170 127
4.367437 -15.988406 0.594 255 170 127
4.392101 -15.97965 0.655 255 170 127
4.368545 -16.019274 0.583 255 170 127
4.379215 -16.086439 0.576 255 170 127
4.472359 -16.011564 0.824 255 170 127
4.356139 -16.003975 0.562 255 170 127
4.41363 -16.089384 0.655 255 170 127
4.380213 -16.013996 0.613 255 170 127
4.390311 -16.097704 0.598 255 170 127
4.448115 -16.023903 0.762 255 170 127
4.371137 -15.972335 0.61 255 170 127
4.454251 -16.040497 0.768 255 170 127
4.351365 -15.984707 0.559 255 170 127
4.359066 -15.971796 0.582 255 170 127
4.444383 -16.044447 0.746 255 170 127
4.424984 -16.007627 0.716 255 170 127
4.434496 -16.050634 0.72 255 170 127
4.391325 -16.023026 0.632 255 170 127
4.451528 -16.045843 0.76 255 170 127
4.3591 -15.967324 0.585 255 170 127
4.386547 -16.06324 0.605 255 170 127
4.449495 -16.018995 0.767 255 170 127
4.401609 -16.082136 0.631 255 170 127
4.38224 -16.100327 0.578 255 170 127
4.396429 -16.116535 0.603 255 170 127
4.413452 -15.995018 0.698 255 170 127
4.413888 -15.996362 0.697 255 170 127
4.390663 -16.110229 0.593 255 170 127
4.406811 -15.986023 0.685 255 170 127
4.372818 -15.986659 0.607 255 170 127
4.400205 -15.972556 0.675 255 170 127
4.37507 -15.98444 0.613 255 170 127
4.431772 -16.055979 0.711 255 170 127
4.430882 -16.055525 0.709 255 170 127
4.364713 -15.993753 0.585 255 170 127
4.450623 -15.988145 0.784 255 170 127
4.429977 -15.997827 0.733 255 170 127
4.381273 -15.99209 0.623 255 170 127
4.425683 -16.092159 0.68 255 170 127
4.401155 -16.083027 0.628 255 170 127
4.358022 -15.991467 0.571 255 170 127
4.453632 -16.004267 0.784 255 170 127
4.396166 -16.033348 0.641 255 170 127
4.381404 -16.033682 0.606 255 170 127
4.443359 -16.002399 0.762 255 170 127
4.460811 -16.001192 0.803 255 170 127
4.465249 -16.005697 0.81 255 170 127
4.383488 -16.053823 0.602 255 170 127
4.382703 -15.980473 0.632 255 170 127
4.378062 -16.0028 0.613 255 170 127
4.366194 -15.975428 0.596 255 170 127
4.420631 -15.991941 0.714 255 170 127
4.362291 -16.018332 0.569 255 170 127
4.451209 -16.028847 0.767 255 170 127
4.426311 -16.009426 0.719 255 170 127
4.353971 -15.995013 0.559 255 170 127
4.409735 -16.013325 0.68 255 170 127
4.426778 -16.065781 0.695 255 170 127
4.370246 -15.971881 0.609 255 170 127
4.389691 -16.061474 0.611 255 170 127
4.378006 -16.068989 0.583 255 170 127
4.400956 -16.050379 0.643 255 170 127
4.402365 -16.100479 0.624 255 170 127
4.413782 -16.06926 0.663 255 170 127
4.376025 -16.035431 0.594 255 170 127
4.414555 -16.085365 0.658 255 170 127
4.380141 -16.08242 0.581 255 170 127
4.379152 -16.035902 0.6 255 170 127
4.395962 -16.060181 0.627 255 170 127
4.433537 -16.059124 0.713 255 170 127
4.363619 -16.020132 0.573 255 170 127
4.404384 -16.070084 0.642 255 170 127
4.384786 -16.000614 0.627 255 170 127
4.458206 -15.990885 0.801 255 170 127
4.39275 -16.070889 0.615 255 170 127
4.370042 -15.998713 0.595 255 170 127
4.441556 -16.06321 0.731 255 170 127
4.385931 -15.967527 0.645 255 170 127
4.458876 -16.020407 0.789 255 170 127
4.377709 -15.990274 0.617 255 170 127
4.389556 -16.079361 0.604 255 170 127
4.441323 -16.035032 0.741 255 170 127
4.398822 -16.036945 0.644 255 170 127
4.39586 -16.073595 0.621 255 170 127
4.432582 -16.008133 0.734 255 170 127
4.409442 -16.110819 0.635 255 170 127
4.354912 -15.988759 0.566 255 170 127
4.443462 -15.988984 0.768 255 170 127
4.441544 -16.005964 0.754 255 170 127
4.408873 -16.067881 0.655 255 170 127
4.400485 -16.053505 0.641 255 170 127
4.414822 -16.10907 0.649 255 170 127
4.430716 -16.018404 0.725 255 170 127
4.416374 -16.02232 0.691 255 170 127
4.428662 -16.053272 0.705 255 170 127
4.370111 -15.989769 0.6 255 170 127
4.376648 -16.01218 0.603 255 170 127
4.385024 -15.96931 0.644 255 170 127
4.357148 -15.988776 0.57 255 170 127
4.408046 -16.117964 0.63 255 170 127
4.394113 -16.068216 0.619 255 170 127
4.423532 -16.080961 0.681 255 170 127
4.453059 -16.020811 0.773 255 170 127
4.366631 -15.976773 0.598 255 170 127
4.389306 -16.053421 0.615 255 170 127
4.457179 -16.00832 0.79 255 170 127
4.418946 -16.037098 0.691 255 170 127
4.399581 -15.995807 0.665 255 170 127
4.393586 -16.137531 0.588 255 170 127
4.461617 -16.012825 0.799 255 170 127
4.410574 -16.020489 0.677 255 170 127
4.469215 -16.01333 0.816 255 170 127
4.437691 -16.04216 0.731 255 170 127
4.395101 -16.114735 0.6 255 170 127
4.400099 -16.045452 0.643 255 170 127
4.419973 -16.019665 0.701 255 170 127
4.386971 -16.007339 0.63 255 170 127
4.363152 -15.963778 0.597 255 170 127
4.41901 -16.087635 0.668 255 170 127
4.407863 -16.083078 0.645 255 170 127
4.385173 -16.008667 0.626 255 170 127
4.456691 -16.013681 0.785 255 170 127
4.386904 -16.016283 0.627 255 170 127
4.432816 -16.036308 0.722 255 170 127
4.415263 -16.050934 0.676 255 170 127
4.430024 -16.0506 0.71 255 170 127
4.409955 -15.984258 0.692 255 170 127
4.451663 -16.027956 0.77 255 170 127
4.468023 -15.993643 0.82 255 170 127
4.454153 -15.994431 0.788 255 170 127
4.388546 -16.094559 0.594 255 170 127
4.406972 -16.082624 0.644 255 170 127
4.445477 -16.018068 0.758 255 170 127
4.375317 -16.069862 0.576 255 170 127
4.432125 -16.068504 0.706 255 170 127
4.378766 -16.027849 0.602 255 170 127
4.37661 -16.076134 0.576 255 170 127
4.39401 -16.081631 0.613 255 170 127
4.458154 -15.997593 0.797 255 170 127
4.422866 -15.991959 0.718 255 170 127
4.416374 -16.02232 0.69 255 170 127
4.407274 -16.101858 0.634 255 170 127
4.40903 -15.988276 0.689 255 170 127
4.436062 -16.021128 0.735 255 170 127
4.354594 -15.971762 0.572 255 170 127
4.408725 -16.028522 0.67 255 170 127
4.382903 -16.013123 0.618 255 170 127
4.379776 -16.012651 0.611 255 170 127
4.413447 -16.054499 0.67 255 170 127
4.427855 -16.041637 0.708 255 170 127
4.411058 -16.074606 0.655 255 170 127
4.475674 -15.98744 0.841 255 170 127
4.389237 -16.062365 0.612 255 170 127
4.423112 -16.077381 0.681 255 170 127
4.350457 -15.986489 0.556 255 170 127
4.465584 -16.020458 0.804 255 170 127
4.438951 -16.052904 0.729 255 170 127
4.418293 -16.005341 0.702 255 170 127
4.372818 -15.986659 0.606 255 170 127
4.405076 -16.037888 0.657 255 170 127
4.380463 -16.039938 0.602 255 170 127
4.442485 -15.999711 0.76 255 170 127
4.365388 -15.963794 0.601 255 170 127
4.367013 -16.044308 0.567 255 170 127
4.401953 -15.977936 0.677 255 170 127
4.351264 -15.998124 0.553 255 170 127
4.416073 -16.003088 0.699 255 170 127
4.371002 -15.990223 0.602 255 170 127
4.484163 -15.988399 0.86 255 170 127
4.443462 -15.988984 0.767 255 170 127
4.460238 -16.017735 0.791 255 170 127
4.41886 -16.048279 0.686 255 170 127
4.416052 -16.064804 0.67 255 170 127
4.369033 -16.01391 0.585 255 170 127
4.410876 -16.039721 0.67 255 170 127
4.428913 -16.079214 0.694 255 170 127
4.436367 -15.980881 0.755 255 170 127
4.426142 -16.031786 0.709 255 170 127
4.438531 -16.049322 0.729 255 170 127
4.438951 -16.052904 0.729 255 170 127
4.361722 -15.975394 0.587 255 170 127
4.378159 -16.048864 0.592 255 170 127
4.427283 -16.058182 0.699 255 170 127
4.388889 -15.990359 0.641 255 170 127
4.404235 -16.030725 0.659 255 170 127
4.401045 -15.979717 0.675 255 170 127
4.377586 -16.065407 0.583 255 170 127
4.449444 -16.025702 0.765 255 170 127
4.381082 -16.076166 0.586 255 170 127
4.449949 -16.018103 0.77 255 170 127
4.418005 -16.043352 0.686 255 170 127
4.397744 -16.061089 0.632 255 170 127
4.41363 -16.089384 0.654 255 170 127
4.3932 -16.129478 0.59 255 170 127
4.397897 -16.040964 0.64 255 170 127
4.467938 -16.004824 0.816 255 170 127
4.44563 -15.997945 0.768 255 170 127
4.398872 -16.030237 0.647 255 170 127
4.393208 -16.010517 0.642 255 170 127
4.448417 -16.043137 0.754 255 170 127
4.399313 -15.972101 0.675 255 170 127
4.410337 -16.051792 0.663 255 170 127
4.453784 -15.984143 0.793 255 170 127
4.392169 -15.970706 0.658 255 170 127
4.412454 -16.067461 0.66 255 170 127
4.391579 -15.989485 0.647 255 170 127
4.46182 -15.985993 0.811 255 170 127
4.427147 -16.076069 0.691 255 170 127
4.364799 -15.982574 0.59 255 170 127
4.427724 -16.000046 0.726 255 170 127
4.43495 -16.049742 0.72 255 170 127
4.398495 -16.138912 0.599 255 170 127
4.356054 -16.015154 0.557 255 170 127
4.380145 -16.02294 0.608 255 170 127
4.389755 -16.112011 0.589 255 170 127
4.40724 -16.106331 0.632 255 170 127
4.361485 -16.006699 0.572 255 170 127
4.414707 -16.065243 0.668 255 170 127
4.386212 -16.048477 0.609 255 170 127
4.360576 -16.00848 0.57 255 170 127
4.358459 -15.992811 0.572 255 170 127
4.424598 -15.999575 0.72 255 170 127
4.376534 -15.968351 0.624 255 170 127
4.421789 -16.0161 0.705 255 170 127
4.380785 -15.997454 0.621 255 170 127
4.477405 -15.995056 0.841 255 170 127
4.460845 -15.996719 0.803 255 170 127
4.471032 -16.009766 0.819 255 170 127
4.429239 -15.977248 0.739 255 170 127
4.420728 -16.038006 0.693 255 170 127
4.395406 -16.074486 0.621 255 170 127
4.380947 -16.094055 0.577 255 170 127
4.369669 -16.047905 0.573 255 170 127
4.433825 -16.021111 0.73 255 170 127
4.378748 -16.030085 0.602 255 170 127
4.354038 -15.98607 0.565 255 170 127
4.375622 -16.029613 0.595 255 170 127
4.364361 -15.981229 0.59 255 170 127
4.450602 -16.04986 0.756 255 170 127
4.399861 -16.076757 0.629 255 170 127
4.14211 -15.919613 0.389 255 170 127
4.238661 -15.926159 0.404 255 170 127
4.050723 -15.880904 0.404 255 170 127
4.237299 -15.928832 0.402 255 170 127
4.169901 -15.911326 0.402 255 170 127
4.202886 -15.925888 0.397 255 170 127
4.161814 -15.916184 0.396 255 170 127
4.275413 -15.915705 0.42 255 170 127
4.194582 -15.900332 0.416 255 170 127
4.187807 -15.909226 0.407 255 170 127
4.15531 -15.889301 0.418 255 170 127
4.179952 -15.942262 0.378 255 170 127
4.168437 -15.927415 0.388 255 170 127
4.200348 -15.906637 0.413 255 170 127
4.235619 -15.914508 0.413 255 170 127
4.180474 -15.932426 0.387 255 170 127
4.172506 -15.921632 0.394 255 170 127
4.212402 -15.909412 0.413 255 170 127
4.198884 -15.922728 0.399 255 170 127
4.261963 -15.920075 0.414 255 170 127
4.08596 -15.893247 0.4 255 170 127
4.19591 -15.902132 0.415 255 170 127
4.121264 -15.896646 0.404 255 170 127
4.236125 -15.90691 0.42 255 170 127
4.08243 -15.886959 0.405 255 170 127
4.152586 -15.894648 0.413 255 170 127
4.239234 -15.909616 0.418 255 170 127
4.173699 -15.941319 0.378 255 170 127
4.166808 -15.906384 0.406 255 170 127
4.162387 -15.899642 0.41 255 170 127
4.205558 -15.927249 0.396 255 170 127
4.189906 -15.927131 0.393 255 170 127
4.098133 -15.880369 0.414 255 170 127
4.209559 -15.93041 0.394 255 170 127
4.111985 -15.881817 0.415 255 170 127
4.085103 -15.888321 0.405 255 170 127
4.226238 -15.913095 0.412 255 170 127
4.179316 -15.908268 0.407 255 170 127
4.277179 -15.918849 0.418 255 170 127
4.213327 -15.905395 0.416 255 170 127
4.11 -15.907741 0.393 255 170 127
4.266049 -15.912056 0.422 255 170 127
4.208635 -15.934428 0.391 255 170 127
4.118473 -15.910935 0.392 255 170 127
4.162001 -15.891589 0.417 255 170 127
4.219934 -15.918861 0.406 255 170 127
4.144397 -15.912921 0.395 255 170 127
4.072646 -15.879729 0.409 255 170 127
4.108825 -15.885818 0.411 255 170 127
4.03334 -15.87317 0.406 255 170 127
4.061431 -15.884116 0.403 255 170 127
4.100721 -15.892912 0.403 255 170 127
4.128308 -15.911458 0.394 255 170 127
4.259325 -15.914242 0.418 255 170 127
4.143507 -15.912468 0.396 255 170 127
4.107899 -15.889836 0.408 255 170 127
4.127167 -15.885062 0.416 255 170 127
4.085052 -15.895029 0.399 255 170 127
4.166655 -15.926507 0.388 255 170 127
4.160788 -15.933618 0.381 255 170 127
4.13093 -15.919528 0.387 255 170 127
4.214655 -15.907194 0.415 255 170 127
4.227164 -15.909078 0.416 255 170 127
4.189503 -15.921314 0.398 255 170 127
4.201761 -15.897257 0.421 255 170 127
4.210905 -15.929974 0.395 255 170 127
4.178794 -15.918102 0.399 255 170 127
4.049377 -15.881342 0.402 255 170 127
4.196733 -15.91153 0.407 255 170 127
4.173431 -15.917614 0.398 255 170 127
4.098417 -15.901839 0.396 255 170 127
4.207005 -15.913397 0.408 255 170 127
4.212385 -15.911649 0.41 255 170 127
4.183584 -15.935133 0.385 255 170 127
4.04494 -15.876836 0.406 255 170 127
4.191706 -15.925803 0.395 255 170 127
4.170775 -15.914017 0.4 255 170 127
4.153494 -15.892865 0.414 255 170 127
4.159493 -15.927348 0.387 255 170 127
4.169128 -15.895221 0.416 255 170 127
4.180997 -15.922591 0.396 255 170 127
4.235518 -15.927924 0.402 255 170 127
4.191472 -15.897626 0.418 255 170 127
4.208669 -15.929957 0.395 255 170 127
4.095392 -15.887952 0.407 255 170 127
4.229349 -15.915802 0.411 255 170 127
4.056119 -15.876921 0.408 255 170 127
4.10874 -15.896997 0.402 255 170 127
4.069939 -15.882839 0.406 255 170 127
4.190933 -15.909697 0.408 255 170 127
4.297336 -15.91453 0.425 255 170 127
4.209326 -15.902234 0.418 255 170 127
4.202432 -15.926779 0.396 255 170 127
4.134665 -15.898983 0.405 255 170 127
4.12846 -15.891334 0.411 255 170 127
4.154232 -15.913444 0.397 255 170 127
4.165531 -15.897877 0.413 255 170 127
4.194952 -15.910623 0.408 255 170 127
4.04721 -15.872381 0.41 255 170 127
4.257559 -15.911098 0.421 255 170 127
4.203391 -15.918288 0.403 255 170 127
4.120913 -15.884121 0.415 255 170 127
4.140986 -15.890982 0.413 255 170 127
4.23738 -15.977134 0.375 255 170 127
4.219945 -15.976107 0.37 255 170 127
4.246273 -15.98391 0.374 255 170 127
4.235145 -15.977117 0.374 255 170 127
4.244708 -16.013414 0.357 255 170 127
4.220468 -15.966272 0.376 255 170 127
4.24486 -15.993291 0.368 255 170 127
4.266499 -15.970647 0.386 255 170 127
4.263134 -16.001478 0.369 255 170 127
4.242369 -16.026814 0.349 255 170 127
4.2587 -15.937492 0.403 255 170 127
4.223289 -16.00699 0.355 255 170 127
4.267304 -15.982281 0.38 255 170 127
4.294494 -15.935528 0.414 255 170 127
4.2067 -15.953645 0.379 255 170 127
4.200026 -15.949121 0.38 255 170 127
4.252935 -15.931188 0.404 255 170 127
4.262244 -16.001024 0.369 255 170 127
4.233714 -15.988734 0.367 255 170 127
4.269002 -15.994368 0.374 255 170 127
4.284221 -15.933661 0.412 255 170 127
4.233162 -15.94356 0.392 255 170 127
4.284909 -15.960947 0.397 255 170 127
4.193368 -15.942363 0.381 255 170 127
4.212227 -15.991254 0.36 255 170 127
4.271646 -15.940722 0.404 255 170 127
4.270839 -15.929087 0.41 255 170 127
4.261034 -15.983575 0.378 255 170 127
4.258496 -15.964325 0.388 255 170 127
4.287416 -15.925188 0.417 255 170 127
4.206899 -15.986294 0.361 255 170 127
4.266868 -15.980935 0.381 255 170 127
4.280657 -15.931845 0.412 255 170 127
4.263809 -15.97152 0.385 255 170 127
4.27302 -15.995294 0.375 255 170 127
4.205473 -15.93843 0.387 255 170 127
4.187047 -15.950365 0.375 255 170 127
4.238356 -15.966408 0.381 255 170 127
4.257436 -15.98623 0.375 255 170 127
4.224236 -15.941257 0.391 255 170 127
4.242509 -15.949444 0.391 255 170 127
4.274047 -15.977859 0.385 255 170 127
4.222114 -15.985068 0.366 255 170 127
4.230837 -16.014204 0.352 255 170 127
4.260801 -15.955397 0.393 255 170 127
4.221966 -15.945711 0.387 255 170 127
4.27257 -15.936704 0.407 255 170 127
4.251263 -16.03359 0.347 255 170 127
4.226989 -15.990919 0.364 255 170 127
4.228453 -15.97483 0.373 255 170 127
4.202699 -15.950484 0.38 255 170 127
4.254526 -16.016172 0.358 255 170 127
4.240621 -16.021435 0.351 255 170 127
4.27114 -15.948319 0.4 255 170 127
4.197182 -15.97012 0.367 255 170 127
4.276669 -15.985929 0.381 255 170 127
4.271594 -15.94743 0.401 255 170 127
4.189668 -15.958435 0.372 255 170 127
4.240171 -15.962844 0.383 255 170 127
4.239582 -15.981622 0.373 255 170 127
4.268921 -15.946068 0.401 255 170 127
4.275409 -15.975186 0.387 255 170 127
4.273207 -15.970696 0.388 255 170 127
4.238236 -15.982059 0.372 255 170 127
4.267492 -15.957685 0.394 255 170 127
4.226921 -15.999863 0.359 255 170 127
4.244389 -15.996418 0.366 255 170 127
4.289148 -15.932804 0.414 255 170 127
4.248407 -15.997342 0.367 255 170 127
4.279092 -15.96135 0.395 255 170 127
4.197739 -15.955813 0.375 255 170 127
4.304045 -15.91458 0.427 255 170 127
4.233396 -15.971737 0.377 255 170 127
4.19372 -15.954888 0.375 255 170 127
4.206916 -15.984057 0.363 255 170 127
4.256464 -15.937475 0.402 255 170 127
4.236807 -15.993676 0.365 255 170 127
4.265964 -15.923237 0.412 255 170 127
4.288172 -15.94353 0.407 255 170 127
4.239031 -15.936448 0.397 255 170 127
4.258547 -15.957616 0.391 255 170 127
4.259621 -15.992955 0.372 255 170 127
4.250876 -16.025536 0.352 255 170 127
4.232743 -15.939979 0.394 255 170 127
4.22763 -15.965431 0.378 255 170 127
4.230388 -15.955613 0.385 255 170 127
4.26142 -15.991628 0.373 255 170 127
4.246727 -15.983018 0.374 255 170 127
4.220654 -15.941676 0.389 255 170 127
4.280772 -15.975675 0.388 255 170 127
4.250172 -16.000486 0.365 255 170 127
4.255926 -15.949547 0.395 255 170 127
4.206768 -15.944701 0.384 255 170 127
4.287658 -16.070091 0.398 255 170 127
4.299029 -15.986099 0.417 255 170 127
4.298295 -16.141727 0.415 255 170 127
4.283351 -16.107178 0.39 255 170 127
4.266443 -16.036835 0.362 255 170 127
4.304698 -15.946339 0.426 255 170 127
4.277233 -16.088348 0.381 255 170 127
4.29443 -16.12068 0.409 255 170 127
4.301104 -16.125202 0.421 255 170 127
4.282231 -16.019066 0.389 255 170 127
4.275973 -16.077604 0.378 255 170 127
4.303604 -15.972717 0.424 255 170 127
4.283657 -16.066931 0.391 255 170 127
4.289606 -16.10812 0.401 255 170 127
4.293849 -16.020496 0.409 255 170 127
4.306263 -16.152523 0.429 255 170 127
4.28981 -16.081287 0.402 255 170 127
4.282363 -16.060659 0.389 255 170 127
4.304218 -16.068428 0.425 255 170 127
4.278799 -16.058844 0.383 255 170 127
4.298401 -16.06883 0.415 255 170 127
4.294587 -16.041075 0.409 255 170 127
4.290556 -15.982904 0.403 255 170 127
4.278566 -16.030666 0.382 255 170 127
4.305372 -15.91638 0.428 255 170 127
4.295321 -16.121132 0.41 255 170 127
4.298113 -16.106842 0.416 255 170 127
4.275222 -15.999782 0.376 255 170 127
4.305359 -16.094822 0.427 255 170 127
4.281205 -16.036501 0.387 255 170 127
4.286347 -16.066057 0.395 255 170 127
4.302775 -16.0228 0.424 255 170 127
4.28815 -16.005247 0.399 255 170 127
4.285745 -16.02759 0.394 255 170 127
4.274997 -16.088331 0.375 255 170 127
4.290144 -16.096048 0.402 255 170 127
4.302559 -15.992387 0.423 255 170 127
4.293683 -15.983375 0.408 255 170 127
4.273805 -16.068644 0.374 255 170 127
4.274509 -16.093695 0.376 255 170 127
4.275519 -16.078497 0.377 255 170 127
4.287807 -16.109447 0.397 255 170 127
4.278328 -16.06197 0.382 255 170 127
4.294803 -16.071487 0.41 255 170 127
4.287001 -16.097815 0.396 255 170 127
4.292483 -16.082649 0.406 255 170 127
4.279054 -16.025303 0.383 255 170 127
4.293869 -15.958779 0.408 255 170 127
4.272931 -16.065954 0.373 255 170 127
4.286084 -15.98287 0.396 255 170 127
4.299653 -15.962848 0.419 255 170 127
4.286517 -16.043695 0.396 255 170 127
4.2833 -16.113886 0.39 255 170 127
4.302139 -15.988806 0.423 255 170 127
4.291201 -16.133625 0.403 255 170 127
4.279541 -16.019941 0.384 255 170 127
4.296564 -16.134111 0.412 255 170 127
4.274951 -16.035559 0.376 255 170 127
4.291816 -15.993647 0.405 255 170 127
4.302538 -16.054104 0.423 255 170 127
4.296818 -16.100573 0.413 255 170 127
4.281319 -16.080328 0.387 255 170 127
4.289203 -16.102303 0.401 255 170 127
4.297112 -16.003078 0.414 255 170 127
4.297938 -15.952995 0.415 255 170 127
4.281675 -16.033373 0.388 255 170 127
4.277272 -16.024395 0.38 255 170 127
4.296742 -15.992789 0.414 255 170 127
4.297367 -15.969539 0.415 255 170 127
4.262409 -16.038147 0.356 255 170 127
4.289923 -16.125116 0.402 255 170 127
4.28849 -15.960527 0.399 255 170 127
4.281306 -16.023085 0.388 255 170 127
4.277509 -15.993091 0.382 255 170 127
4.274696 -16.069098 0.376 255 170 127
4.294438 -16.001717 0.409 255 170 127
4.259617 -16.052437 0.35 255 170 127
4.289949 -16.00392 0.402 255 170 127
4.301672 -15.932452 0.421 255 170 127
4.278561 -16.090147 0.383 255 170 127
4.302865 -15.952139 0.424 255 170 127
4.276779 -16.089239 0.38 255 170 127
4.281557 -16.049025 0.387 255 170 127
4.287442 -16.039679 0.398 255 170 127
4.303162 -16.030853 0.425 255 170 127
4.286572 -15.977507 0.396 255 170 127
4.288028 -16.080379 0.398 255 170 127
4.302143 -15.929324 0.423 255 170 127
4.258794 -16.043039 0.348 255 170 127
4.305233 -15.993749 0.426 255 170 127
4.291901 -15.982467 0.405 255 170 127
4.270967 -16.030161 0.369 255 170 127
4.298003 -16.003532 0.415 255 170 127
4.285133 -16.108086 0.393 255 170 127
4.284968 -16.070965 0.393 255 170 127
4.288201 -15.998538 0.398 255 170 127
4.301791 -16.152489 0.421 255 170 127
4.300896 -15.975826 0.42 255 170 127
4.275655 -16.060608 0.378 255 170 127
4.295041 -16.040184 0.41 255 170 127
4.300972 -16.083609 0.419 255 170 127
4.28336 -15.988215 0.39 255 170 127
4.306318 -16.086334 0.428 255 170 127
4.302564 -15.932906 0.424 255 170 127
4.296441 -15.973557 0.412 255 170 127
4.281056 -15.997144 0.387 255 170 127
4.294676 -15.970412 0.41 255 170 127
4.29479 -16.014242 0.41 255 170 127
4.299253 -16.133238 0.417 255 170 127
4.300586 -16.075556 0.419 255 170 127
4.287476 -16.035206 0.397 255 170 127
4.28151 -15.996252 0.387 255 170 127
4.304659 -16.010292 0.426 255 170 127
4.305194 -16.057701 0.426 255 170 127
4.26246 -16.031439 0.356 255 170 127
4.295371 -16.114426 0.411 255 170 127
4.288141 -16.124208 0.399 255 170 127
4.270661 -16.07041 0.369 255 170 127
4.27759 -16.041391 0.381 255 170 127
4.276147 -15.995764 0.378 255 170 127
4.282991 -15.977926 0.39 255 170 127
4.284824 -15.972127 0.394 255 170 127
4.298558 -15.989225 0.417 255 170 127
4.28768 -16.008375 0.398 255 170 127
4.300497 -16.146217 0.419 255 170 127
4.293984 -16.002607 0.408 255 170 127
4.303386 -15.942304 0.424 255 170 127
4.279287 -16.05348 0.383 255 170 127
4.280734 -16.039627 0.386 255 170 127
4.302089 -15.995514 0.421 255 170 127
4.292334 -16.043293 0.406 255 170 127
4.292105 -15.955634 0.405 255 170 127
4.301163 -15.999532 0.421 255 170 127
4.265922 -16.046671 0.361 255 170 127
3.905815 -16.176315 0.492 255 170 127
3.862711 -16.139763 0.461 255 170 127
3.867518 -16.154558 0.452 255 170 127
3.977409 -16.289114 0.483 255 170 127
3.882415 -16.136335 0.498 255 170 127
3.832081 -16.109566 0.443 255 170 127
3.855181 -16.130314 0.459 255 170 127
3.970298 -16.283245 0.479 255 170 127
3.889794 -16.165907 0.477 255 170 127
3.876933 -16.151499 0.471 255 170 127
3.843597 -16.124413 0.447 255 170 127
3.844488 -16.124866 0.448 255 170 127
3.864277 -16.110258 0.499 255 170 127
3.806362 -16.08075 0.434 255 170 127
3.817139 -16.075016 0.458 255 170 127
3.854374 -16.118681 0.471 255 170 127
3.910974 -16.203634 0.469 255 170 127
3.834436 -16.093931 0.465 255 170 127
3.849129 -16.102541 0.48 255 170 127
3.791703 -16.067669 0.423 255 170 127
3.924776 -16.21179 0.483 255 170 127
4.021671 -16.349825 0.489 255 170 127
3.962278 -16.27916 0.469 255 170 127
3.858155 -16.150909 0.441 255 170 127
3.875571 -16.154171 0.466 255 170 127
3.858609 -16.150019 0.441 255 170 127
3.823677 -16.097427 0.443 255 170 127
3.874209 -16.156845 0.459 255 170 127
3.809119 -16.07093 0.45 255 170 127
3.829647 -16.0769 0.478 255 170 127
3.833376 -16.115837 0.439 255 170 127
3.950831 -16.255369 0.478 255 170 127
3.848828 -16.083307 0.504 255 170 127
3.885088 -16.137697 0.502 255 170 127
3.839579 -16.123487 0.441 255 170 127
3.909243 -16.19602 0.476 255 170 127
3.880833 -16.168076 0.459 255 170 127
3.82324 -16.096083 0.444 255 170 127
3.921263 -16.203266 0.487 255 170 127
3.951858 -16.237934 0.499 255 170 127
3.933232 -16.21722 0.492 255 170 127
3.837785 -16.065334 0.504 255 170 127
3.917614 -16.212631 0.47 255 170 127
3.852626 -16.1133 0.475 255 170 127
3.984049 -16.298109 0.483 255 170 127
3.836405 -16.070242 0.498 255 170 127
3.922842 -16.231007 0.457 255 170 127
3.975292 -16.273443 0.499 255 170 127
3.945201 -16.231176 0.496 255 170 127
3.863619 -16.137981 0.465 255 170 127
3.950395 -16.254025 0.478 255 170 127
3.900282 -16.198187 0.458 255 170 127
3.861735 -16.15049 0.446 255 170 127
3.85745 -16.125858 0.469 255 170 127
3.899913 -16.187899 0.468 255 170 127
3.892518 -16.160563 0.488 255 170 127
3.79614 -16.072174 0.426 255 170 127
3.982267 -16.297199 0.482 255 170 127
3.992522 -16.301302 0.496 255 170 127
3.942511 -16.23205 0.49 255 170 127
3.877035 -16.138083 0.486 255 170 127
3.877472 -16.139427 0.486 255 170 127
3.83375 -16.066645 0.497 255 170 127
3.830737 -16.110003 0.44 255 170 127
3.888818 -16.176634 0.462 255 170 127
3.889356 -16.164562 0.478 255 170 127
3.847819 -16.098505 0.483 255 170 127
3.940645 -16.242323 0.474 255 170 127
3.977795 -16.297167 0.475 255 170 127
3.910287 -16.17635 0.501 255 170 127
3.870798 -16.134905 0.481 255 170 127
3.873119 -16.123741 0.496 255 170 127
3.916774 -16.205469 0.477 255 170 127
3.91669 -16.216648 0.464 255 170 127
3.960094 -16.272434 0.474 255 170 127
3.938863 -16.241415 0.473 255 170 127
3.924424 -16.199266 0.498 255 170 127
3.925264 -16.206427 0.491 255 170 127
3.962801 -16.269323 0.481 255 170 127
3.817422 -16.096485 0.433 255 170 127
3.878767 -16.145699 0.481 255 170 127
3.964163 -16.266651 0.487 255 170 127
3.870157 -16.160393 0.45 255 170 127
3.928778 -16.214951 0.487 255 170 127
3.882178 -16.167639 0.462 255 170 127
3.825896 -16.09968 0.445 255 170 127
3.932846 -16.209167 0.5 255 170 127
3.923817 -16.22028 0.471 255 170 127
3.83775 -16.069807 0.499 255 170 127
3.820702 -16.076832 0.462 255 170 127
3.98015 -16.28153 0.497 255 170 127
3.87283 -16.161755 0.453 255 170 127
3.859754 -16.116932 0.483 255 170 127
4.01103 -16.337669 0.484 255 170 127
3.865066 -16.124128 0.484 255 170 127
4.005366 -16.317947 0.497 255 170 127
3.843143 -16.125303 0.443 255 170 127
3.865248 -16.159012 0.444 255 170 127
3.807236 -16.083439 0.431 255 170 127
3.863182 -16.136635 0.465 255 170 127
3.969929 -16.272955 0.49 255 170 127
3.919328 -16.222483 0.462 255 170 127
3.957068 -16.258547 0.484 255 170 127
3.835935 -16.07337 0.492 255 170 127
3.88544 -16.150223 0.488 255 170 127
3.984066 -16.295872 0.488 255 170 127
3.79525 -16.07172 0.424 255 170 127
3.889271 -16.175743 0.465 255 170 127
3.83425 -16.118528 0.436 255 170 127
3.83131 -16.09346 0.461 255 170 127
3.928374 -16.209135 0.492 255 170 127
3.861366 -16.1402 0.459 255 170 127
3.893727 -16.178013 0.47 255 170 127
3.820987 -16.098301 0.437 255 170 127
3.844573 -16.113688 0.459 255 170 127
3.887944 -16.173944 0.464 255 170 127
3.825459 -16.098335 0.445 255 170 127
3.87438 -16.134485 0.487 255 170 127
3.875974 -16.159988 0.461 255 170 127
3.862512 -16.107113 0.5 255 170 127
3.998271 -16.309843 0.495 255 170 127
3.88275 -16.151096 0.481 255 170 127
3.92607 -16.218061 0.477 255 170 127
3.954328 -16.266129 0.47 255 170 127
3.881525 -16.135881 0.498 255 170 127
3.884146 -16.143951 0.493 255 170 127
3.848608 -16.112375 0.469 255 170 127
3.846877 -16.104759 0.474 255 170 127
3.876513 -16.147919 0.475 255 170 127
3.891207 -16.156527 0.49 255 170 127
3.884431 -16.165421 0.469 255 170 127
3.942477 -16.236523 0.484 255 170 127
3.893392 -16.163252 0.486 255 170 127
3.925297 -16.201956 0.497 255 170 127
3.892904 -16.168615 0.479 255 170 127
3.834687 -16.119871 0.436 255 170 127
3.818836 -16.087105 0.447 255 170 127
3.984066 -16.295872 0.487 255 170 127
3.917631 -16.210394 0.472 255 170 127
3.876009 -16.155518 0.464 255 170 127
3.816162 -16.085743 0.444 255 170 127
3.859368 -16.108879 0.492 255 170 127
3.813893 -16.090197 0.435 255 170 127
3.945015 -16.255772 0.466 255 170 127
3.917801 -16.188034 0.5 255 170 127
3.851684 -16.119555 0.466 255 170 127
3.847382 -16.09716 0.484 255 170 127
3.823659 -16.099663 0.44 255 170 127
3.85207 -16.127607 0.457 255 170 127
3.849669 -16.090469 0.496 255 170 127
3.961053 -16.263945 0.485 255 170 127
3.801554 -16.065954 0.442 255 170 127
3.925281 -16.204191 0.492 255 170 127
3.978283 -16.291803 0.481 255 170 127
3.850492 -16.099867 0.486 255 170 127
3.833091 -16.094368 0.463 255 170 127
3.798864 -16.066828 0.436 255 170 127
3.842773 -16.115015 0.456 255 170 127
3.89813 -16.186991 0.467 255 170 127
3.884044 -16.157368 0.476 255 170 127
3.898046 -16.198172 0.454 255 170 127
3.927937 -16.207788 0.493 255 170 127
3.881287 -16.167185 0.46 255 170 127
3.859703 -16.12364 0.475 255 170 127
3.813859 -16.094669 0.43 255 170 127
3.822535 -16.071032 0.473 255 170 127
3.853296 -16.142822 0.441 255 170 127
3.839765 -16.09889 0.469 255 170 127
3.851837 -16.09943 0.49 255 170 127
3.950514 -16.238373 0.497 255 170 127
3.85266 -16.108828 0.48 255 170 127
3.911916 -16.197382 0.477 255 170 127
3.912052 -16.179495 0.499 255 170 127
3.889623 -16.188267 0.451 255 170 127
3.834153 -16.072462 0.491 255 170 127
3.798394 -16.069954 0.432 255 170 127
3.813524 -16.079908 0.446 255 170 127
3.963658 -16.27425 0.476 255 170 127
3.822854 -16.08803 0.454 255 170 127
3.832014 -16.118511 0.432 255 170 127
3.849669 -16.090469 0.495 255 170 127
3.93355 -16.234219 0.473 255 170 127
4.014208 -16.331432 0.496 255 170 127
3.93044 -16.231512 0.471 255 170 127
3.926541 -16.214933 0.483 255 170 127
3.988907 -16.306194 0.483 255 170 127
3.899527 -16.179846 0.476 255 170 127
3.962011 -16.255455 0.497 255 170 127
3.936274 -16.228872 0.482 255 170 127
3.82884 -16.065266 0.489 255 170 127
3.889238 -16.180214 0.459 255 170 127
3.898148 -16.184755 0.468 255 170 127
3.867536 -16.152323 0.455 255 170 127
3.938528 -16.226654 0.489 255 170 127
3.88001 -16.158678 0.469 255 170 127
3.821627 -16.072815 0.469 255 170 127
3.922591 -16.205065 0.419 255 170 127
3.997113 -16.285685 0.428 255 170 127
4.051931 -16.369732 0.471 255 170 127
4.015048 -16.338593 0.479 255 170 127
3.896348 -16.186083 0.429 255 170 127
4.034128 -16.358418 0.48 255 170 127
4.039224 -16.335199 0.439 255 170 127
3.99402 -16.280741 0.424 255 170 127
3.95095 -16.239717 0.427 255 170 127
3.901678 -16.191042 0.428 255 170 127
3.982942 -16.267241 0.421 255 170 127
3.954935 -16.245113 0.429 255 170 127
4.035541 -16.349035 0.463 255 170 127
3.875101 -16.157299 0.417 255 170 127
4.015217 -16.316233 0.446 255 170 127
4.033809 -16.341419 0.456 255 170 127
3.844404 -16.136047 0.431 255 170 127
4.008459 -16.322891 0.465 255 170 127
3.838234 -16.123924 0.423 255 170 127
3.946547 -16.23074 0.421 255 170 127
4.032112 -16.32933 0.441 255 170 127
4.044837 -16.361628 0.468 255 170 127
3.935417 -16.223946 0.427 255 170 127
3.979611 -16.293602 0.465 255 170 127
3.968516 -16.282337 0.463 255 170 127
3.874544 -16.171606 0.438 255 170 127
3.907376 -16.206291 0.441 255 170 127
3.892347 -16.182922 0.429 255 170 127
3.93056 -16.215858 0.422 255 170 127
3.900821 -16.186117 0.422 255 170 127
3.971745 -16.269392 0.44 255 170 127
3.983108 -16.304361 0.474 255 170 127
4.051579 -16.357206 0.454 255 170 127
4.050807 -16.341101 0.43 255 170 127
3.977528 -16.27346 0.438 255 170 127
4.018243 -16.33012 0.461 255 170 127
4.037777 -16.349052 0.461 255 170 127
4.01473 -16.321596 0.455 255 170 127
3.98326 -16.284239 0.445 255 170 127
3.932307 -16.221239 0.427 255 170 127
3.801419 -16.083841 0.417 255 170 127
3.9159 -16.20278 0.425 255 170 127
3.91489 -16.217978 0.447 255 170 127
3.91943 -16.209066 0.429 255 170 127
3.952245 -16.245989 0.434 255 170 127
4.009367 -16.32111 0.461 255 170 127
4.040047 -16.344597 0.451 255 170 127
3.948244 -16.242828 0.435 255 170 127
4.028213 -16.312756 0.423 255 170 127
3.906604 -16.190186 0.421 255 170 127
3.980048 -16.294947 0.465 255 170 127
3.976132 -16.280605 0.45 255 170 127
3.8985 -16.197279 0.441 255 170 127
4.036113 -16.332493 0.439 255 170 127
3.825356 -16.111752 0.422 255 170 127
4.045189 -16.374153 0.485 255 170 127
4.03423 -16.345001 0.46 255 170 127
3.971728 -16.271627 0.444 255 170 127
3.964634 -16.263525 0.442 255 170 127
4.021807 -16.331936 0.458 255 170 127
3.92195 -16.230553 0.456 255 170 127
3.978737 -16.290911 0.461 255 170 127
4.050166 -16.366589 0.469 255 170 127
4.051511 -16.366152 0.465 255 170 127
4.046619 -16.362535 0.467 255 170 127
4.010729 -16.318436 0.455 255 170 127
4.016546 -16.318033 0.447 255 170 127
4.005836 -16.314821 0.456 255 170 127
3.961087 -16.259472 0.441 255 170 127
4.023084 -16.340443 0.47 255 170 127
4.041811 -16.347742 0.453 255 170 127
3.947285 -16.251318 0.448 255 170 127
3.970786 -16.277882 0.454 255 170 127
3.909714 -16.192892 0.42 255 170 127
3.896718 -16.196371 0.442 255 170 127
4.019519 -16.338627 0.471 255 170 127
4.016881 -16.332794 0.466 255 170 127
4.020126 -16.317612 0.441 255 170 127
4.039291 -16.326256 0.426 255 170 127
3.996137 -16.296412 0.444 255 170 127
3.963323 -16.259489 0.438 255 170 127
4.015132 -16.327414 0.462 255 170 127
3.921968 -16.228317 0.453 255 170 127
3.89766 -16.190119 0.434 255 170 127
3.954378 -16.259422 0.45 255 170 127
3.952631 -16.254042 0.446 255 170 127
3.944174 -16.24861 0.45 255 170 127
3.878176 -16.164478 0.423 255 170 127
3.937098 -16.23827 0.446 255 170 127
3.971745 -16.269392 0.441 255 170 127
3.912688 -16.213488 0.445 255 170 127
4.027237 -16.323481 0.438 255 170 127
3.991716 -16.289669 0.44 255 170 127
4.036619 -16.324894 0.428 255 170 127
3.911361 -16.211689 0.444 255 170 127
3.954061 -16.242424 0.427 255 170 127
4.034616 -16.353054 0.471 255 170 127
4.020615 -16.312248 0.432 255 170 127
3.970718 -16.286825 0.467 255 170 127
4.008106 -16.310366 0.448 255 170 127
3.900736 -16.197298 0.439 255 170 127
3.920321 -16.20952 0.428 255 170 127
4.04003 -16.346834 0.454 255 170 127
4.049445 -16.343775 0.437 255 170 127
4.01419 -16.333668 0.472 255 170 127
3.847513 -16.138754 0.431 255 170 127
3.921683 -16.206848 0.421 255 170 127
3.990202 -16.312466 0.476 255 170 127
4.023151 -16.331499 0.457 255 170 127
4.051646 -16.348263 0.439 255 170 127
3.969003 -16.276974 0.456 255 170 127
3.968482 -16.28681 0.47 255 170 127
3.975797 -16.265844 0.43 255 170 127
3.993549 -16.283869 0.43 255 170 127
4.007755 -16.29784 0.431 255 170 127
4.021421 -16.323883 0.448 255 170 127
3.879538 -16.161804 0.418 255 170 127
3.984168 -16.282455 0.441 255 170 127
3.814716 -16.099596 0.42 255 170 127
4.046805 -16.33794 0.431 255 170 127
3.942931 -16.23563 0.433 255 170 127
3.880833 -16.168076 0.426 255 170 127
3.995348 -16.282541 0.426 255 170 127
3.917228 -16.204578 0.426 255 170 127
3.800965 -16.084732 0.419 255 170 127
3.892331 -16.185158 0.432 255 170 127
3.955724 -16.258984 0.449 255 170 127
3.837814 -16.120344 0.418 255 170 127
3.958749 -16.272871 0.464 255 170 127
3.981529 -16.276621 0.438 255 170 127
3.965843 -16.280975 0.465 255 170 127
3.916808 -16.200996 0.421 255 170 127
4.027641 -16.329298 0.446 255 170 127
3.926054 -16.220297 0.434 255 170 127
4.04961 -16.380896 0.49 255 170 127
3.872813 -16.16399 0.43 255 170 127
3.967205 -16.278303 0.461 255 170 127
4.047863 -16.375515 0.485 255 170 127
4.013771 -16.330086 0.467 255 170 127
3.959271 -16.263037 0.448 255 170 127
3.98015 -16.28153 0.447 255 170 127
4.029757 -16.344967 0.466 255 170 127
4.019537 -16.336391 0.468 255 170 127
4.019724 -16.311796 0.432 255 170 127
4.000037 -16.312988 0.463 255 170 127
4.005013 -16.305422 0.445 255 170 127
4.019252 -16.314922 0.438 255 170 127
4.044922 -16.350449 0.453 255 170 127
4.012039 -16.32247 0.46 255 170 127
4.052385 -16.368841 0.469 255 170 127
3.916808 -16.200996 0.421 255 170 127
3.863046 -16.154524 0.43 255 170 127
3.964498 -16.281412 0.468 255 170 127
4.002828 -16.298697 0.438 255 170 127
3.936694 -16.232452 0.437 255 170 127
4.251067 -15.94146 0.638 255 170 127
4.192248 -15.85425 0.66 255 170 127
4.297514 -16.008896 0.625 255 170 127
4.27983 -15.981928 0.632 255 170 127
4.187742 -15.858689 0.638 255 170 127
4.282804 -16.002523 0.596 255 170 127
4.286037 -15.930097 0.758 255 170 127
4.314651 -15.931209 0.833 255 170 127
4.268535 -15.938013 0.695 255 170 127
4.168293 -15.828577 0.648 255 170 127
4.294103 -15.986956 0.659 255 170 127
4.244411 -15.9347 0.634 255 170 127
4.263746 -15.920983 0.715 255 170 127
4.208083 -15.889255 0.63 255 170 127
4.291918 -15.980231 0.669 255 170 127
4.295279 -16.008879 0.617 255 170 127
4.282809 -15.943042 0.723 255 170 127
4.29353 -16.0035 0.624 255 170 127
4.252515 -15.927607 0.672 255 170 127
4.192079 -15.876611 0.614 255 170 127
4.264972 -15.936197 0.688 255 170 127
4.180984 -15.865346 0.606 255 170 127
4.298558 -15.989225 0.669 255 170 127
4.200301 -15.853865 0.684 255 170 127
4.263928 -15.955869 0.642 255 170 127
4.174008 -15.841591 0.639 255 170 127
4.157533 -15.832073 0.611 255 170 127
4.269897 -15.935341 0.702 255 170 127
4.281074 -15.994906 0.609 255 170 127
4.293166 -15.933729 0.768 255 170 127
4.290687 -16.024496 0.571 255 170 127
4.26722 -15.99346 0.575 255 170 127
4.299212 -16.020985 0.604 255 170 127
4.305254 -15.932032 0.806 255 170 127
4.307052 -15.930704 0.813 255 170 127
4.305389 -15.914144 0.843 255 170 127
4.235818 -15.947158 0.584 255 170 127
4.210489 -15.866912 0.685 255 170 127
4.279427 -15.97611 0.643 255 170 127
4.230443 -15.889425 0.691 255 170 127
4.305755 -15.983913 0.701 255 170 127
4.316281 -15.952241 0.794 255 170 127
4.244415 -15.87522 0.758 255 170 127
4.237469 -15.906472 0.675 255 170 127
4.268769 -15.966191 0.635 255 170 127
4.199241 -15.875772 0.635 255 170 127
4.28955 -15.938621 0.749 255 170 127
4.31203 -15.923139 0.845 255 170 127
4.300523 -16.025019 0.601 255 170 127
4.18507 -15.857327 0.635 255 170 127
4.317672 -16.004578 0.69 255 170 127
4.234159 -15.871116 0.739 255 170 127
4.29017 -15.974851 0.676 255 170 127
4.224355 -15.925604 0.597 255 170 127
4.256464 -15.937475 0.66 255 170 127
4.234393 -15.899294 0.68 255 170 127
4.262752 -15.933945 0.686 255 170 127
4.285749 -15.968108 0.677 255 170 127
4.292894 -15.969504 0.694 255 170 127
4.240375 -15.936011 0.622 255 170 127
4.326383 -15.976467 0.772 255 170 127
4.292389 -15.977103 0.678 255 170 127
4.267911 -15.961266 0.645 255 170 127
4.309505 -15.961134 0.756 255 170 127
4.226658 -15.916676 0.626 255 170 127
4.199173 -15.884715 0.617 255 170 127
4.270534 -15.969336 0.634 255 170 127
4.25349 -15.916881 0.696 255 170 127
4.314516 -15.949097 0.797 255 170 127
4.308695 -16.00898 0.656 255 170 127
4.302054 -15.999987 0.657 255 170 127
4.290352 -16.009737 0.602 255 170 127
4.321776 -15.994322 0.72 255 170 127
4.302186 -16.041578 0.57 255 170 127
4.253796 -15.876633 0.782 255 170 127
4.298779 -15.960158 0.728 255 170 127
4.2995 -15.982971 0.684 255 170 127
4.310714 -15.978584 0.722 255 170 127
4.217816 -15.903193 0.629 255 170 127
4.314703 -15.9245 0.848 255 170 127
4.318886 -15.962546 0.781 255 170 127
4.218572 -15.921535 0.594 255 170 127
4.248314 -15.891796 0.736 255 170 127
4.233217 -15.877371 0.723 255 170 127
4.225665 -15.929638 0.593 255 170 127
4.2568 -15.952236 0.632 255 170 127
4.305151 -15.945448 0.777 255 170 127
4.230257 -15.914021 0.638 255 170 127
4.207192 -15.888801 0.629 255 170 127
4.315169 -15.980855 0.73 255 170 127
4.226459 -15.884027 0.691 255 170 127
4.309907 -15.966951 0.744 255 170 127
4.273784 -15.894673 0.798 255 170 127
4.279079 -15.904104 0.794 255 170 127
4.294142 -15.923003 0.796 255 170 127
4.153583 -15.822204 0.623 255 170 127
4.272036 -15.889294 0.806 255 170 127
4.226578 -15.868376 0.724 255 170 127
4.245875 -15.918612 0.674 255 170 127
4.291265 -15.948473 0.734 255 170 127
4.32279 -15.919642 0.881 255 170 127
4.301287 -15.924399 0.812 255 170 127
4.283899 -15.976145 0.655 255 170 127
4.209126 -15.869585 0.676 255 170 127
4.186011 -15.851072 0.651 255 170 127
4.298223 -15.974464 0.697 255 170 127
4.285477 -16.003885 0.602 255 170 127
4.265607 -15.970192 0.618 255 170 127
4.272235 -15.921942 0.738 255 170 127
4.323226 -15.920987 0.878 255 170 127
4.240711 -15.950772 0.591 255 170 127
4.332102 -15.929999 0.883 255 170 127
4.274068 -15.916142 0.755 255 170 127
4.31483 -16.025574 0.636 255 170 127
4.268146 -15.989443 0.584 255 170 127
4.296572 -16.01515 0.608 255 170 127
4.220239 -15.878613 0.687 255 170 127
4.171403 -15.831285 0.653 255 170 127
4.251004 -15.890923 0.743 255 170 127
4.282558 -15.917101 0.778 255 170 127
4.300642 -16.009367 0.633 255 170 127
4.265765 -15.890588 0.784 255 170 127
4.259778 -15.91335 0.721 255 170 127
4.272855 -15.958173 0.663 255 170 127
4.247622 -15.923991 0.666 255 170 127
4.276186 -15.931811 0.728 255 170 127
4.316888 -15.931226 0.839 255 170 127
4.236395 -15.871134 0.746 255 170 127
4.216085 -15.895576 0.639 255 170 127
4.31026 -15.979476 0.72 255 170 127
4.314499 -15.951333 0.79 255 170 127
4.2684 -15.955902 0.656 255 170 127
4.311079 -16.048355 0.578 255 170 127
4.298676 -15.973574 0.7 255 170 127
4.197442 -15.877099 0.627 255 170 127
4.30614 -15.991966 0.685 255 170 127
4.228339 -15.931001 0.599 255 170 127
4.321865 -15.92366 0.868 255 170 127
4.309335 -15.983494 0.711 255 170 127
4.304851 -15.926215 0.818 255 170 127
4.312415 -15.931192 0.829 255 170 127
4.209882 -15.887926 0.639 255 170 127
4.303314 -16.010729 0.635 255 170 127
4.232106 -15.905985 0.662 255 170 127
4.313689 -15.99918 0.688 255 170 127
4.318835 -15.969254 0.765 255 170 127
4.302343 -15.961974 0.736 255 170 127
4.204705 -15.862844 0.675 255 170 127
4.300379 -15.926181 0.806 255 170 127
4.304481 -15.915926 0.838 255 170 127
4.278769 -16.003834 0.582 255 170 127
4.238576 -15.93734 0.612 255 170 127
4.327932 -15.949199 0.831 255 170 127
4.299602 -15.969557 0.713 255 170 127
4.186903 -15.851526 0.653 255 170 127
4.257356 -15.937929 0.662 255 170 127
4.27639 -15.904979 0.785 255 170 127
4.293768 -15.972195 0.692 255 170 127
4.306933 -15.946356 0.781 255 170 127
4.224337 -15.927839 0.593 255 170 127
4.237804 -15.921233 0.645 255 170 127
4.275431 -15.913469 0.764 255 170 127
4.303314 -16.010729 0.636 255 170 127
4.295571 -15.911386 0.822 255 170 127
4.234711 -15.91629 0.646 255 170 127
4.303977 -15.923525 0.819 255 170 127
4.274115 -15.968915 0.643 255 170 127
4.300374 -15.985662 0.681 255 170 127
4.321877 -15.980906 0.749 255 170 127
4.31791 -15.973273 0.754 255 170 127
4.226158 -15.864795 0.731 255 170 127
4.280725 -15.922901 0.759 255 170 127
4.31564 -15.977728 0.74 255 170 127
4.283241 -16.003868 0.594 255 170 127
4.272095 -15.999311 0.573 255 170 127
4.302092 -15.936033 0.787 255 170 127
4.212776 -15.860221 0.706 255 170 127
4.305919 -16.021034 0.621 255 170 127
4.303739 -15.954829 0.755 255 170 127
4.303892 -15.934705 0.797 255 170 127
4.302691 -16.033979 0.586 255 170 127
4.314143 -15.998288 0.691 255 170 127
4.182817 -15.859547 0.622 255 170 127
4.258534 -15.900372 0.746 255 170 127
4.312802 -15.939245 0.811 255 170 127
4.317325 -15.93257 0.838 255 170 127
4.312058 -15.978148 0.73 255 170 127
4.289427 -16.013754 0.592 255 170 127
4.269732 -15.89822 0.78 255 170 127
4.255981 -15.883358 0.775 255 170 127
4.311019 -15.938337 0.807 255 170 127
4.222152 -15.921115 0.604 255 170 127
4.247457 -15.88687 0.744 255 170 127
4.208872 -15.903125 0.605 255 170 127
4.290857 -16.002138 0.619 255 170 127
4.302054 -15.999987 0.654 255 170 127
4.280136 -15.94168 0.715 255 170 127
4.298673 -16.033054 0.576 255 170 127
4.252904 -15.876178 0.78 255 170 127
4.296857 -16.036619 0.565 255 170 127
4.208049 -15.893727 0.62 255 170 127
4.234053 -15.944014 0.585 255 170 127
4.250363 -15.916409 0.69 255 170 127
4.278688 -15.955533 0.686 255 170 127
4.24231 -15.916795 0.667 255 170 127
4.231283 -15.896586 0.678 255 170 127
4.239836 -15.948082 0.594 255 170 127
4.296543 -15.960141 0.723 255 170 127
4.292274 -15.933275 0.769 255 170 127
4.30816 -15.961571 0.751 255 170 127
4.185171 -15.843911 0.664 255 170 127
4.282771 -16.006994 0.588 255 170 127
4.29555 -15.973103 0.693 255 170 127
4.235 -15.878279 0.727 255 170 127
4.318079 -15.950912 0.802 255 170 127
4.266554 -15.904457 0.758 255 170 127
4.287298 -15.94084 0.738 255 170 127
4.182817 -15.859547 0.621 255 170 127
4.301388 -15.910982 0.84 255 170 127
4.288923 -16.021353 0.574 255 170 127
4.274148 -15.964443 0.655 255 170 127
4.246595 -15.941425 0.626 255 170 127
4.293479 -16.010206 0.61 255 170 127
4.267793 -15.976917 0.611 255 170 127
4.215211 -15.892886 0.644 255 170 127
4.207833 -15.863314 0.685 255 170 127
4.26319 -15.935289 0.683 255 170 127
4.215801 -15.874107 0.682 255 170 127
4.312509 -16.036737 0.608 255 170 127
4.285839 -15.897448 0.827 255 170 127
4.306212 -15.923541 0.826 255 170 127
4.305572 -15.949028 0.77 255 170 127
4.212907 -15.901814 0.617 255 170 127
4.186903 -15.851526 0.651 255 170 127
4.213212 -15.861566 0.703 255 170 127
4.309416 -16.031796 0.609 255 170 127
4.15666 -15.829384 0.614 255 170 127
4.263206 -15.933054 0.689 255 170 127
4.282372 -15.941697 0.722 255 170 127
4.282711 -15.896977 0.818 255 170 127
4.287183 -15.897011 0.831 255 170 127
4.278269 -15.951952 0.69 255 170 127
4.302305 -16.025927 0.602 255 170 127
4.256885 -15.941056 0.656 255 170 127
4.28392 -15.914428 0.786 255 170 127
4.258637 -15.886955 0.773 255 170 127
4.224392 -15.86165 0.731 255 170 127
4.279749 -15.933627 0.733 255 170 127
4.179286 -15.853257 0.627 255 170 127
4.229297 -15.92251 0.618 255 170 127
4.300017 -16.032618 0.581 255 170 127
4.274891 -15.925539 0.735 255 170 127
4.193594 -15.853814 0.664 255 170 127
4.269006 -15.934887 0.701 255 170 127
4.293819 -15.965487 0.705 255 170 127
4.188985 -15.871668 0.615 255 170 127
4.308194 -15.957099 0.761 255 170 127
4.239803 -15.952555 0.585 255 170 127
4.234648 -15.865753 0.752 255 170 127
4.234291 -15.912709 0.652 255 170 127
4.262027 -15.970613 0.608 255 170 127
4.310226 -15.983948 0.711 255 170 127
4.187708 -15.86316 0.63 255 170 127
4.212487 -15.898232 0.624 255 170 127
4.230023 -15.885843 0.696 255 170 127
4.273899 -15.938501 0.705 255 170 127
4.304274 -16.002239 0.655 255 170 127
4.305452 -15.964681 0.737 255 170 127
4.244949 -15.922629 0.661 255 170 127
4.299869 -15.993261 0.662 255 170 127
4.261594 -15.909786 0.733 255 170 127
4.262871 -15.918293 0.721 255 170 127
4.200467 -15.890985 0.605 255 170 127
4.287429 -15.982432 0.654 255 170 127
4.301855 -15.967337 0.724 255 170 127
4.259541 -15.944654 0.656 255 170 127
4.265294 -15.893714 0.779 255 170 127
4.276355 -15.909451 0.774 255 170 127
4.290085 -15.986031 0.651 255 170 127
4.314736 -15.920029 0.858 255 170 127
4.325865 -15.926822 0.873 255 170 127
4.293268 -15.920313 0.796 255 170 127
4.210523 -15.86244 0.692 255 170 127
4.252904 -15.876178 0.779 255 170 127
4.280238 -15.928264 0.746 255 170 127
4.24786 -15.892688 0.731 255 170 127
4.226578 -15.868376 0.726 255 170 127
