ply
format ascii 1.0
element vertex 1268
property double x
property double y
property double z
property uchar red
property uchar green
property uchar blue
element face 0
property list uchar int vertex_indices
end_header
1.579848 -20.587093 0.415 170 255 255
1.798921 -20.41926 0.43 170 255 255
1.625247 -20.497993 0.422 170 255 255
1.873379 -20.449343 0.429 170 255 255
1.668452 -20.521132 0.421 170 255 255
1.683786 -20.504251 0.422 170 255 255
1.646033 -20.410942 0.428 170 255 255
1.625785 -20.485922 0.423 170 255 255
1.687787 -20.507414 0.422 170 255 255
1.575426 -20.580353 0.415 170 255 255
1.594609 -20.58676 0.415 170 255 255
1.7059 -20.419001 0.429 170 255 255
1.845894 -20.417379 0.431 170 255 255
1.777214 -20.450848 0.428 170 255 255
1.829452 -20.403391 0.432 170 255 255
1.759271 -20.516901 0.423 170 255 255
1.630152 -20.558853 0.418 170 255 255
1.653894 -20.494635 0.423 170 255 255
1.61447 -20.503725 0.421 170 255 255
1.653487 -20.548298 0.419 170 255 255
1.639282 -20.534327 0.42 170 255 255
1.628174 -20.465816 0.424 170 255 255
1.622713 -20.419264 0.427 170 255 255
1.876154 -20.437286 0.43 170 255 255
1.885722 -20.414104 0.432 170 255 255
1.618038 -20.44606 0.425 170 255 255
1.598877 -20.613626 0.414 170 255 255
1.571774 -20.413509 0.426 170 255 255
1.720084 -20.494688 0.424 170 255 255
1.833921 -20.462906 0.428 170 255 255
1.740348 -20.417473 0.429 170 255 255
1.61775 -20.484074 0.423 170 255 255
1.725146 -20.475945 0.425 170 255 255
1.656725 -20.416389 0.428 170 255 255
1.721314 -20.450424 0.427 170 255 255
1.614678 -20.417414 0.427 170 255 255
1.62212 -20.497524 0.422 170 255 255
1.568697 -20.642019 0.411 170 255 255
1.736716 -20.424601 0.429 170 255 255
1.93093 -20.409081 0.433 170 255 255
1.793469 -20.489431 0.425 170 255 255
1.828422 -20.480305 0.427 170 255 255
1.579759 -20.422068 0.426 170 255 255
1.758538 -20.436842 0.428 170 255 255
1.707898 -20.450321 0.426 170 255 255
1.619917 -20.493034 0.422 170 255 255
1.824357 -20.426607 0.43 170 255 255
1.643474 -20.453411 0.425 170 255 255
1.83207 -20.470942 0.427 170 255 255
1.757443 -20.463219 0.427 170 255 255
1.640585 -20.421635 0.427 170 255 255
1.645274 -20.452082 0.425 170 255 255
1.607384 -20.612349 0.414 170 255 255
1.617788 -20.420118 0.427 170 255 255
1.610337 -20.458971 0.424 170 255 255
1.67037 -20.50415 0.422 170 255 255
1.573756 -20.447067 0.424 170 255 255
1.626329 -20.414371 0.427 170 255 255
1.735821 -20.483627 0.425 170 255 255
1.83244 -20.48123 0.427 170 255 255
1.591456 -20.471798 0.423 170 255 255
1.567518 -20.44389 0.424 170 255 255
1.798399 -20.429094 0.429 170 255 255
1.671727 -20.560959 0.419 170 255 255
1.636468 -20.610332 0.415 170 255 255
1.773129 -20.458866 0.427 170 255 255
1.822639 -20.476236 0.427 170 255 255
1.931334 -20.414898 0.433 170 255 255
1.682514 -20.436264 0.427 170 255 255
1.645133 -20.529451 0.42 170 255 255
1.57773 -20.571426 0.416 170 255 255
1.642388 -20.596516 0.416 170 255 255
1.693188 -20.443949 0.427 170 255 255
1.76575 -20.429293 0.429 170 255 255
1.744549 -20.453281 0.427 170 255 255
1.608653 -20.504129 0.421 170 255 255
1.595878 -20.47854 0.423 170 255 255
1.767324 -20.516516 0.423 170 255 255
1.764383 -20.491447 0.425 170 255 255
1.638777 -20.541925 0.419 170 255 255
1.713023 -20.482113 0.424 170 255 255
1.737786 -20.519421 0.422 170 255 255
1.687974 -20.482817 0.424 170 255 255
1.877249 -20.41091 0.432 170 255 255
1.699607 -20.482012 0.424 170 255 255
1.834477 -20.448599 0.429 170 255 255
1.612989 -20.522051 0.42 170 255 255
1.65507 -20.516556 0.421 170 255 255
1.909058 -20.403547 0.433 170 255 255
1.686642 -20.540499 0.42 170 255 255
1.660272 -20.420443 0.428 170 255 255
1.868606 -20.430073 0.431 170 255 255
1.750416 -20.446173 0.427 170 255 255
1.857643 -20.460402 0.429 170 255 255
1.696714 -20.509718 0.422 170 255 255
1.834209 -20.424892 0.43 170 255 255
1.669495 -20.501461 0.422 170 255 255
1.579432 -20.524033 0.419 170 255 255
1.603761 -20.500515 0.421 170 255 255
1.721441 -20.551498 0.42 170 255 255
1.559321 -20.581123 0.415 170 255 255
1.756666 -20.506596 0.424 170 255 255
1.783061 -20.505453 0.424 170 255 255
1.731734 -20.491648 0.424 170 255 255
1.561251 -20.621391 0.413 170 255 255
1.811077 -20.408617 0.431 170 255 255
1.572817 -20.629528 0.412 170 255 255
1.707695 -20.477152 0.425 170 255 255
1.741167 -20.486351 0.425 170 255 255
1.741693 -20.417034 0.429 170 255 255
1.825987 -20.447639 0.429 170 255 255
1.827904 -20.43066 0.43 170 255 255
1.588635 -20.43108 0.426 170 255 255
1.689535 -20.512794 0.422 170 255 255
1.642363 -20.482023 0.423 170 255 255
1.770269 -20.4821 0.425 170 255 255
1.646788 -20.429285 0.427 170 255 255
1.646444 -20.533485 0.42 170 255 255
1.664452 -20.517969 0.421 170 255 255
1.70058 -20.530766 0.421 170 255 255
1.577183 -20.46677 0.423 170 255 255
1.877414 -20.44803 0.43 170 255 255
1.632845 -20.498499 0.422 170 255 255
1.662219 -20.458473 0.425 170 255 255
1.7027 -20.486956 0.424 170 255 255
1.674265 -20.580208 0.417 170 255 255
1.687473 -20.430935 0.427 170 255 255
1.618903 -20.567713 0.417 170 255 255
1.615764 -20.509998 0.421 170 255 255
1.750268 -20.406815 0.43 170 255 255
1.664583 -20.559563 0.418 170 255 255
1.5844 -20.635429 0.412 170 255 255
1.570552 -20.574501 0.416 170 255 255
1.574446 -20.414871 0.426 170 255 255
1.695759 -20.458725 0.426 170 255 255
1.705038 -20.473557 0.425 170 255 255
1.56479 -20.508715 0.42 170 255 255
1.692322 -20.557983 0.419 170 255 255
1.774443 -20.403421 0.431 170 255 255
1.743062 -20.53109 0.422 170 255 255
1.59502 -20.473614 0.423 170 255 255
1.593302 -20.523243 0.42 170 255 255
1.696854 -20.432348 0.427 170 255 255
1.697155 -20.45158 0.426 170 255 255
1.756127 -20.518667 0.423 170 255 255
1.623277 -20.521683 0.42 170 255 255
1.846314 -20.420961 0.431 170 255 255
1.649957 -20.777699 0.39 170 255 255
1.57062 -20.801245 0.396 170 255 255
1.59101 -20.825104 0.392 170 255 255
1.607694 -20.748308 0.397 170 255 255
1.649215 -20.816601 0.387 170 255 255
1.581922 -20.726198 0.401 170 255 255
1.619222 -20.820398 0.39 170 255 255
1.6104 -20.745197 0.397 170 255 255
1.579249 -20.724836 0.402 170 255 255
1.643851 -20.816114 0.387 170 255 255
1.564254 -20.696995 0.405 170 255 255
1.607575 -20.76396 0.396 170 255 255
1.661087 -20.784491 0.388 170 255 255
1.593386 -20.747753 0.398 170 255 255
1.548547 -20.763065 0.402 170 255 255
1.585418 -20.736958 0.4 170 255 255
1.545807 -20.770647 0.401 170 255 255
1.636995 -20.776705 0.391 170 255 255
1.597706 -20.76791 0.396 170 255 255
1.608232 -20.736237 0.398 170 255 255
1.56958 -20.761435 0.4 170 255 255
1.554199 -20.72554 0.404 170 255 255
1.566117 -20.746204 0.401 170 255 255
1.537669 -20.782213 0.401 170 255 255
1.55072 -20.712543 0.406 170 255 255
1.551777 -20.75012 0.402 170 255 255
1.637598 -20.815172 0.388 170 255 255
1.550533 -20.737141 0.404 170 255 255
1.58799 -20.751736 0.399 170 255 255
1.60581 -20.760815 0.396 170 255 255
1.592491 -20.806778 0.393 170 255 255
1.549727 -20.725508 0.405 170 255 255
1.608818 -20.776939 0.394 170 255 255
1.53738 -20.820225 0.398 170 255 255
1.624486 -20.774822 0.393 170 255 255
1.579466 -20.755249 0.399 170 255 255
1.53923 -20.812187 0.399 170 255 255
1.5716 -20.731039 0.402 170 255 255
1.617291 -20.780134 0.393 170 255 255
1.59878 -20.803249 0.393 170 255 255
1.585401 -20.739195 0.4 170 255 255
1.610867 -20.801552 0.392 170 255 255
1.617966 -20.750175 0.396 170 255 255
1.540813 -20.780447 0.401 170 255 255
1.652783 -20.758936 0.391 170 255 255
1.574926 -20.764158 0.399 170 255 255
1.604914 -20.819843 0.391 170 255 255
1.541318 -20.772848 0.402 170 255 255
1.539383 -20.792065 0.4 170 255 255
1.602916 -20.788523 0.394 170 255 255
1.573619 -20.700644 0.404 170 255 255
1.592733 -20.715994 0.401 170 255 255
1.626387 -20.760078 0.394 170 255 255
1.639834 -20.815189 0.388 170 255 255
1.602512 -20.782705 0.394 170 255 255
1.601037 -20.741549 0.398 170 255 255
1.668498 -20.809593 0.386 170 255 255
1.610278 -20.82033 0.391 170 255 255
1.605355 -20.761707 0.396 170 255 255
1.554178 -20.787258 0.399 170 255 255
1.667743 -20.79125 0.387 170 255 255
1.61228 -20.792171 0.393 170 255 255
1.62923 -20.73908 0.395 170 255 255
1.695365 -20.805325 0.383 170 255 255
1.661841 -20.802834 0.387 170 255 255
1.575142 -20.794573 0.396 170 255 255
1.602144 -20.772415 0.395 170 255 255
1.570305 -20.724768 0.403 170 255 255
1.604023 -20.819389 0.391 170 255 255
1.598609 -20.825609 0.391 170 255 255
1.675393 -20.785048 0.387 170 255 255
1.642574 -20.807608 0.388 170 255 255
1.638993 -20.808025 0.389 170 255 255
1.688775 -20.789621 0.385 170 255 255
1.560448 -20.785963 0.399 170 255 255
1.593319 -20.756697 0.398 170 255 255
1.59323 -20.827356 0.392 170 255 255
1.631331 -20.756985 0.394 170 255 255
1.552013 -20.718815 0.405 170 255 255
1.635366 -20.755672 0.393 170 255 255
1.605173 -20.726822 0.399 170 255 255
1.614346 -20.814547 0.391 170 255 255
1.612751 -20.789043 0.393 170 255 255
1.613222 -20.785917 0.393 170 255 255
1.585317 -20.750374 0.399 170 255 255
1.574153 -20.748053 0.4 170 255 255
1.610731 -20.819441 0.391 170 255 255
1.67667 -20.793554 0.386 170 255 255
1.609641 -20.786337 0.393 170 255 255
1.625021 -20.822231 0.389 170 255 255
1.57187 -20.695263 0.405 170 255 255
1.536643 -20.799646 0.4 170 255 255
1.591282 -20.789328 0.395 170 255 255
1.626303 -20.771257 0.393 170 255 255
1.550015 -20.687494 0.408 170 255 255
1.607728 -20.743835 0.397 170 255 255
1.606225 -20.823879 0.391 170 255 255
1.596827 -20.824701 0.392 170 255 255
1.642443 -20.766014 0.392 170 255 255
1.546749 -20.764393 0.402 170 255 255
1.565409 -20.780634 0.398 170 255 255
1.601724 -20.768835 0.396 170 255 255
1.635429 -20.80621 0.389 170 255 255
1.556528 -20.831104 0.395 170 255 255
1.625196 -20.740391 0.396 170 255 255
1.640003 -20.792828 0.39 170 255 255
1.574705 -20.793228 0.396 170 255 255
1.579597 -20.796843 0.396 170 255 255
1.658748 -20.79789 0.388 170 255 255
1.556198 -20.756861 0.401 170 255 255
1.583199 -20.734705 0.4 170 255 255
1.565613 -20.753803 0.401 170 255 255
1.56403 -20.785543 0.398 170 255 255
1.556176 -20.818579 0.396 170 255 255
1.609777 -20.76845 0.395 170 255 255
1.559312 -20.700087 0.406 170 255 255
1.682976 -20.787788 0.386 170 255 255
1.628017 -20.781111 0.392 170 255 255
1.580035 -20.798187 0.396 170 255 255
1.554471 -20.689764 0.407 170 255 255
1.539536 -20.77194 0.402 170 255 255
1.577251 -20.693516 0.404 170 255 255
1.550483 -20.743847 0.403 170 255 255
1.654662 -20.80591 0.387 170 255 255
1.612636 -20.745214 0.397 170 255 255
1.562889 -20.75915 0.4 170 255 255
1.610011 -20.796625 0.393 170 255 255
1.648022 -20.796913 0.389 170 255 255
1.62884 -20.790508 0.391 170 255 255
1.575999 -20.799498 0.396 170 255 255
1.605543 -20.73711 0.398 170 255 255
1.54932 -20.779171 0.4 170 255 255
1.609993 -20.798862 0.392 170 255 255
1.597587 -20.783562 0.395 170 255 255
1.622786 -20.822214 0.389 170 255 255
1.596984 -20.745096 0.398 170 255 255
1.561238 -20.799833 0.397 170 255 255
1.563919 -20.682234 0.407 170 255 255
1.672669 -20.790392 0.387 170 255 255
1.599602 -20.812647 0.392 170 255 255
1.601401 -20.811319 0.392 170 255 255
1.63254 -20.774435 0.392 170 255 255
1.840824 -20.790775 0.43 170 255 255
1.710567 -20.746853 0.415 170 255 255
1.644797 -20.75038 0.393 170 255 255
1.760145 -20.75528 0.426 170 255 255
1.622272 -20.713087 0.407 170 255 255
1.793516 -20.777893 0.423 170 255 255
1.641051 -20.713678 0.413 170 255 255
1.659491 -20.758987 0.393 170 255 255
1.637873 -20.719915 0.408 170 255 255
1.859585 -20.793602 0.435 170 255 255
1.64058 -20.716805 0.411 170 255 255
1.645387 -20.7316 0.404 170 255 255
1.709268 -20.800062 0.385 170 255 255
1.8323 -20.794287 0.426 170 255 255
1.758931 -20.79731 0.402 170 255 255
1.656516 -20.738392 0.403 170 255 255
1.768533 -20.769653 0.42 170 255 255
1.832703 -20.800106 0.423 170 255 255
1.805802 -20.808846 0.41 170 255 255
1.597324 -20.700377 0.407 170 255 255
1.622573 -20.732321 0.397 170 255 255
1.707508 -20.737436 0.42 170 255 255
1.646125 -20.752176 0.393 170 255 255
1.669143 -20.724625 0.415 170 255 255
1.7203 -20.76079 0.411 170 255 255
1.892536 -20.812634 0.435 170 255 255
1.642192 -20.740072 0.398 170 255 255
1.836755 -20.796558 0.426 170 255 255
1.839512 -20.786741 0.433 170 255 255
1.738069 -20.776577 0.407 170 255 255
1.647908 -20.753086 0.393 170 255 255
1.806795 -20.795883 0.418 170 255 255
1.714869 -20.769245 0.404 170 255 255
1.61158 -20.70764 0.407 170 255 255
1.667124 -20.75502 0.397 170 255 255
1.795632 -20.793562 0.416 170 255 255
1.797783 -20.80476 0.41 170 255 255
1.710567 -20.746853 0.415 170 255 255
1.713256 -20.745979 0.416 170 255 255
1.707571 -20.787973 0.391 170 255 255
1.683463 -20.782425 0.388 170 255 255
1.852003 -20.790859 0.434 170 255 255
1.714665 -20.796078 0.389 170 255 255
1.555481 -20.674566 0.408 170 255 255
1.715391 -20.759413 0.41 170 255 255
1.633333 -20.728825 0.402 170 255 255
1.670653 -20.761307 0.395 170 255 255
1.791597 -20.794874 0.413 170 255 255
1.683853 -20.730997 0.416 170 255 255
1.643322 -20.709221 0.416 170 255 255
1.790253 -20.795311 0.413 170 255 255
1.785547 -20.767101 0.427 170 255 255
1.731798 -20.777872 0.405 170 255 255
1.761689 -20.787491 0.408 170 255 255
1.738693 -20.753326 0.421 170 255 255
1.679365 -20.7332 0.414 170 255 255
1.678962 -20.727381 0.417 170 255 255
1.879188 -20.803589 0.435 170 255 255
1.701924 -20.766018 0.402 170 255 255
1.716905 -20.736614 0.423 170 255 255
1.792892 -20.801144 0.41 170 255 255
1.708478 -20.786194 0.393 170 255 255
1.78511 -20.765755 0.427 170 255 255
1.730789 -20.79307 0.396 170 255 255
1.863939 -20.809286 0.427 170 255 255
1.713741 -20.800097 0.387 170 255 255
1.708984 -20.778595 0.397 170 255 255
1.741871 -20.747089 0.425 170 255 255
1.708394 -20.797371 0.386 170 255 255
1.690693 -20.77264 0.395 170 255 255
1.679933 -20.776138 0.39 170 255 255
1.581706 -20.695786 0.404 170 255 255
1.875187 -20.800426 0.436 170 255 255
1.664502 -20.74695 0.402 170 255 255
1.731565 -20.749695 0.42 170 255 255
1.686777 -20.758299 0.402 170 255 255
1.728467 -20.804234 0.389 170 255 255
1.83008 -20.792034 0.427 170 255 255
1.770548 -20.79874 0.405 170 255 255
1.682708 -20.764082 0.398 170 255 255
1.757989 -20.803564 0.398 170 255 255
1.594719 -20.690071 0.412 170 255 255
1.69281 -20.788309 0.387 170 255 255
1.67617 -20.741671 0.408 170 255 255
1.666016 -20.724152 0.415 170 255 255
1.757722 -20.779858 0.412 170 255 255
1.657777 -20.749136 0.398 170 255 255
1.811619 -20.808443 0.412 170 255 255
1.767825 -20.804085 0.401 170 255 255
1.733733 -20.758656 0.416 170 255 255
1.776349 -20.800571 0.406 170 255 255
1.777745 -20.793427 0.41 170 255 255
1.727576 -20.80378 0.389 170 255 255
1.654717 -20.739721 0.402 170 255 255
1.763709 -20.757095 0.426 170 255 255
1.704398 -20.734732 0.42 170 255 255
1.881844 -20.807186 0.434 170 255 255
1.629854 -20.71583 0.408 170 255 255
1.730101 -20.765783 0.411 170 255 255
1.610218 -20.710312 0.405 170 255 255
1.670721 -20.752365 0.4 170 255 255
1.715085 -20.79966 0.387 170 255 255
1.750191 -20.770409 0.414 170 255 255
1.702128 -20.739185 0.417 170 255 255
1.709573 -20.759815 0.408 170 255 255
1.769203 -20.799175 0.404 170 255 255
1.64352 -20.741871 0.398 170 255 255
1.699959 -20.730225 0.421 170 255 255
1.664048 -20.747843 0.4 170 255 255
1.651068 -20.749084 0.396 170 255 255
1.672975 -20.750145 0.402 170 255 255
1.714046 -20.759848 0.409 170 255 255
1.625751 -20.726084 0.401 170 255 255
1.794759 -20.790873 0.417 170 255 255
1.716566 -20.781334 0.398 170 255 255
1.558153 -20.675928 0.408 170 255 255
1.773324 -20.786684 0.412 170 255 255
1.681681 -20.781517 0.388 170 255 255
1.649002 -20.726707 0.407 170 255 255
1.739635 -20.747072 0.424 170 255 255
1.588432 -20.6936 0.408 170 255 255
1.755418 -20.788784 0.405 170 255 255
1.746457 -20.790953 0.402 170 255 255
1.722786 -20.786749 0.397 170 255 255
1.837543 -20.810429 0.419 170 255 255
1.64016 -20.713224 0.413 170 255 255
1.758817 -20.753481 0.426 170 255 255
1.728184 -20.782764 0.401 170 255 255
1.634292 -20.720333 0.407 170 255 255
1.705187 -20.7486 0.413 170 255 255
1.776399 -20.793865 0.409 170 255 255
1.701589 -20.751255 0.41 170 255 255
1.682928 -20.735016 0.414 170 255 255
1.672287 -20.722858 0.417 170 255 255
1.60847 -20.704933 0.407 170 255 255
1.701742 -20.731133 0.421 170 255 255
1.641318 -20.737383 0.4 170 255 255
1.733329 -20.75284 0.419 170 255 255
1.691635 -20.766388 0.399 170 255 255
1.735714 -20.792213 0.398 170 255 255
1.601342 -20.701302 0.407 170 255 255
1.623515 -20.726067 0.4 170 255 255
1.717775 -20.798786 0.389 170 255 255
1.744845 -20.767685 0.414 170 255 255
1.885408 -20.809002 0.434 170 255 255
1.615042 -20.722872 0.4 170 255 255
1.822481 -20.791531 0.425 170 255 255
1.742625 -20.765432 0.415 170 255 255
1.723677 -20.787203 0.397 170 255 255
1.865301 -20.806614 0.429 170 255 255
1.760582 -20.756624 0.425 170 255 255
1.659745 -20.725447 0.412 170 255 255
1.648684 -20.709711 0.417 170 255 255
1.774541 -20.685173 0.426 170 255 255
1.93401 -20.592466 0.437 170 255 255
1.820869 -20.532574 0.427 170 255 255
1.936539 -20.494991 0.435 170 255 255
1.763582 -20.656021 0.425 170 255 255
1.832979 -20.704847 0.431 170 255 255
1.865526 -20.482376 0.429 170 255 255
1.887915 -20.773245 0.437 170 255 255
1.771787 -20.635511 0.425 170 255 255
1.64635 -20.663628 0.416 170 255 255
1.807071 -20.700626 0.429 170 255 255
1.866552 -20.70063 0.434 170 255 255
1.836674 -20.748257 0.432 170 255 255
1.796778 -20.524788 0.425 170 255 255
1.687274 -20.633974 0.419 170 255 255
1.884551 -20.56839 0.432 170 255 255
1.865793 -20.74177 0.434 170 255 255
1.787529 -20.564968 0.425 170 255 255
1.887605 -20.637285 0.434 170 255 255
1.707109 -20.672138 0.421 170 255 255
1.72044 -20.683422 0.422 170 255 255
1.858741 -20.610231 0.431 170 255 255
1.61217 -20.68886 0.414 170 255 255
1.855809 -20.701891 0.433 170 255 255
1.732574 -20.734497 0.424 170 255 255
1.767201 -20.591648 0.424 170 255 255
1.847897 -20.624908 0.431 170 255 255
1.63492 -20.637602 0.415 170 255 255
1.929016 -20.602268 0.436 170 255 255
1.87113 -20.627768 0.432 170 255 255
1.802625 -20.579393 0.426 170 255 255
1.830514 -20.617172 0.429 170 255 255
1.747981 -20.649193 0.424 170 255 255
1.849428 -20.599874 0.43 170 255 255
1.91924 -20.711763 0.438 170 255 255
1.847243 -20.593149 0.43 170 255 255
1.783884 -20.75054 0.428 170 255 255
1.827208 -20.758024 0.432 170 255 255
1.841006 -20.589972 0.429 170 255 255
1.874656 -20.45785 0.429 170 255 255
1.935029 -20.458307 0.434 170 255 255
1.697337 -20.722155 0.421 170 255 255
1.92037 -20.445225 0.432 170 255 255
1.737857 -20.686684 0.424 170 255 255
1.736143 -20.676832 0.423 170 255 255
1.908511 -20.770269 0.438 170 255 255
1.681393 -20.583841 0.417 170 255 255
1.699867 -20.624678 0.419 170 255 255
1.884525 -20.689587 0.435 170 255 255
1.762683 -20.538841 0.422 170 255 255
1.789116 -20.709435 0.428 170 255 255
1.638014 -20.642546 0.415 170 255 255
1.950244 -20.457079 0.435 170 255 255
1.757718 -20.603651 0.423 170 255 255
1.804691 -20.601772 0.427 170 255 255
1.62421 -20.634392 0.414 170 255 255
1.766569 -20.733862 0.427 170 255 255
1.713452 -20.602421 0.42 170 255 255
1.913492 -20.703222 0.437 170 255 255
1.860176 -20.539133 0.43 170 255 255
1.675283 -20.681736 0.419 170 255 255
1.794597 -20.694271 0.428 170 255 255
1.656033 -20.684275 0.417 170 255 255
1.683637 -20.700584 0.42 170 255 255
1.886358 -20.448099 0.43 170 255 255
1.948177 -20.434704 0.434 170 255 255
1.891441 -20.603325 0.434 170 255 255
1.857927 -20.481873 0.428 170 255 255
1.928813 -20.629099 0.437 170 255 255
1.849563 -20.581987 0.43 170 255 255
1.784215 -20.589094 0.425 170 255 255
1.691745 -20.634008 0.419 170 255 255
1.589491 -20.671694 0.412 170 255 255
1.788089 -20.72687 0.428 170 255 255
1.824988 -20.755772 0.432 170 255 255
1.677472 -20.628981 0.418 170 255 255
1.811225 -20.683664 0.429 170 255 255
1.814539 -20.659538 0.429 170 255 255
1.727067 -20.63517 0.422 170 255 255
1.670044 -20.606115 0.417 170 255 255
1.875997 -20.752581 0.435 170 255 255
1.82496 -20.700762 0.43 170 255 255
1.750739 -20.639376 0.424 170 255 255
1.759475 -20.725756 0.426 170 255 255
1.778978 -20.68968 0.427 170 255 255
1.827831 -20.734774 0.431 170 255 255
1.685704 -20.72296 0.42 170 255 255
1.925847 -20.489542 0.434 170 255 255
1.845868 -20.538578 0.429 170 255 255
1.816953 -20.753922 0.431 170 255 255
1.905023 -20.640547 0.435 170 255 255
1.787631 -20.551552 0.425 170 255 255
1.665278 -20.703575 0.418 170 255 255
1.915027 -20.61871 0.436 170 255 255
1.871411 -20.47303 0.429 170 255 255
1.832567 -20.582306 0.429 170 255 255
1.941537 -20.425709 0.434 170 255 255
1.827527 -20.775021 0.432 170 255 255
1.81055 -20.713623 0.43 170 255 255
1.87133 -20.660416 0.433 170 255 255
1.831638 -20.645803 0.43 170 255 255
1.779115 -20.671791 0.426 170 255 255
1.794979 -20.761805 0.429 170 255 255
1.804921 -20.68943 0.429 170 255 255
1.719532 -20.685204 0.422 170 255 255
1.775212 -20.714695 0.427 170 255 255
1.852517 -20.664297 0.432 170 255 255
1.897564 -20.562672 0.433 170 255 255
1.729252 -20.641897 0.422 170 255 255
1.822168 -20.715052 0.431 170 255 255
1.836173 -20.696375 0.431 170 255 255
1.660742 -20.653004 0.417 170 255 255
1.896868 -20.654348 0.435 170 255 255
1.708793 -20.626984 0.42 170 255 255
1.620609 -20.696527 0.415 170 255 255
1.823288 -20.567474 0.428 170 255 255
1.914382 -20.703676 0.437 170 255 255
1.724399 -20.574327 0.42 170 255 255
1.744807 -20.595949 0.422 170 255 255
1.901272 -20.663328 0.436 170 255 255
1.683557 -20.652283 0.419 170 255 255
1.865615 -20.647404 0.432 170 255 255
1.85003 -20.63834 0.431 170 255 255
1.855682 -20.600817 0.431 170 255 255
1.900751 -20.673162 0.436 170 255 255
1.91964 -20.541374 0.434 170 255 255
1.860561 -20.782875 0.435 170 255 255
1.805981 -20.667522 0.428 170 255 255
1.842303 -20.772451 0.433 170 255 255
1.656839 -20.695908 0.418 170 255 255
1.906902 -20.687519 0.436 170 255 255
1.697758 -20.725735 0.421 170 255 255
1.759161 -20.649279 0.424 170 255 255
1.684753 -20.612488 0.418 170 255 255
1.869344 -20.68634 0.434 170 255 255
1.783311 -20.531393 0.424 170 255 255
1.725896 -20.553768 0.42 170 255 255
1.825388 -20.585382 0.428 170 255 255
1.780099 -20.542105 0.424 170 255 255
1.89313 -20.734375 0.436 170 255 255
1.926339 -20.660387 0.437 170 255 255
1.909592 -20.686647 0.437 170 255 255
1.805413 -20.624584 0.427 170 255 255
1.717041 -20.718727 0.423 170 255 255
1.867388 -20.531584 0.43 170 255 255
1.850578 -20.742996 0.433 170 255 255
1.621822 -20.654497 0.414 170 255 255
1.888034 -20.521902 0.432 170 255 255
1.778503 -20.752289 0.428 170 255 255
1.794122 -20.521189 0.424 170 255 255
1.859394 -20.641991 0.432 170 255 255
1.692522 -20.590633 0.418 170 255 255
1.807857 -20.53829 0.426 170 255 255
1.807076 -20.641144 0.428 170 255 255
1.840981 -20.71117 0.432 170 255 255
1.883681 -20.506218 0.431 170 255 255
1.790083 -20.581982 0.425 170 255 255
1.82619 -20.656496 0.43 170 255 255
1.815019 -20.773138 0.431 170 255 255
1.83305 -20.636423 0.43 170 255 255
1.835486 -20.669088 0.431 170 255 255
1.708895 -20.613565 0.42 170 255 255
1.768003 -20.662764 0.425 170 255 255
1.617316 -20.658936 0.414 170 255 255
1.874173 -20.639418 0.433 170 255 255
1.837799 -20.541201 0.428 170 255 255
1.771877 -20.564848 0.424 170 255 255
1.740564 -20.683575 0.424 170 255 255
1.68813 -20.638899 0.419 170 255 255
1.777108 -20.759434 0.428 170 255 255
1.707987 -20.615349 0.42 170 255 255
1.66547 -20.619497 0.417 170 255 255
1.908804 -20.672775 0.436 170 255 255
1.782926 -20.52334 0.424 170 255 255
1.866976 -20.644732 0.432 170 255 255
1.843136 -20.662886 0.431 170 255 255
1.763883 -20.675255 0.425 170 255 255
1.828825 -20.721811 0.431 170 255 255
1.591307 -20.668131 0.412 170 255 255
1.961763 -20.412447 0.435 170 255 255
1.860523 -20.611139 0.431 170 255 255
1.889769 -20.705727 0.435 170 255 255
1.894593 -20.718287 0.436 170 255 255
1.813257 -20.710512 0.43 170 255 255
1.739299 -20.732313 0.425 170 255 255
1.837922 -20.701756 0.431 170 255 255
1.885123 -20.787535 0.437 170 255 255
1.762725 -20.651094 0.425 170 255 255
1.839096 -20.487989 0.427 170 255 255
1.697919 -20.586651 0.419 170 255 255
1.901318 -20.480412 0.432 170 255 255
1.915253 -20.530161 0.434 170 255 255
1.813767 -20.643433 0.428 170 255 255
1.58191 -20.668953 0.411 170 255 255
1.869391 -20.503426 0.43 170 255 255
1.942521 -20.53171 0.436 170 255 255
1.768377 -20.613569 0.424 170 255 255
1.850527 -20.749704 0.433 170 255 255
1.788593 -20.719271 0.428 170 255 255
1.871546 -20.69083 0.434 170 255 255
1.735137 -20.632549 0.422 170 255 255
1.78177 -20.67539 0.427 170 255 255
1.859531 -20.624102 0.432 170 255 255
1.927582 -20.673367 0.438 170 255 255
1.837127 -20.747366 0.432 170 255 255
1.942458 -20.481173 0.435 170 255 255
1.840305 -20.741129 0.432 170 255 255
1.90428 -20.443762 0.431 170 255 255
1.634802 -20.653254 0.415 170 255 255
1.852781 -20.511797 0.429 170 255 255
1.726898 -20.657532 0.422 170 255 255
1.855605 -20.728724 0.433 170 255 255
1.902537 -20.61459 0.435 170 255 255
1.710007 -20.584953 0.419 170 255 255
1.926767 -20.545006 0.435 170 255 255
1.551043 -20.670059 0.409 170 255 255
1.667001 -20.594465 0.416 170 255 255
1.949268 -20.467806 0.435 170 255 255
1.748112 -20.690788 0.424 170 255 255
1.760964 -20.58847 0.423 170 255 255
1.767977 -20.548273 0.423 170 255 255
1.909151 -20.744783 0.438 170 255 255
1.807474 -20.706444 0.429 170 255 255
1.881339 -20.579098 0.432 170 255 255
1.736814 -20.706354 0.424 170 255 255
1.889629 -20.547407 0.432 170 255 255
1.810954 -20.71944 0.43 170 255 255
1.852275 -20.519396 0.429 170 255 255
1.911523 -20.491222 0.433 170 255 255
1.879794 -20.782574 0.436 170 255 255
1.916331 -20.506018 0.433 170 255 255
1.819936 -20.655554 0.429 170 255 255
1.708874 -20.675283 0.421 170 255 255
1.786273 -20.730433 0.428 170 255 255
1.803494 -20.641565 0.428 170 255 255
1.914102 -20.622728 0.436 170 255 255
1.873676 -20.763742 0.435 170 255 255
1.655481 -20.639101 0.416 170 255 255
1.922762 -20.601326 0.436 170 255 255
1.694333 -20.646551 0.42 170 255 255
1.895651 -20.755859 0.437 170 255 255
1.6888 -20.668423 0.42 170 255 255
1.939285 -20.427927 0.434 170 255 255
1.842312 -20.653488 0.431 170 255 255
1.896804 -20.603811 0.434 170 255 255
1.832605 -20.518353 0.427 170 255 255
1.746551 -20.66081 0.424 170 255 255
1.910208 -20.782356 0.439 170 255 255
1.920483 -20.489056 0.433 170 255 255
1.765401 -20.592976 0.424 170 255 255
1.875111 -20.456957 0.429 170 255 255
1.704941 -20.663177 0.421 170 255 255
1.568879 -20.676905 0.411 170 255 255
1.912847 -20.788191 0.439 170 255 255
1.923683 -20.656788 0.437 170 255 255
1.918532 -20.510506 0.434 170 255 255
1.875743 -20.550432 0.431 170 255 255
1.66165 -20.651222 0.417 170 255 255
1.818175 -20.59293 0.428 170 255 255
1.737526 -20.612442 0.422 170 255 255
1.763378 -20.682854 0.425 170 255 255
1.74512 -20.672428 0.424 170 255 255
1.947876 -20.41547 0.434 170 255 255
1.60864 -20.682573 0.414 170 255 255
1.800682 -20.717573 0.429 170 255 255
1.901981 -20.628897 0.435 170 255 255
1.888564 -20.628796 0.434 170 255 255
1.699968 -20.611263 0.419 170 255 255
1.772195 -20.581846 0.424 170 255 255
1.752193 -20.74225 0.426 170 255 255
1.8008 -20.701921 0.429 170 255 255
1.803834 -20.596846 0.427 170 255 255
1.936098 -20.553127 0.436 170 255 255
1.86127 -20.512754 0.429 170 255 255
1.853505 -20.47513 0.428 170 255 255
1.730852 -20.60792 0.421 170 255 255
1.720801 -20.576984 0.42 170 255 255
1.904136 -20.580612 0.434 170 255 255
1.80624 -20.574501 0.426 170 255 255
1.722481 -20.591309 0.42 170 255 255
1.834272 -20.711119 0.431 170 255 255
1.79842 -20.603065 0.426 170 255 255
1.817585 -20.61171 0.428 170 255 255
1.724029 -20.564039 0.42 170 255 255
1.741289 -20.646908 0.423 170 255 255
1.738989 -20.596354 0.422 170 255 255
1.789989 -20.712126 0.428 170 255 255
1.892282 -20.610485 0.434 170 255 255
1.845894 -20.653067 0.431 170 255 255
1.856179 -20.712179 0.433 170 255 255
1.756212 -20.743174 0.426 170 255 255
1.864032 -20.679146 0.433 170 255 255
1.907874 -20.736277 0.437 170 255 255
1.611262 -20.690643 0.414 170 255 255
1.867303 -20.778454 0.435 170 255 255
1.646283 -20.672573 0.416 170 255 255
1.854391 -20.770754 0.434 170 255 255
1.74221 -20.702372 0.424 170 255 255
1.653832 -20.679785 0.417 170 255 255
1.948717 -20.422632 0.434 170 255 255
1.747259 -20.626379 0.423 170 255 255
1.764995 -20.646639 0.425 170 255 255
1.772488 -20.720041 0.427 170 255 255
1.803278 -20.611153 0.427 170 255 255
1.903563 -20.597157 0.434 170 255 255
1.912885 -20.724237 0.438 170 255 255
1.928898 -20.61792 0.437 170 255 255
1.928041 -20.612993 0.436 170 255 255
1.821272 -20.538391 0.427 170 255 255
1.784754 -20.577023 0.425 170 255 255
1.921494 -20.709545 0.438 170 255 255
1.857816 -20.61425 0.431 170 255 255
1.666191 -20.642311 0.417 170 255 255
1.721267 -20.633339 0.421 170 255 255
1.743542 -20.644688 0.423 170 255 255
1.913139 -20.690697 0.437 170 255 255
1.831231 -20.699469 0.431 170 255 255
1.87463 -20.579046 0.432 170 255 255
1.847213 -20.773829 0.434 170 255 255
1.838088 -20.738876 0.432 170 255 255
1.777176 -20.750488 0.428 170 255 255
1.736113 -20.621824 0.422 170 255 255
1.83353 -20.750023 0.432 170 255 255
1.929399 -20.434113 0.433 170 255 255
1.695339 -20.690834 0.42 170 255 255
1.737289 -20.643745 0.423 170 255 255
1.740174 -20.735003 0.425 170 255 255
1.894598 -20.658806 0.435 170 255 255
1.906164 -20.666943 0.436 170 255 255
1.615284 -20.632086 0.413 170 255 255
1.633236 -20.68276 0.416 170 255 255
1.870659 -20.630896 0.432 170 255 255
1.907883 -20.617313 0.435 170 255 255
1.744081 -20.632616 0.423 170 255 255
1.604422 -20.648998 0.413 170 255 255
1.767799 -20.689594 0.426 170 255 255
1.767684 -20.645765 0.425 170 255 255
1.780515 -20.605165 0.425 170 255 255
1.934701 -20.560272 0.436 170 255 255
1.87968 -20.738745 0.435 170 255 255
1.801101 -20.721153 0.429 170 255 255
1.878322 -20.681936 0.434 170 255 255
1.828918 -20.591669 0.429 170 255 255
1.858381 -20.716669 0.433 170 255 255
1.887406 -20.604635 0.433 170 255 255
1.87287 -20.516422 0.43 170 255 255
1.908723 -20.624475 0.435 170 255 255
1.808764 -20.772196 0.431 170 255 255
1.853234 -20.510906 0.429 170 255 255
1.948245 -20.42576 0.434 170 255 255
1.677324 -20.589622 0.417 170 255 255
1.610439 -20.681244 0.414 170 255 255
1.874236 -20.689955 0.434 170 255 255
1.947532 -20.519672 0.436 170 255 255
1.925351 -20.613869 0.436 170 255 255
1.686191 -20.717598 0.42 170 255 255
1.857625 -20.698328 0.433 170 255 255
1.817831 -20.69713 0.43 170 255 255
1.898867 -20.449982 0.431 170 255 255
1.922215 -20.49667 0.434 170 255 255
1.80753 -20.640253 0.428 170 255 255
1.875514 -20.462774 0.429 170 255 255
1.84816 -20.708094 0.432 170 255 255
1.749928 -20.687223 0.424 170 255 255
1.742312 -20.688953 0.424 170 255 255
1.877542 -20.784792 0.436 170 255 255
1.812107 -20.56739 0.427 170 255 255
1.900172 -20.513498 0.432 170 255 255
1.879196 -20.684626 0.434 170 255 255
1.731509 -20.580196 0.421 170 255 255
1.902206 -20.540346 0.433 170 255 255
1.890338 -20.512976 0.432 170 255 255
1.720711 -20.647644 0.422 170 255 255
1.742928 -20.548977 0.421 170 255 255
1.81165 -20.627762 0.428 170 255 255
1.866956 -20.706448 0.434 170 255 255
1.922245 -20.55168 0.435 170 255 255
1.702021 -20.576395 0.419 170 255 255
1.651697 -20.666351 0.417 170 255 255
1.828905 -20.534424 0.427 170 255 255
1.941448 -20.49637 0.435 170 255 255
1.777083 -20.644941 0.426 170 255 255
1.710881 -20.587643 0.42 170 255 255
1.787235 -20.662462 0.427 170 255 255
1.921222 -20.509634 0.434 170 255 255
1.792896 -20.741663 0.429 170 255 255
1.869451 -20.613443 0.432 170 255 255
1.664455 -20.694178 0.418 170 255 255
1.746437 -20.616982 0.423 170 255 255
1.795434 -20.525225 0.425 170 255 255
1.854108 -20.513596 0.429 170 255 255
1.700978 -20.596066 0.419 170 255 255
1.635823 -20.695301 0.416 170 255 255
1.766254 -20.657383 0.425 170 255 255
1.85626 -20.524792 0.429 170 255 255
1.820182 -20.505287 0.426 170 255 255
1.721161 -20.706234 0.423 170 255 255
1.708759 -20.631454 0.42 170 255 255
1.932898 -20.62108 0.437 170 255 255
1.731751 -20.7251 0.424 170 255 255
1.922261 -20.549444 0.435 170 255 255
1.877491 -20.791502 0.436 170 255 255
1.734509 -20.715281 0.424 170 255 255
1.898901 -20.445509 0.431 170 255 255
1.938207 -20.45207 0.434 170 255 255
1.818238 -20.643467 0.429 170 255 255
1.913674 -20.738108 0.438 170 255 255
1.624173 -20.698343 0.415 170 255 255
1.744348 -20.656322 0.423 170 255 255
1.884793 -20.477602 0.43 170 255 255
1.830068 -20.499102 0.427 170 255 255
1.800325 -20.528841 0.425 170 255 255
1.80181 -20.686722 0.428 170 255 255
1.765249 -20.6131 0.424 170 255 255
1.863824 -20.765459 0.435 170 255 255
1.872611 -20.609444 0.432 170 255 255
1.672562 -20.627602 0.417 170 255 255
1.91361 -20.451883 0.432 170 255 255
1.704122 -20.594299 0.419 170 255 255
1.797656 -20.703686 0.429 170 255 255
1.902621 -20.603409 0.434 170 255 255
1.833823 -20.652529 0.43 170 255 255
1.706591 -20.622494 0.42 170 255 255
1.865089 -20.716719 0.434 170 255 255
1.951266 -20.499126 0.436 170 255 255
1.878806 -20.736053 0.435 170 255 255
1.730279 -20.624462 0.422 170 255 255
1.799396 -20.592339 0.426 170 255 255
1.767171 -20.536638 0.423 170 255 255
1.835682 -20.525532 0.428 170 255 255
1.692531 -20.707359 0.421 170 255 255
1.793578 -20.592743 0.426 170 255 255
1.916419 -20.435356 0.432 170 255 255
1.862463 -20.532442 0.43 170 255 255
1.684736 -20.614725 0.418 170 255 255
1.839152 -20.657488 0.431 170 255 255
1.925448 -20.659933 0.437 170 255 255
1.896774 -20.784492 0.438 170 255 255
1.650976 -20.643538 0.416 170 255 255
1.824217 -20.503977 0.426 170 255 255
1.823958 -20.596998 0.428 170 255 255
1.621101 -20.631683 0.414 170 255 255
1.612794 -20.665609 0.414 170 255 255
1.886422 -20.498636 0.431 170 255 255
1.829474 -20.577362 0.428 170 255 255
1.900067 -20.586395 0.434 170 255 255
1.942933 -20.418564 0.434 170 255 255
1.935029 -20.458307 0.434 170 255 255
1.959795 -20.436134 0.435 170 255 255
1.706769 -20.71686 0.422 170 255 255
1.87937 -20.602785 0.433 170 255 255
1.71044 -20.645779 0.421 170 255 255
1.7595 -20.604559 0.424 170 255 255
1.780875 -20.734417 0.428 170 255 255
1.789044 -20.542171 0.425 170 255 255
1.903114 -20.538567 0.433 170 255 255
1.743322 -20.673756 0.424 170 255 255
1.947876 -20.41547 0.434 170 255 255
1.703193 -20.657799 0.42 170 255 255
1.885005 -20.567497 0.432 170 255 255
1.82933 -20.714212 0.431 170 255 255
1.687643 -20.644264 0.419 170 255 255
1.602203 -20.646746 0.413 170 255 255
1.918655 -20.671062 0.437 170 255 255
1.769941 -20.584066 0.424 170 255 255
1.769967 -20.698555 0.426 170 255 255
1.685304 -20.657663 0.419 170 255 255
1.811242 -20.681427 0.429 170 255 255
1.941279 -20.518728 0.436 170 255 255
1.780307 -20.691479 0.427 170 255 255
1.850799 -20.478239 0.428 170 255 255
1.871936 -20.639402 0.433 170 255 255
1.896108 -20.695488 0.436 170 255 255
1.930158 -20.628662 0.437 170 255 255
1.897844 -20.643623 0.435 170 255 255
1.742198 -20.645124 0.423 170 255 255
1.833899 -20.524622 0.428 170 255 255
1.760056 -20.590252 0.423 170 255 255
1.757174 -20.675203 0.425 170 255 255
1.8061 -20.651871 0.428 170 255 255
1.742147 -20.651834 0.423 170 255 255
1.863302 -20.775293 0.435 170 255 255
1.662864 -20.609192 0.416 170 255 255
1.680247 -20.616928 0.418 170 255 255
1.870066 -20.473467 0.429 170 255 255
1.71943 -20.69862 0.422 170 255 255
1.933577 -20.531641 0.435 170 255 255
1.708603 -20.71106 0.422 170 255 255
1.89747 -20.692816 0.436 170 255 255
1.76001 -20.537479 0.422 170 255 255
1.899388 -20.440147 0.431 170 255 255
1.75984 -20.559839 0.423 170 255 255
1.917947 -20.705492 0.438 170 255 255
1.889765 -20.52952 0.432 170 255 255
1.910649 -20.72422 0.437 170 255 255
1.930603 -20.511045 0.435 170 255 255
1.599462 -20.654327 0.412 170 255 255
1.793991 -20.715286 0.428 170 255 255
1.950795 -20.502254 0.436 170 255 255
1.822273 -20.642155 0.429 170 255 255
1.81618 -20.502127 0.426 170 255 255
1.787571 -20.677221 0.427 170 255 255
1.69435 -20.644314 0.419 170 255 255
1.885437 -20.628325 0.434 170 255 255
1.916607 -20.646448 0.436 170 255 255
1.815205 -20.748541 0.431 170 255 255
1.722777 -20.670023 0.422 170 255 255
1.774545 -20.625692 0.425 170 255 255
1.832537 -20.527296 0.428 170 255 255
1.876549 -20.562067 0.432 170 255 255
1.792917 -20.679947 0.428 170 255 255
1.77359 -20.574701 0.424 170 255 255
1.633944 -20.648329 0.415 170 255 255
1.74087 -20.643328 0.423 170 255 255
1.894853 -20.625265 0.434 170 255 255
1.816719 -20.725744 0.43 170 255 255
1.874884 -20.781195 0.436 170 255 255
1.685805 -20.709545 0.42 170 255 255
1.860298 -20.69969 0.433 170 255 255
1.854185 -20.621378 0.431 170 255 255
1.801211 -20.588776 0.426 170 255 255
1.828659 -20.68469 0.43 170 255 255
1.881746 -20.525433 0.431 170 255 255
1.780422 -20.735308 0.428 170 255 255
1.806745 -20.566902 0.426 170 255 255
1.767065 -20.609537 0.424 170 255 255
1.83269 -20.507172 0.427 170 255 255
1.738146 -20.648672 0.423 170 255 255
1.897441 -20.637806 0.435 170 255 255
1.859573 -20.736357 0.434 170 255 255
1.843679 -20.591333 0.43 170 255 255
1.804865 -20.755619 0.43 170 255 255
1.813923 -20.563828 0.427 170 255 255
1.829784 -20.713322 0.431 170 255 255
1.72761 -20.56362 0.42 170 255 255
1.876175 -20.611259 0.432 170 255 255
1.737509 -20.614677 0.422 170 255 255
1.793499 -20.544441 0.425 170 255 255
1.926704 -20.494469 0.434 170 255 255
1.87887 -20.786591 0.436 170 255 255
1.822719 -20.760227 0.432 170 255 255
1.927035 -20.56871 0.436 170 255 255
1.813792 -20.757923 0.431 170 255 255
1.635556 -20.671597 0.416 170 255 255
1.788979 -20.727324 0.428 170 255 255
1.892136 -20.747337 0.437 170 255 255
1.703782 -20.639019 0.42 170 255 255
1.8061 -20.651871 0.428 170 255 255
1.804831 -20.524403 0.425 170 255 255
1.929729 -20.508354 0.435 170 255 255
1.830263 -20.591232 0.429 170 255 255
1.814179 -20.530287 0.426 170 255 255
1.750943 -20.612543 0.423 170 255 255
1.682208 -20.7122 0.42 170 255 255
1.925601 -20.639811 0.437 170 255 255
1.917035 -20.531069 0.434 170 255 255
1.777889 -20.656576 0.426 170 255 255
1.841307 -20.609205 0.43 170 255 255
1.771991 -20.608679 0.425 170 255 255
1.689272 -20.665297 0.42 170 255 255
1.830874 -20.746424 0.432 170 255 255
1.845906 -20.710312 0.432 170 255 255
1.782454 -20.526468 0.424 170 255 255
1.922389 -20.650518 0.437 170 255 255
1.876112 -20.79641 0.436 170 255 255
1.6941 -20.618372 0.419 170 255 255
1.664276 -20.599812 0.416 170 255 255
1.821569 -20.617104 0.429 170 255 255
1.906469 -20.626694 0.435 170 255 255
1.929402 -20.610321 0.437 170 255 255
1.654233 -20.685602 0.417 170 255 255
1.741917 -20.564175 0.421 170 255 255
1.77172 -20.644455 0.425 170 255 255
1.789243 -20.574821 0.425 170 255 255
1.812799 -20.535196 0.426 170 255 255
1.775458 -20.56443 0.424 170 255 255
1.859832 -20.643335 0.432 170 255 255
1.838494 -20.685213 0.431 170 255 255
1.930357 -20.661312 0.438 170 255 255
1.679081 -20.711729 0.42 170 255 255
1.682653 -20.594584 0.418 170 255 255
1.702675 -20.608152 0.419 170 255 255
1.841214 -20.50366 0.428 170 255 255
1.890325 -20.45573 0.43 170 255 255
1.779742 -20.58906 0.425 170 255 255
1.781253 -20.625744 0.426 170 255 255
1.666509 -20.659307 0.418 170 255 255
1.685436 -20.699255 0.42 170 255 255
1.873256 -20.760162 0.435 170 255 255
1.870011 -20.539656 0.431 170 255 255
1.772704 -20.750454 0.428 170 255 255
1.671553 -20.642801 0.418 170 255 255
1.860523 -20.611139 0.431 170 255 255
1.86463 -20.777092 0.435 170 255 255
1.880236 -20.724438 0.435 170 255 255
1.899893 -20.668236 0.436 170 255 255
1.786192 -20.682133 0.427 170 255 255
1.781461 -20.539431 0.424 170 255 255
1.65437 -20.667713 0.417 170 255 255
1.80257 -20.645582 0.428 170 255 255
1.861138 -20.471163 0.429 170 255 255
1.932839 -20.511063 0.435 170 255 255
1.890877 -20.736593 0.436 170 255 255
1.634615 -20.677849 0.416 170 255 255
1.851278 -20.591839 0.43 170 255 255
1.850192 -20.734943 0.433 170 255 255
1.736982 -20.683994 0.424 170 255 255
1.929089 -20.533842 0.435 170 255 255
1.625688 -20.675547 0.415 170 255 255
1.92084 -20.677788 0.437 170 255 255
1.702115 -20.681942 0.421 170 255 255
1.827921 -20.664112 0.43 170 255 255
1.836471 -20.5394 0.428 170 255 255
1.856378 -20.50914 0.429 170 255 255
1.618508 -20.678623 0.414 170 255 255
1.802896 -20.543617 0.426 170 255 255
1.628531 -20.654549 0.415 170 255 255
1.861436 -20.785564 0.435 170 255 255
1.70884 -20.679756 0.421 170 255 255
1.751914 -20.661299 0.424 170 255 255
1.895874 -20.667313 0.435 170 255 255
1.867588 -20.564236 0.431 170 255 255
1.795034 -20.695616 0.428 170 255 255
1.87623 -20.545069 0.431 170 255 255
1.745502 -20.739962 0.425 170 255 255
1.871186 -20.797266 0.436 170 255 255
1.667531 -20.701355 0.419 170 255 255
1.757774 -20.537462 0.422 170 255 255
1.803647 -20.621441 0.427 170 255 255
1.921332 -20.612942 0.436 170 255 255
1.951742 -20.43652 0.435 170 255 255
1.728981 -20.677673 0.423 170 255 255
1.898794 -20.518408 0.432 170 255 255
1.782891 -20.527815 0.424 170 255 255
1.817012 -20.628252 0.428 170 255 255
1.877257 -20.527636 0.431 170 255 255
1.671753 -20.675449 0.418 170 255 255
1.87318 -20.652382 0.433 170 255 255
1.899214 -20.521988 0.432 170 255 255
1.73919 -20.629002 0.423 170 255 255
1.611113 -20.651285 0.413 170 255 255
1.785047 -20.715218 0.428 170 255 255
1.861122 -20.709087 0.433 170 255 255
1.826017 -20.502647 0.427 170 255 255
1.693731 -20.608086 0.419 170 255 255
1.880316 -20.53705 0.431 170 255 255
1.87618 -20.551777 0.431 170 255 255
1.807724 -20.732386 0.43 170 255 255
1.85441 -20.532827 0.429 170 255 255
1.857434 -20.546717 0.43 170 255 255
1.66989 -20.62624 0.417 170 255 255
1.86149 -20.719376 0.434 170 255 255
1.90372 -20.51755 0.433 170 255 255
1.745104 -20.674664 0.424 170 255 255
1.867855 -20.58794 0.431 170 255 255
1.898874 -20.802397 0.438 170 255 255
1.817292 -20.709202 0.43 170 255 255
1.850764 -20.718401 0.433 170 255 255
1.928122 -20.425606 0.433 170 255 255
1.698432 -20.695778 0.421 170 255 255
1.792892 -20.565456 0.425 170 255 255
1.78878 -20.694674 0.428 170 255 255
1.684358 -20.723398 0.42 170 255 255
1.921375 -20.48951 0.433 170 255 255
1.822329 -20.575966 0.428 170 255 255
1.796481 -20.681763 0.428 170 255 255
1.671201 -20.630274 0.417 170 255 255
1.889663 -20.778624 0.437 170 255 255
1.795607 -20.679073 0.428 170 255 255
1.704474 -20.606825 0.419 170 255 255
1.809001 -20.740892 0.43 170 255 255
1.832219 -20.5103 0.427 170 255 255
1.643071 -20.683281 0.416 170 255 255
1.604791 -20.659288 0.413 170 255 255
1.948445 -20.458408 0.435 170 255 255
1.765398 -20.652458 0.425 170 255 255
1.900113 -20.639168 0.435 170 255 255
1.650907 -20.652483 0.416 170 255 255
1.768529 -20.593447 0.424 170 255 255
1.932703 -20.52895 0.435 170 255 255
1.897368 -20.70623 0.436 170 255 255
1.727157 -20.56451 0.42 170 255 255
1.809452 -20.563793 0.427 170 255 255
1.663716 -20.673599 0.418 170 255 255
1.746186 -20.591042 0.422 170 255 255
1.784737 -20.579258 0.425 170 255 255
1.736393 -20.702774 0.424 170 255 255
1.901769 -20.774691 0.438 170 255 255
1.893015 -20.690546 0.435 170 255 255
1.690281 -20.650097 0.419 170 255 255
1.930111 -20.57589 0.436 170 255 255
1.842147 -20.616367 0.43 170 255 255
1.786604 -20.568987 0.425 170 255 255
1.629472 -20.648294 0.415 170 255 255
1.661732 -20.699522 0.418 170 255 255
1.906503 -20.622223 0.435 170 255 255
1.737238 -20.650454 0.423 170 255 255
1.795824 -20.709484 0.428 170 255 255
1.838626 -20.726805 0.432 170 255 255
1.717228 -20.69413 0.422 170 255 255
1.880928 -20.456554 0.43 170 255 255
1.812442 -20.582153 0.427 170 255 255
1.650517 -20.703911 0.417 170 255 255
1.91482 -20.469334 0.433 170 255 255
1.711699 -20.656521 0.421 170 255 255
1.709934 -20.653378 0.421 170 255 255
1.90221 -20.716555 0.437 170 255 255
1.827552 -20.653824 0.43 170 255 255
1.716558 -20.664608 0.422 170 255 255
1.871852 -20.650581 0.433 170 255 255
1.859738 -20.537788 0.43 170 255 255
1.898259 -20.470997 0.431 170 255 255
1.760115 -20.70027 0.426 170 255 255
1.788729 -20.701382 0.428 170 255 255
1.746839 -20.622799 0.423 170 255 255
1.866302 -20.674688 0.433 170 255 255
1.897013 -20.753187 0.437 170 255 255
1.814271 -20.635834 0.428 170 255 255
1.734671 -20.576195 0.421 170 255 255
1.882204 -20.70075 0.435 170 255 255
1.898561 -20.725918 0.437 170 255 255
1.727538 -20.632046 0.422 170 255 255
1.931804 -20.647459 0.437 170 255 255
1.883278 -20.500399 0.431 170 255 255
1.854711 -20.552061 0.43 170 255 255
1.845711 -20.618183 0.43 170 255 255
1.809278 -20.645634 0.428 170 255 255
1.584565 -20.672552 0.412 170 255 255
1.849563 -20.581987 0.43 170 255 255
1.906958 -20.62133 0.435 170 255 255
1.894865 -20.68251 0.435 170 255 255
1.822163 -20.774534 0.432 170 255 255
1.828757 -20.495066 0.427 170 255 255
1.845279 -20.557358 0.429 170 255 255
1.881004 -20.564337 0.432 170 255 255
1.819855 -20.607254 0.428 170 255 255
1.887809 -20.610453 0.433 170 255 255
1.604422 -20.648998 0.413 170 255 255
1.850264 -20.666517 0.432 170 255 255
1.63551 -20.618822 0.414 170 255 255
1.795607 -20.679073 0.428 170 255 255
1.844952 -20.659321 0.431 170 255 255
1.636299 -20.632694 0.415 170 255 255
1.772382 -20.557249 0.424 170 255 255
1.893698 -20.777313 0.437 170 255 255
1.676713 -20.67012 0.419 170 255 255
1.862093 -20.757841 0.434 170 255 255
1.881967 -20.496367 0.431 170 255 255
1.896393 -20.716957 0.436 170 255 255
1.788 -20.561842 0.425 170 255 255
1.872412 -20.576794 0.432 170 255 255
1.851494 -20.622252 0.431 170 255 255
1.931923 -20.631807 0.437 170 255 255
1.643694 -20.66003 0.416 170 255 255
1.815022 -20.713655 0.43 170 255 255
1.862653 -20.684053 0.433 170 255 255
1.888997 -20.453932 0.43 170 255 255
1.901764 -20.598482 0.434 170 255 255
1.895798 -20.559528 0.433 170 255 255
1.752236 -20.618814 0.423 170 255 255
1.928694 -20.644751 0.437 170 255 255
1.782395 -20.652138 0.426 170 255 255
1.829797 -20.534878 0.427 170 255 255
1.799358 -20.656292 0.428 170 255 255
1.814768 -20.747196 0.431 170 255 255
1.876985 -20.799099 0.436 170 255 255
1.828638 -20.746408 0.432 170 255 255
1.602084 -20.662397 0.413 170 255 255
1.794877 -20.539532 0.425 170 255 255
1.707801 -20.639944 0.42 170 255 255
1.685403 -20.703728 0.42 170 255 255
1.867728 -20.486866 0.429 170 255 255
1.728981 -20.677673 0.423 170 255 255
1.780057 -20.665537 0.426 170 255 255
1.808039 -20.573175 0.427 170 255 255
1.833385 -20.651184 0.43 170 255 255
1.720996 -20.669115 0.422 170 255 255
1.676178 -20.622709 0.418 170 255 255
1.841638 -20.683447 0.431 170 255 255
1.797805 -20.507353 0.424 170 255 255
1.799158 -20.623644 0.427 170 255 255
1.91288 -20.548031 0.434 170 255 255
1.818099 -20.720835 0.43 170 255 255
1.759835 -20.61932 0.424 170 255 255
1.727551 -20.689289 0.423 170 255 255
1.773612 -20.748672 0.428 170 255 255
1.866484 -20.709574 0.434 170 255 255
1.667616 -20.690176 0.418 170 255 255
1.657871 -20.618992 0.416 170 255 255
1.837879 -20.5895 0.429 170 255 255
1.848949 -20.721964 0.433 170 255 255
1.705124 -20.698063 0.421 170 255 255
1.806558 -20.591499 0.427 170 255 255
1.763633 -20.649313 0.425 170 255 255
1.710325 -20.60195 0.42 170 255 255
1.831514 -20.720938 0.431 170 255 255
1.632344 -20.682306 0.416 170 255 255
1.732736 -20.595411 0.421 170 255 255
1.657009 -20.673548 0.417 170 255 255
1.774575 -20.680702 0.426 170 255 255
1.887322 -20.615814 0.434 170 255 255
1.773624 -20.57023 0.424 170 255 255
1.75143 -20.607182 0.423 170 255 255
1.819545 -20.706984 0.43 170 255 255
1.680345 -20.662992 0.419 170 255 255
1.972849 -20.542673 0.404 170 255 255
1.970635 -20.480938 0.406 170 255 255
1.970338 -20.402224 0.389 170 255 255
1.974683 -20.536873 0.386 170 255 255
1.975187 -20.529274 0.371 170 255 255
1.972685 -20.505552 0.392 170 255 255
1.967144 -20.410696 0.421 170 255 255
1.974178 -20.544472 0.393 170 255 255
1.975603 -20.592335 0.392 170 255 255
1.97181 -20.502861 0.401 170 255 255
1.974615 -20.545816 0.393 170 255 255
1.968637 -20.449617 0.421 170 255 255
1.97333 -20.420584 0.366 170 255 255
1.969125 -20.444254 0.413 170 255 255
1.968302 -20.434856 0.419 170 255 255
1.976664 -20.570429 0.377 170 255 255
1.975506 -20.54627 0.382 170 255 255
1.970758 -20.405806 0.382 170 255 255
1.97526 -20.460848 0.358 170 255 255
1.974092 -20.555651 0.397 170 255 255
1.977334 -20.599953 0.378 170 255 255
