ply
format ascii 1.0
element vertex 1302
property double x
property double y
property double z
property uchar red
property uchar green
property uchar blue
element face 0
property list uchar int vertex_indices
end_header
4.014419 -17.599768 0.382 84 255 255
4.023812 -17.658424 0.38 84 255 255
3.992508 -17.658188 0.378 84 255 255
3.94999 -17.662338 0.376 84 255 255
4.153717 -17.689823 0.384 84 255 255
4.12929 -17.667276 0.384 84 255 255
4.128717 -17.683819 0.383 84 255 255
4.163586 -17.685873 0.384 84 255 255
4.217721 -17.683153 0.387 84 255 255
4.077102 -17.708025 0.379 84 255 255
3.992627 -17.642536 0.379 84 255 255
4.012084 -17.553686 0.385 84 255 255
4.00962 -17.701698 0.377 84 255 255
4.02671 -17.571238 0.384 84 255 255
4.045094 -17.682737 0.379 84 255 255
4.024389 -17.582401 0.384 84 255 255
4.128433 -17.66235 0.384 84 255 255
3.927748 -17.646515 0.376 84 255 255
4.289705 -17.744522 0.387 84 255 255
4.011295 -17.539816 0.385 84 255 255
4.136838 -17.67449 0.384 84 255 255
3.920769 -17.682241 0.374 84 255 255
4.083713 -17.66201 0.382 84 255 255
4.102326 -17.625479 0.385 84 255 255
3.945365 -17.682426 0.375 84 255 255
3.993645 -17.508375 0.386 84 255 255
4.158375 -17.665262 0.385 84 255 255
3.993364 -17.663115 0.378 84 255 255
3.981557 -17.510073 0.386 84 255 255
3.994005 -17.637627 0.379 84 255 255
4.040262 -17.553452 0.386 84 255 255
3.903335 -17.681213 0.373 84 255 255
4.121173 -17.617126 0.386 84 255 255
4.098456 -17.663912 0.383 84 255 255
3.93029 -17.606285 0.378 84 255 255
3.951925 -17.643122 0.377 84 255 255
4.169182 -17.714539 0.383 84 255 255
4.11013 -17.599152 0.387 84 255 255
3.929683 -17.6273 0.377 84 255 255
4.146911 -17.643707 0.386 84 255 255
3.939955 -17.629166 0.377 84 255 255
3.955798 -17.545208 0.382 84 255 255
4.081413 -17.611456 0.385 84 255 255
3.995061 -17.675201 0.377 84 255 255
3.940893 -17.682392 0.375 84 255 255
4.148354 -17.689335 0.384 84 255 255
4.060751 -17.623375 0.383 84 255 255
4.036083 -17.691614 0.378 84 255 255
3.977068 -17.512276 0.385 84 255 255
3.957322 -17.639137 0.378 84 255 255
3.965922 -17.507717 0.385 84 255 255
4.175186 -17.689539 0.385 84 255 255
4.000803 -17.567017 0.383 84 255 255
3.999848 -17.516026 0.386 84 255 255
4.10402 -17.697048 0.381 84 255 255
3.986203 -17.663954 0.378 84 255 255
3.946646 -17.631453 0.378 84 255 255
4.065125 -17.577345 0.386 84 255 255
4.129239 -17.673985 0.384 84 255 255
3.96089 -17.581472 0.381 84 255 255
4.071842 -17.69412 0.38 84 255 255
4.059554 -17.66317 0.381 84 255 255
3.993144 -17.692183 0.376 84 255 255
3.982957 -17.679134 0.377 84 255 255
4.266641 -17.719303 0.387 84 255 255
3.914935 -17.684879 0.373 84 255 255
4.218004 -17.704622 0.386 84 255 255
3.939149 -17.617533 0.378 84 255 255
3.942425 -17.65736 0.376 84 255 255
4.076653 -17.649435 0.382 84 255 255
4.029811 -17.692907 0.378 84 255 255
3.956193 -17.669987 0.376 84 255 255
4.008291 -17.6999 0.377 84 255 255
4.045942 -17.570938 0.385 84 255 255
3.996496 -17.604105 0.381 84 255 255
4.141212 -17.628458 0.386 84 255 255
4.032591 -17.621372 0.382 84 255 255
3.988125 -17.587492 0.382 84 255 255
3.963075 -17.588198 0.381 84 255 255
3.985482 -17.64114 0.379 84 255 255
3.955675 -17.620342 0.379 84 255 255
3.978019 -17.622747 0.379 84 255 255
4.158308 -17.674204 0.385 84 255 255
4.010688 -17.560831 0.384 84 255 255
4.032488 -17.634789 0.381 84 255 255
4.269144 -17.743025 0.386 84 255 255
3.982664 -17.540939 0.384 84 255 255
4.176849 -17.706099 0.384 84 255 255
4.030944 -17.602577 0.383 84 255 255
3.949689 -17.643105 0.377 84 255 255
4.177705 -17.711025 0.384 84 255 255
4.029527 -17.671438 0.379 84 255 255
3.945484 -17.666775 0.376 84 255 255
4.016464 -17.683861 0.378 84 255 255
4.119387 -17.675697 0.383 84 255 255
4.047436 -17.609858 0.383 84 255 255
4.007655 -17.665905 0.378 84 255 255
4.124631 -17.691837 0.382 84 255 255
4.117839 -17.702969 0.381 84 255 255
4.021834 -17.565388 0.384 84 255 255
4.195594 -17.711161 0.385 84 255 255
4.023511 -17.639193 0.381 84 255 255
4.023481 -17.584183 0.383 84 255 255
4.233419 -17.736046 0.385 84 255 255
4.206621 -17.731369 0.384 84 255 255
3.962667 -17.641861 0.378 84 255 255
4.03427 -17.635696 0.381 84 255 255
3.98905 -17.583475 0.382 84 255 255
4.108309 -17.662197 0.383 84 255 255
4.037343 -17.702356 0.378 84 255 255
4.010333 -17.607786 0.382 84 255 255
4.136707 -17.632896 0.386 84 255 255
3.928975 -17.66173 0.375 84 255 255
4.213282 -17.678646 0.387 84 255 255
3.940193 -17.597862 0.379 84 255 255
4.017745 -17.868576 0.413 84 255 255
3.945267 -17.872051 0.541 84 255 255
3.947503 -17.872068 0.538 84 255 255
3.913055 -17.873594 0.599 84 255 255
3.995384 -17.868406 0.453 84 255 255
3.904565 -17.872637 0.614 84 255 255
3.989096 -17.871937 0.462 84 255 255
3.976117 -17.873178 0.485 84 255 255
4.070407 -17.529531 0.354 84 255 255
4.106756 -17.51326 0.315 84 255 255
4.030749 -17.510447 0.364 84 255 255
4.104805 -17.534712 0.335 84 255 255
4.278291 -17.716261 0.377 84 255 255
4.136159 -17.52824 0.308 84 255 255
4.131212 -17.590815 0.366 84 255 255
4.094278 -17.566385 0.37 84 255 255
4.114401 -17.566538 0.356 84 255 255
4.119061 -17.541975 0.331 84 255 255
4.041004 -17.514549 0.36 84 255 255
4.24403 -17.693192 0.38 84 255 255
4.138608 -17.618153 0.386 84 255 255
4.159572 -17.625467 0.378 84 255 255
4.111631 -17.51911 0.317 84 255 255
4.199599 -17.65484 0.376 84 255 255
4.094312 -17.561913 0.366 84 255 255
4.182755 -17.635035 0.37 84 255 255
4.178168 -17.591171 0.334 84 255 255
4.000841 -17.503063 0.378 84 255 255
4.050924 -17.503891 0.344 84 255 255
4.120894 -17.536175 0.326 84 255 255
4.073314 -17.559069 0.378 84 255 255
4.099106 -17.519463 0.325 84 255 255
4.067365 -17.517879 0.346 84 255 255
4.276459 -17.722061 0.383 84 255 255
4.000371 -17.506189 0.381 84 255 255
4.057615 -17.506178 0.342 84 255 255
4.117835 -17.52676 0.319 84 255 255
4.034364 -17.505554 0.357 84 255 255
4.099925 -17.588341 0.386 84 255 255
4.005767 -17.502207 0.374 84 255 255
4.155172 -17.557009 0.32 84 255 255
4.09194 -17.579782 0.383 84 255 255
4.190807 -17.634649 0.364 84 255 255
4.117058 -17.570135 0.357 84 255 255
3.976767 -17.493042 0.385 84 255 255
4.174672 -17.580412 0.327 84 255 255
4.165593 -17.598232 0.35 84 255 255
4.214966 -17.63349 0.347 84 255 255
4.198458 -17.628445 0.354 84 255 255
4.164786 -17.586597 0.339 84 255 255
4.257345 -17.706709 0.383 84 255 255
4.053444 -17.525377 0.361 84 255 255
4.13296 -17.596195 0.37 84 255 255
3.987459 -17.498489 0.383 84 255 255
4.063852 -17.509356 0.34 84 255 255
4.20856 -17.652672 0.368 84 255 255
4.185496 -17.627453 0.362 84 255 255
4.165825 -17.62641 0.374 84 255 255
4.019013 -17.524668 0.385 84 255 255
4.170179 -17.642096 0.386 84 255 255
4.088194 -17.543083 0.353 84 255 255
4.108941 -17.519983 0.319 84 255 255
4.11632 -17.549557 0.341 84 255 255
4.055982 -17.544628 0.377 84 255 255
4.138964 -17.571196 0.344 84 255 255
4.004775 -17.515169 0.385 84 255 255
4.183277 -17.6252 0.361 84 255 255
4.003917 -17.510242 0.382 84 255 255
4.036379 -17.534639 0.381 84 255 255
4.192691 -17.622141 0.352 84 255 255
4.194037 -17.621704 0.352 84 255 255
4.121916 -17.578222 0.362 84 255 255
4.172419 -17.58263 0.331 84 255 255
3.997731 -17.500357 0.378 84 255 255
4.222697 -17.675589 0.379 84 255 255
4.280511 -17.718513 0.378 84 255 255
4.059023 -17.556278 0.385 84 255 255
4.004354 -17.511587 0.383 84 255 255
4.033337 -17.522987 0.373 84 255 255
4.032395 -17.529242 0.379 84 255 255
4.152245 -17.589186 0.351 84 255 255
4.04302 -17.543634 0.385 84 255 255
4.176654 -17.61397 0.356 84 255 255
4.133329 -17.606483 0.379 84 255 255
4.022611 -17.522013 0.379 84 255 255
4.204155 -17.643694 0.363 84 255 255
4.091877 -17.529245 0.339 84 255 255
4.095623 -17.565947 0.369 84 255 255
4.129502 -17.521482 0.306 84 255 255
4.164298 -17.591961 0.345 84 255 255
4.19629 -17.619484 0.347 84 255 255
4.203651 -17.651293 0.371 84 255 255
4.16166 -17.586126 0.341 84 255 255
4.19654 -17.645426 0.37 84 255 255
3.983037 -17.491749 0.38 84 255 255
4.22848 -17.679657 0.379 84 255 255
4.12279 -17.580912 0.364 84 255 255
4.116858 -17.537487 0.329 84 255 255
4.169304 -17.639404 0.383 84 255 255
4.235693 -17.67211 0.367 84 255 255
4.159173 -17.560169 0.32 84 255 255
4.064471 -17.545586 0.372 84 255 255
4.090549 -17.527449 0.338 84 255 255
4.019989 -17.513943 0.374 84 255 255
4.019973 -17.516178 0.376 84 255 255
4.099505 -17.584761 0.382 84 255 255
4.115111 -17.532106 0.325 84 255 255
4.111105 -17.588427 0.378 84 255 255
4.243627 -17.687376 0.375 84 255 255
4.094011 -17.542681 0.349 84 255 255
4.128238 -17.570221 0.35 84 255 255
4.088881 -17.570368 0.377 84 255 255
4.071854 -17.515678 0.34 84 255 255
4.164786 -17.586597 0.34 84 255 255
4.172873 -17.581739 0.33 84 255 255
4.178838 -17.620693 0.361 84 255 255
4.219388 -17.640232 0.35 84 255 255
4.265466 -17.69738 0.369 84 255 255
4.084477 -17.561392 0.372 84 255 255
4.16129 -17.575838 0.333 84 255 255
4.147586 -17.613749 0.376 84 255 255
4.045675 -17.547232 0.386 84 255 255
4.138243 -17.548382 0.324 84 255 255
4.183124 -17.645323 0.379 84 255 255
4.126439 -17.571548 0.353 84 255 255
4.178368 -17.623821 0.364 84 255 255
4.151205 -17.549376 0.316 84 255 255
4.108972 -17.574993 0.367 84 255 255
4.074272 -17.550579 0.37 84 255 255
4.167994 -17.63537 0.38 84 255 255
4.120923 -17.591185 0.374 84 255 255
4.248452 -17.699934 0.383 84 255 255
4.118284 -17.58535 0.371 84 255 255
4.194287 -17.647644 0.374 84 255 255
4.075533 -17.561323 0.378 84 255 255
4.207181 -17.657581 0.374 84 255 255
4.133783 -17.605593 0.378 84 255 255
4.156058 -17.616943 0.373 84 255 255
4.239644 -17.681978 0.373 84 255 255
4.281822 -17.722549 0.381 84 255 255
4.026799 -17.500578 0.358 84 255 255
4.151842 -17.583368 0.345 84 255 255
4.163997 -17.572727 0.328 84 255 255
4.270222 -17.718884 0.385 84 255 255
4.074862 -17.531801 0.353 84 255 255
4.048064 -17.527124 0.367 84 255 255
4.179916 -17.596552 0.339 84 255 255
4.191631 -17.644047 0.372 84 255 255
4.114635 -17.594715 0.381 84 255 255
4.135162 -17.600685 0.373 84 255 255
3.975002 -17.489899 0.384 84 255 255
4.12531 -17.602398 0.381 84 255 255
4.195683 -17.640499 0.367 84 255 255
4.032883 -17.52388 0.374 84 255 255
4.12587 -17.52861 0.315 84 255 255
4.143873 -17.572575 0.342 84 255 255
4.163357 -17.598215 0.352 84 255 255
4.068557 -17.537567 0.362 84 255 255
4.01651 -17.500946 0.365 84 255 255
4.035454 -17.538656 0.385 84 255 255
4.231374 -17.651951 0.352 84 255 255
4.099641 -17.566874 0.367 84 255 255
4.139146 -17.606081 0.374 84 255 255
4.084813 -17.576151 0.385 84 255 255
4.15448 -17.589203 0.349 84 255 255
4.098852 -17.553003 0.355 84 255 255
4.171494 -17.586649 0.335 84 255 255
4.254723 -17.698641 0.378 84 255 255
4.118738 -17.584459 0.369 84 255 255
4.045981 -17.506985 0.351 84 255 255
4.064624 -17.525463 0.354 84 255 255
4.02004 -17.507235 0.368 84 255 255
4.104754 -17.54142 0.341 84 255 255
4.226817 -17.663097 0.365 84 255 255
4.11842 -17.567463 0.354 84 255 255
4.107948 -17.532946 0.331 84 255 255
4.231357 -17.654186 0.354 84 255 255
4.201852 -17.652622 0.373 84 255 255
4.251612 -17.695932 0.378 84 255 255
4.05089 -17.508362 0.348 84 255 255
3.991511 -17.494942 0.377 84 255 255
4.007095 -17.504005 0.375 84 255 255
4.225557 -17.652355 0.357 84 255 255
4.130275 -17.537588 0.32 84 255 255
4.077552 -17.530928 0.35 84 255 255
4.197431 -17.64588 0.371 84 255 255
4.226767 -17.669806 0.372 84 255 255
4.065129 -17.517862 0.347 84 255 255
4.127966 -17.605995 0.382 84 255 255
4.031085 -17.525208 0.376 84 255 255
4.172164 -17.616171 0.361 84 255 255
4.284007 -17.729275 0.384 84 255 255
4.193918 -17.637356 0.365 84 255 255
4.236601 -17.670326 0.365 84 255 255
4.071616 -17.546982 0.368 84 255 255
4.069381 -17.546965 0.37 84 255 255
4.222782 -17.664408 0.369 84 255 255
4.170365 -17.617498 0.363 84 255 255
4.104432 -17.583904 0.379 84 255 255
4.034716 -17.51808 0.368 84 255 255
4.091927 -17.522539 0.333 84 255 255
4.134878 -17.579216 0.353 84 255 255
4.115747 -17.566101 0.355 84 255 255
4.220041 -17.671989 0.377 84 255 255
4.108568 -17.569176 0.362 84 255 255
4.234853 -17.664948 0.361 84 255 255
4.115111 -17.532106 0.326 84 255 255
4.305777 -17.748222 0.387 84 255 255
4.19301 -17.639137 0.367 84 255 255
4.0677 -17.53264 0.358 84 255 255
4.20175 -17.666039 0.385 84 255 255
4.148005 -17.617329 0.379 84 255 255
4.183158 -17.640852 0.376 84 255 255
4.228264 -17.649244 0.353 84 255 255
4.052235 -17.507927 0.347 84 255 255
4.136694 -17.575651 0.349 84 255 255
4.121785 -17.536629 0.325 84 255 255
4.022259 -17.509487 0.369 84 255 255
4.240233 -17.663198 0.356 84 255 255
4.059528 -17.548679 0.378 84 255 255
4.079653 -17.548832 0.365 84 255 255
4.178668 -17.643053 0.38 84 255 255
4.102972 -17.540512 0.341 84 255 255
4.143033 -17.565414 0.336 84 255 255
4.087922 -17.578859 0.386 84 255 255
4.211687 -17.653143 0.367 84 255 255
4.100634 -17.553911 0.354 84 255 255
4.057258 -17.553135 0.384 84 255 255
4.063279 -17.525898 0.355 84 255 255
4.136172 -17.585485 0.358 84 255 255
4.136864 -17.553291 0.33 84 255 255
4.034615 -17.531494 0.38 84 255 255
4.112739 -17.549978 0.343 84 255 255
4.078761 -17.548378 0.365 84 255 255
4.228951 -17.676531 0.376 84 255 255
4.139164 -17.603846 0.372 84 255 255
4.065834 -17.542913 0.368 84 255 255
4.196909 -17.655714 0.379 84 255 255
4.13649 -17.602484 0.374 84 255 255
4.263093 -17.71525 0.387 84 255 255
4.128289 -17.563513 0.344 84 255 255
4.131565 -17.60334 0.377 84 255 255
4.159236 -17.610706 0.365 84 255 255
4.201584 -17.628916 0.352 84 255 255
4.13994 -17.560471 0.334 84 255 255
4.042786 -17.515457 0.36 84 255 255
4.116434 -17.593386 0.379 84 255 255
4.032378 -17.531479 0.381 84 255 255
4.150971 -17.756887 0.386 84 255 255
4.079941 -17.746508 0.384 84 255 255
4.085453 -17.786352 0.39 84 255 255
3.963368 -17.726393 0.38 84 255 255
4.093421 -17.797146 0.392 84 255 255
4.202599 -17.789925 0.392 84 255 255
4.093039 -17.729612 0.382 84 255 255
4.120307 -17.731161 0.382 84 255 255
4.229702 -17.754354 0.387 84 255 255
4.137118 -17.75544 0.386 84 255 255
4.066636 -17.849716 0.4 84 255 255
4.083449 -17.814512 0.394 84 255 255
4.071701 -17.77149 0.388 84 255 255
4.012911 -17.73929 0.382 84 255 255
4.102267 -17.75115 0.385 84 255 255
3.980296 -17.735018 0.381 84 255 255
4.040448 -17.764545 0.386 84 255 255
4.145235 -17.80559 0.394 84 255 255
4.11284 -17.772249 0.388 84 255 255
4.000247 -17.817013 0.394 84 255 255
4.070743 -17.779982 0.389 84 255 255
4.105407 -17.808867 0.394 84 255 255
4.090158 -17.814564 0.395 84 255 255
4.175766 -17.789722 0.392 84 255 255
4.130003 -17.809053 0.394 84 255 255
4.042981 -17.843275 0.398 84 255 255
4.072359 -17.743767 0.384 84 255 255
3.986479 -17.804384 0.392 84 255 255
4.200566 -17.763077 0.388 84 255 255
4.058539 -17.737848 0.383 84 255 255
4.274877 -17.753801 0.387 84 255 255
4.061544 -17.813452 0.394 84 255 255
4.059507 -17.846085 0.399 84 255 255
4.197019 -17.759026 0.387 84 255 255
4.017957 -17.722782 0.38 84 255 255
4.048162 -17.808878 0.393 84 255 255
4.166085 -17.769075 0.389 84 255 255
4.124508 -17.766972 0.388 84 255 255
4.162724 -17.740427 0.384 84 255 255
4.086348 -17.727325 0.381 84 255 255
4.164956 -17.799927 0.393 84 255 255
4.230224 -17.744518 0.385 84 255 255
4.015864 -17.821602 0.395 84 255 255
4.029332 -17.814997 0.394 84 255 255
4.111784 -17.734674 0.383 84 255 255
4.147174 -17.726892 0.382 84 255 255
4.187303 -17.742851 0.385 84 255 255
3.974055 -17.791321 0.39 84 255 255
4.198246 -17.77424 0.39 84 255 255
4.261477 -17.751463 0.387 84 255 255
4.143016 -17.803337 0.393 84 255 255
4.191906 -17.784477 0.391 84 255 255
4.036969 -17.751549 0.384 84 255 255
4.117499 -17.747688 0.385 84 255 255
3.977777 -17.713533 0.378 84 255 255
4.215226 -17.776157 0.39 84 255 255
4.031266 -17.79578 0.391 84 255 255
4.135383 -17.807304 0.394 84 255 255
4.079097 -17.798826 0.392 84 255 255
4.068133 -17.829155 0.396 84 255 255
4.028241 -17.781895 0.389 84 255 255
4.086276 -17.795752 0.392 84 255 255
4.03402 -17.845444 0.398 84 255 255
4.029501 -17.792637 0.39 84 255 255
4.115157 -17.820568 0.396 84 255 255
4.193137 -17.740211 0.384 84 255 255
4.090509 -17.827089 0.396 84 255 255
4.085792 -17.741632 0.383 84 255 255
4.001095 -17.705212 0.377 84 255 255
4.164977 -17.738209 0.384 84 255 255
4.08118 -17.818968 0.395 84 255 255
4.273043 -17.759602 0.388 84 255 255
4.171952 -17.761965 0.387 84 255 255
3.934015 -17.704702 0.376 84 255 255
4.108954 -17.812918 0.394 84 255 255
4.227801 -17.769096 0.389 84 255 255
4.146749 -17.782793 0.39 84 255 255
4.038938 -17.727861 0.381 84 255 255
4.263747 -17.747009 0.386 84 255 255
4.019866 -17.824764 0.395 84 255 255
4.071663 -17.835443 0.397 84 255 255
4.069431 -17.775946 0.388 84 255 255
4.148736 -17.756868 0.387 84 255 255
4.150076 -17.815914 0.395 84 255 255
4.084392 -17.808258 0.393 84 255 255
4.119174 -17.821493 0.396 84 255 255
4.164433 -17.809761 0.395 84 255 255
3.984816 -17.787825 0.389 84 255 255
4.04747 -17.841074 0.398 84 255 255
4.046494 -17.851799 0.4 84 255 255
4.137419 -17.774672 0.389 84 255 255
4.050452 -17.742706 0.383 84 255 255
4.014804 -17.84351 0.398 84 255 255
4.144293 -17.811844 0.395 84 255 255
4.005002 -17.838514 0.397 84 255 255
4.038424 -17.854422 0.4 84 255 255
3.959481 -17.767061 0.386 84 255 255
4.105237 -17.831226 0.397 84 255 255
4.240882 -17.754438 0.387 84 255 255
3.970729 -17.758202 0.385 84 255 255
4.086327 -17.789043 0.391 84 255 255
4.093171 -17.771206 0.388 84 255 255
4.030337 -17.85928 0.4 84 255 255
4.076224 -17.764816 0.387 84 255 255
4.033859 -17.748842 0.384 84 255 255
4.299472 -17.753988 0.388 84 255 255
4.040754 -17.724297 0.38 84 255 255
4.039863 -17.723843 0.38 84 255 255
4.072325 -17.74824 0.384 84 255 255
4.069125 -17.816193 0.394 84 255 255
4.013561 -17.83053 0.396 84 255 255
4.063899 -17.797817 0.392 84 255 255
4.109951 -17.740475 0.383 84 255 255
4.028127 -17.738064 0.382 84 255 255
4.071031 -17.741968 0.383 84 255 255
4.060801 -17.852354 0.4 84 255 255
3.973907 -17.751965 0.384 84 255 255
4.032408 -17.822176 0.395 84 255 255
4.028657 -17.844955 0.398 84 255 255
4.192632 -17.74781 0.386 84 255 255
3.96448 -17.697779 0.375 84 255 255
4.111865 -17.782976 0.39 84 255 255
4.144344 -17.805136 0.394 84 255 255
4.065578 -17.812141 0.394 84 255 255
4.071332 -17.761202 0.386 84 255 255
4.123316 -17.747284 0.385 84 255 255
4.191168 -17.763901 0.388 84 255 255
3.946756 -17.734764 0.381 84 255 255
4.179771 -17.733402 0.383 84 255 255
4.046986 -17.786955 0.39 84 255 255
4.04268 -17.824041 0.395 84 255 255
3.961131 -17.726376 0.38 84 255 255
4.211326 -17.759581 0.388 84 255 255
3.975031 -17.780596 0.388 84 255 255
4.28609 -17.749414 0.387 84 255 255
3.98137 -17.770357 0.387 84 255 255
4.296345 -17.753517 0.388 84 255 255
4.20391 -17.793961 0.393 84 255 255
3.96226 -17.695526 0.375 84 255 255
3.950439 -17.720928 0.379 84 255 255
4.209697 -17.738548 0.384 84 255 255
4.036328 -17.777035 0.388 84 255 255
4.00886 -17.742838 0.383 84 255 255
3.955314 -17.726778 0.38 84 255 255
4.1083 -17.781158 0.39 84 255 255
4.052672 -17.744959 0.383 84 255 255
4.108118 -17.746275 0.384 84 255 255
3.983623 -17.768139 0.386 84 255 255
4.038814 -17.802994 0.392 84 255 255
4.099458 -17.767675 0.387 84 255 255
4.113778 -17.825478 0.396 84 255 255
4.053627 -17.79595 0.391 84 255 255
4.242091 -17.771889 0.39 84 255 255
3.957283 -17.703091 0.376 84 255 255
4.194346 -17.757664 0.387 84 255 255
4.209391 -17.778797 0.39 84 255 255
4.181117 -17.732965 0.383 84 255 255
3.950168 -17.756704 0.384 84 255 255
4.022135 -17.820309 0.395 84 255 255
4.15151 -17.744816 0.385 84 255 255
4.180141 -17.74369 0.385 84 255 255
3.999712 -17.769602 0.387 84 255 255
4.027868 -17.831085 0.396 84 255 255
4.219078 -17.739962 0.385 84 255 255
3.998816 -17.828629 0.396 84 255 255
4.026964 -17.773386 0.388 84 255 255
3.973504 -17.746147 0.383 84 255 255
3.958191 -17.701309 0.376 84 255 255
4.011562 -17.79921 0.391 84 255 255
4.069864 -17.836771 0.398 84 255 255
4.194045 -17.73843 0.384 84 255 255
4.037843 -17.754238 0.385 84 255 255
4.04315 -17.820915 0.395 84 255 255
4.085474 -17.724636 0.381 84 255 255
4.196815 -17.785856 0.391 84 255 255
3.964055 -17.753679 0.384 84 255 255
4.039824 -17.787796 0.39 84 255 255
4.034949 -17.781944 0.389 84 255 255
4.148582 -17.776993 0.389 84 255 255
4.024779 -17.766663 0.386 84 255 255
4.231382 -17.768677 0.389 84 255 255
4.163059 -17.75519 0.386 84 255 255
4.095271 -17.789112 0.391 84 255 255
4.185754 -17.770119 0.389 84 255 255
4.15252 -17.729616 0.382 84 255 255
4.110282 -17.814716 0.395 84 255 255
4.206418 -17.758202 0.387 84 255 255
4.158803 -17.785568 0.391 84 255 255
3.930031 -17.699306 0.375 84 255 255
4.138128 -17.740242 0.384 84 255 255
4.060288 -17.743229 0.383 84 255 255
4.070242 -17.728098 0.381 84 255 255
4.172185 -17.790142 0.392 84 255 255
4.129753 -17.783112 0.39 84 255 255
3.941984 -17.715496 0.378 84 255 255
4.058082 -17.79822 0.392 84 255 255
4.081027 -17.839092 0.398 84 255 255
4.129587 -17.745991 0.385 84 255 255
4.001749 -17.736971 0.382 84 255 255
4.179097 -17.763361 0.388 84 255 255
3.955145 -17.749138 0.383 84 255 255
4.05428 -17.827709 0.396 84 255 255
4.145926 -17.773396 0.389 84 255 255
3.958407 -17.731722 0.38 84 255 255
4.122386 -17.810783 0.394 84 255 255
3.967606 -17.69825 0.376 84 255 255
4.231065 -17.75168 0.387 84 255 255
3.917086 -17.696077 0.375 84 255 255
4.12125 -17.724907 0.381 84 255 255
4.2006 -17.758606 0.387 84 255 255
4.249707 -17.770159 0.39 84 255 255
4.207915 -17.73764 0.384 84 255 255
4.116778 -17.724873 0.381 84 255 255
4.093234 -17.821743 0.396 84 255 255
4.039502 -17.83028 0.396 84 255 255
4.018266 -17.858742 0.4 84 255 255
4.028038 -17.808725 0.393 84 255 255
4.139367 -17.8127 0.395 84 255 255
3.962023 -17.72683 0.38 84 255 255
4.02088 -17.750084 0.384 84 255 255
4.027567 -17.811853 0.393 84 255 255
4.212706 -17.754671 0.387 84 255 255
3.925627 -17.690327 0.374 84 255 255
4.174592 -17.767799 0.388 84 255 255
3.994078 -17.80489 0.392 84 255 255
4.157662 -17.759172 0.387 84 255 255
4.078698 -17.73353 0.382 84 255 255
3.992804 -17.736902 0.382 84 255 255
3.943851 -17.705225 0.376 84 255 255
3.947142 -17.742817 0.382 84 255 255
3.949446 -17.733891 0.381 84 255 255
4.124168 -17.811691 0.394 84 255 255
3.977687 -17.784193 0.389 84 255 255
4.013149 -17.707987 0.377 84 255 255
3.996101 -17.715014 0.378 84 255 255
4.01247 -17.797426 0.391 84 255 255
4.105093 -17.732388 0.382 84 255 255
4.201593 -17.745644 0.385 84 255 255
3.993496 -17.704706 0.377 84 255 255
4.029807 -17.752388 0.384 84 255 255
4.18525 -17.777719 0.39 84 255 255
4.071553 -17.732134 0.382 84 255 255
3.977085 -17.745728 0.383 84 255 255
4.072287 -17.812193 0.394 84 255 255
4.077081 -17.769743 0.388 84 255 255
4.160182 -17.780661 0.39 84 255 255
4.09443 -17.781948 0.39 84 255 255
4.096446 -17.811033 0.394 84 255 255
4.134861 -17.817139 0.395 84 255 255
3.957432 -17.742447 0.382 84 255 255
4.175533 -17.761545 0.387 84 255 255
4.052133 -17.75703 0.385 84 255 255
4.091677 -17.732286 0.382 84 255 255
4.240327 -17.768745 0.389 84 255 255
4.229062 -17.77984 0.391 84 255 255
4.070034 -17.814411 0.394 84 255 255
4.042022 -17.851767 0.4 84 255 255
4.227734 -17.778042 0.39 84 255 255
4.199862 -17.738026 0.384 84 255 255
4.034041 -17.783726 0.389 84 255 255
4.068048 -17.840336 0.398 84 255 255
3.942976 -17.702534 0.376 84 255 255
4.040648 -17.797194 0.391 84 255 255
4.065794 -17.842554 0.399 84 255 255
4.142919 -17.757273 0.386 84 255 255
3.958526 -17.716068 0.378 84 255 255
3.956558 -17.739758 0.382 84 255 255
4.137356 -17.724134 0.381 84 255 255
4.073602 -17.756746 0.386 84 255 255
4.031619 -17.808306 0.393 84 255 255
4.025933 -17.850302 0.399 84 255 255
4.205038 -17.763111 0.388 84 255 255
3.916161 -17.700094 0.375 84 255 255
4.041895 -17.75069 0.384 84 255 255
4.208097 -17.772526 0.389 84 255 255
4.056401 -17.783895 0.389 84 255 255
4.012135 -17.782665 0.389 84 255 255
4.081248 -17.810024 0.394 84 255 255
3.981993 -17.747107 0.383 84 255 255
4.021847 -17.858322 0.4 84 255 255
3.963567 -17.759041 0.385 84 255 255
4.088885 -17.746576 0.384 84 255 255
3.933392 -17.727955 0.38 84 255 255
3.980348 -17.72831 0.38 84 255 255
3.921104 -17.697002 0.375 84 255 255
4.001311 -17.735624 0.382 84 255 255
4.117495 -17.807169 0.394 84 255 255
3.976966 -17.761379 0.385 84 255 255
3.943465 -17.697172 0.375 84 255 255
4.037584 -17.84726 0.399 84 255 255
3.960474 -17.754099 0.384 84 255 255
3.945178 -17.707024 0.377 84 255 255
4.155489 -17.809694 0.395 84 255 255
4.052969 -17.823673 0.395 84 255 255
4.014808 -17.784027 0.389 84 255 255
4.128259 -17.744192 0.384 84 255 255
3.992822 -17.734667 0.381 84 255 255
4.086462 -17.771154 0.388 84 255 255
4.11489 -17.796864 0.392 84 255 255
3.952943 -17.74465 0.382 84 255 255
4.108114 -17.805756 0.393 84 255 255
4.23182 -17.770021 0.389 84 255 255
3.996958 -17.719938 0.379 84 255 255
4.226372 -17.780714 0.391 84 255 255
4.0468 -17.811552 0.393 84 255 255
4.137237 -17.739788 0.384 84 255 255
4.099186 -17.803452 0.393 84 255 255
4.06173 -17.788857 0.39 84 255 255
4.177468 -17.742329 0.385 84 255 255
4.091758 -17.780586 0.389 84 255 255
3.988383 -17.73016 0.381 84 255 255
3.942267 -17.736965 0.381 84 255 255
4.034831 -17.797596 0.391 84 255 255
4.038814 -17.802994 0.392 84 255 255
3.996975 -17.717703 0.379 84 255 255
4.064255 -17.75086 0.385 84 255 255
4.158706 -17.739504 0.384 84 255 255
3.970479 -17.73226 0.381 84 255 255
4.065193 -17.804089 0.393 84 255 255
4.009899 -17.782648 0.389 84 255 255
3.970275 -17.759092 0.385 84 255 255
3.988417 -17.725687 0.38 84 255 255
4.203171 -17.773382 0.39 84 255 255
4.046906 -17.738655 0.383 84 255 255
3.936655 -17.710537 0.377 84 255 255
4.074103 -17.808628 0.394 84 255 255
4.19085 -17.746902 0.385 84 255 255
4.217614 -17.75605 0.387 84 255 255
4.162703 -17.802145 0.393 84 255 255
4.012704 -17.825603 0.395 84 255 255
4.079771 -17.768867 0.387 84 255 255
4.08981 -17.742558 0.384 84 255 255
4.148485 -17.730928 0.382 84 255 255
3.9988 -17.830864 0.396 84 255 255
4.021864 -17.856085 0.4 84 255 255
4.226457 -17.769533 0.389 84 255 255
4.050075 -17.851379 0.4 84 255 255
4.150428 -17.828438 0.387 84 255 255
4.207928 -17.794886 0.392 84 255 255
4.193065 -17.808636 0.387 84 255 255
4.163526 -17.811543 0.394 84 255 255
4.201186 -17.799307 0.39 84 255 255
4.077394 -17.84622 0.399 84 255 255
4.290931 -17.759737 0.388 84 255 255
4.067946 -17.85375 0.397 84 255 255
4.221848 -17.787388 0.392 84 255 255
4.202077 -17.799761 0.39 84 255 255
4.232155 -17.784784 0.39 84 255 255
4.124941 -17.827797 0.396 84 255 255
4.16529 -17.814688 0.391 84 255 255
4.172033 -17.810266 0.393 84 255 255
4.149974 -17.829329 0.386 84 255 255
4.208751 -17.804283 0.384 84 255 255
4.224068 -17.78964 0.389 84 255 255
4.205204 -17.800232 0.388 84 255 255
4.233937 -17.785692 0.389 84 255 255
4.18096 -17.812571 0.388 84 255 255
4.193116 -17.801929 0.391 84 255 255
4.166148 -17.819613 0.388 84 255 255
4.061692 -17.85281 0.399 84 255 255
4.22627 -17.79413 0.386 84 255 255
4.094863 -17.842775 0.395 84 255 255
4.184507 -17.816622 0.384 84 255 255
4.097116 -17.840557 0.396 84 255 255
4.121763 -17.834034 0.392 84 255 255
4.147823 -17.818132 0.395 84 255 255
4.047834 -17.675156 0.166 84 255 255
4.04464 -17.683628 0.136 84 255 255
4.040889 -17.706409 0.052 84 255 255
4.050542 -17.672045 0.182 84 255 255
4.054526 -17.677443 0.166 84 255 255
4.043766 -17.680939 0.142 84 255 255
4.047313 -17.68499 0.131 84 255 255
4.041882 -17.693447 0.099 84 255 255
4.054929 -17.68326 0.15 84 255 255
4.034266 -17.695177 0.081 84 255 255
4.054458 -17.686386 0.137 84 255 255
4.073555 -17.703974 0.102 84 255 255
4.059316 -17.694473 0.118 84 255 255
4.047834 -17.675156 0.166 84 255 255
4.040151 -17.685829 0.119 84 255 255
4.069992 -17.702158 0.105 84 255 255
4.073606 -17.697264 0.124 84 255 255
4.057216 -17.676569 0.175 84 255 255
4.037376 -17.697884 0.075 84 255 255
4.043159 -17.701954 0.071 84 255 255
4.068714 -17.693649 0.131 84 255 255
4.064713 -17.690489 0.138 84 255 255
4.044471 -17.705988 0.059 84 255 255
4.040469 -17.702827 0.062 84 255 255
4.061031 -17.704325 0.087 84 255 255
4.050776 -17.700222 0.084 84 255 255
4.054424 -17.690859 0.121 84 255 255
4.042302 -17.697027 0.085 84 255 255
4.054828 -17.696676 0.104 84 255 255
4.050322 -17.701113 0.082 84 255 255
4.03867 -17.704155 0.057 84 255 255
4.055752 -17.692657 0.117 84 255 255
4.044203 -17.682283 0.139 84 255 255
4.030634 -17.702305 0.054 84 255 255
4.04632 -17.697952 0.088 84 255 255
4.044941 -17.702862 0.071 84 255 255
4.03783 -17.696993 0.08 84 255 255
4.048255 -17.678736 0.156 84 255 255
4.067823 -17.693195 0.132 84 255 255
4.097528 -17.727411 0.09 84 255 255
4.149894 -17.781029 0.056 84 255 255
4.132578 -17.764349 0.065 84 255 255
4.077557 -17.707134 0.102 84 255 255
4.107227 -17.745821 0.065 84 255 255
4.080985 -17.726839 0.065 84 255 255
4.083641 -17.730436 0.062 84 255 255
4.084146 -17.722837 0.077 84 255 255
4.103175 -17.749367 0.052 84 255 255
4.135268 -17.763475 0.07 84 255 255
4.118827 -17.749487 0.075 84 255 255
4.121449 -17.757557 0.063 84 255 255
4.109968 -17.738239 0.086 84 255 255
4.106318 -17.747602 0.061 84 255 255
4.11486 -17.741854 0.086 84 255 255
4.115178 -17.75885 0.051 84 255 255
4.124139 -17.756683 0.07 84 255 255
4.108186 -17.737331 0.086 84 255 255
4.096671 -17.722485 0.099 84 255 255
4.114338 -17.75169 0.063 84 255 255
4.075252 -17.716061 0.08 84 255 255
4.063182 -17.715523 0.061 84 255 255
4.146801 -17.776085 0.064 84 255 255
4.088987 -17.73316 0.065 84 255 255
4.075639 -17.724115 0.062 84 255 255
4.083606 -17.734907 0.052 84 255 255
4.096233 -17.72114 0.099 84 255 255
4.110422 -17.737347 0.088 84 255 255
4.08633 -17.729563 0.069 84 255 255
4.077942 -17.715187 0.085 84 255 255
4.073925 -17.714262 0.081 84 255 255
4.112607 -17.744072 0.077 84 255 255
4.074764 -17.721424 0.067 84 255 255
4.08956 -17.716618 0.099 84 255 255
4.073941 -17.712027 0.085 84 255 255
4.063164 -17.717758 0.058 84 255 255
4.116522 -17.758413 0.054 84 255 255
4.087273 -17.723309 0.082 84 255 255
4.081927 -17.720583 0.08 84 255 255
4.124173 -17.752211 0.077 84 255 255
4.087273 -17.723309 0.083 84 255 255
4.060492 -17.716396 0.055 84 255 255
4.13394 -17.761677 0.073 84 255 255
4.113061 -17.743181 0.08 84 255 255
4.127249 -17.75939 0.067 84 255 255
4.065417 -17.71554 0.065 84 255 255
4.101932 -17.736389 0.078 84 255 255
4.140563 -17.772907 0.059 84 255 255
4.114321 -17.753925 0.059 84 255 255
4.097023 -17.73501 0.074 84 255 255
4.138344 -17.770655 0.06 84 255 255
4.141 -17.774252 0.059 84 255 255
4.103629 -17.748476 0.055 84 255 255
4.083323 -17.713438 0.097 84 255 255
4.264608 -17.692453 0.36 84 255 255
4.210563 -17.624512 0.341 84 255 255
4.201772 -17.604321 0.305 84 255 255
4.176471 -17.579084 0.32 84 255 255
4.22613 -17.635811 0.318 84 255 255
4.243377 -17.661434 0.338 84 255 255
4.161846 -17.561531 0.32 84 255 255
4.229172 -17.647463 0.347 84 255 255
4.206579 -17.619114 0.339 84 255 255
4.246924 -17.665485 0.338 84 255 255
4.18886 -17.596621 0.332 84 255 255
4.235846 -17.651985 0.338 84 255 255
4.181345 -17.584934 0.321 84 255 255
4.184473 -17.585405 0.313 84 255 255
4.224314 -17.639376 0.338 84 255 255
4.182271 -17.580917 0.304 84 255 255
4.27525 -17.704609 0.361 84 255 255
4.23983 -17.657381 0.335 84 255 255
4.270829 -17.697868 0.355 84 255 255
4.24558 -17.665922 0.344 84 255 255
4.280999 -17.71315 0.364 84 255 255
4.255312 -17.679861 0.354 84 255 255
4.182254 -17.583153 0.312 84 255 255
4.243395 -17.659199 0.329 84 255 255
4.157004 -17.551208 0.305 84 255 255
4.183583 -17.584951 0.313 84 255 255
4.266844 -17.692471 0.351 84 255 255
4.250018 -17.670429 0.341 84 255 255
4.24874 -17.661922 0.315 84 255 255
4.203485 -17.614172 0.334 84 255 255
4.25933 -17.680786 0.339 84 255 255
4.218582 -17.628597 0.323 84 255 255
4.197282 -17.606522 0.333 84 255 255
4.176942 -17.575956 0.31 84 255 255
4.211942 -17.619602 0.317 84 255 255
4.199064 -17.60743 0.328 84 255 255
4.190222 -17.593946 0.315 84 255 255
4.204377 -17.614626 0.333 84 255 255
4.240772 -17.651129 0.31 84 255 255
4.212395 -17.618713 0.312 84 255 255
4.248724 -17.664158 0.322 84 255 255
4.257548 -17.679878 0.342 84 255 255
4.147238 -17.541742 0.311 84 255 255
4.187566 -17.590349 0.315 84 255 255
4.231914 -17.639879 0.308 84 255 255
4.170705 -17.572779 0.324 84 255 255
4.222112 -17.634886 0.331 84 255 255
4.156551 -17.552099 0.307 84 255 255
4.230971 -17.646133 0.333 84 255 255
4.236334 -17.646622 0.31 84 255 255
4.205285 -17.612844 0.323 84 255 255
4.249547 -17.673555 0.358 84 255 255
4.248236 -17.669521 0.348 84 255 255
4.232333 -17.643461 0.317 84 255 255
4.226516 -17.643864 0.344 84 255 255
4.230114 -17.641209 0.317 84 255 255
4.260187 -17.685713 0.353 84 255 255
4.255346 -17.675388 0.338 84 255 255
4.159644 -17.557041 0.314 84 255 255
4.188424 -17.595274 0.329 84 255 255
4.158316 -17.555243 0.311 84 255 255
4.249563 -17.67132 0.345 84 255 255
4.20705 -17.615988 0.327 84 255 255
4.145035 -17.537252 0.304 84 255 255
4.200864 -17.606102 0.316 84 255 255
4.167192 -17.564255 0.304 84 255 255
4.23899 -17.650221 0.315 84 255 255
4.203065 -17.610592 0.325 84 255 255
4.204377 -17.614626 0.331 84 255 255
4.194206 -17.599344 0.319 84 255 255
4.288513 -17.724834 0.377 84 255 255
4.283218 -17.715405 0.366 84 255 255
4.176034 -17.577738 0.318 84 255 255
4.258019 -17.676752 0.328 84 255 255
4.247816 -17.665941 0.335 84 255 255
4.094376 -17.61245 0.086 84 255 255
4.055757 -17.633177 0.148 84 255 255
4.06067 -17.575073 0.076 84 255 255
4.092814 -17.582474 0.053 84 255 255
4.058065 -17.564768 0.067 84 255 255
4.072248 -17.640457 0.14 84 255 255
4.09071 -17.62405 0.104 84 255 255
4.110532 -17.604969 0.063 84 255 255
4.099216 -17.622772 0.094 84 255 255
4.074535 -17.633766 0.131 84 255 255
4.06554 -17.640406 0.146 84 255 255
4.093853 -17.622286 0.098 84 255 255
4.061119 -17.633663 0.142 84 255 255
4.057305 -17.605907 0.115 84 255 255
4.053673 -17.613035 0.127 84 255 255
4.109977 -17.619276 0.079 84 255 255
4.05162 -17.647903 0.169 84 255 255
4.055876 -17.617525 0.129 84 255 255
4.092021 -17.628084 0.106 84 255 255
4.077213 -17.575647 0.06 84 255 255
4.091987 -17.632557 0.112 84 255 255
4.074455 -17.585464 0.075 84 255 255
4.051017 -17.609438 0.124 84 255 255
4.053401 -17.648811 0.167 84 255 255
4.08101 -17.605639 0.091 84 255 255
4.079495 -17.628437 0.119 84 255 255
4.074994 -17.573393 0.06 84 255 255
4.060165 -17.582674 0.086 84 255 255
4.079296 -17.595789 0.083 84 255 255
4.064921 -17.604176 0.105 84 255 255
4.057606 -17.625141 0.137 84 255 255
4.053974 -17.632267 0.149 84 255 255
4.081197 -17.581043 0.063 84 255 255
4.051506 -17.604074 0.118 84 255 255
4.060025 -17.660042 0.174 84 255 255
4.085783 -17.624907 0.11 84 255 255
4.099688 -17.619646 0.089 84 255 255
4.055086 -17.603653 0.114 84 255 255
4.097418 -17.624102 0.096 84 255 255
4.069529 -17.586321 0.081 84 255 255
4.058497 -17.625595 0.136 84 255 255
4.06322 -17.651569 0.161 84 255 255
4.094596 -17.583382 0.053 84 255 255
4.082003 -17.592678 0.076 84 255 255
4.08261 -17.571663 0.051 84 255 255
4.092559 -17.616014 0.092 84 255 255
4.065439 -17.653822 0.162 84 255 255
4.059474 -17.614868 0.122 84 255 255
4.099 -17.59236 0.06 84 255 255
4.074153 -17.566231 0.053 84 255 255
4.067777 -17.640423 0.144 84 255 255
4.090896 -17.599455 0.076 84 255 255
4.063508 -17.613556 0.118 84 255 255
4.062991 -17.563911 0.061 84 255 255
4.069881 -17.598846 0.094 84 255 255
4.058667 -17.603233 0.111 84 255 255
4.083751 -17.598059 0.081 84 255 255
4.066266 -17.603739 0.104 84 255 255
4.069613 -17.575142 0.068 84 255 255
4.053876 -17.586203 0.096 84 255 255
4.059371 -17.628284 0.139 84 255 255
4.055931 -17.551334 0.053 84 255 255
4.090391 -17.607052 0.085 84 255 255
4.094795 -17.61603 0.091 84 255 255
4.057374 -17.596964 0.105 84 255 255
4.056579 -17.642574 0.158 84 255 255
4.059792 -17.631865 0.143 84 255 255
4.058935 -17.62694 0.138 84 255 255
4.098763 -17.623663 0.095 84 255 255
4.059337 -17.632755 0.144 84 255 255
4.068553 -17.597048 0.094 84 255 255
4.096225 -17.604414 0.075 84 255 255
4.087786 -17.596746 0.075 84 255 255
4.083802 -17.591349 0.073 84 255 255
4.070942 -17.576941 0.068 84 255 255
4.058782 -17.647062 0.16 84 255 255
4.051586 -17.652374 0.173 84 255 255
4.051912 -17.550411 0.057 84 255 255
4.106531 -17.601809 0.062 84 255 255
4.097201 -17.593687 0.062 84 255 255
4.073246 -17.568014 0.056 84 255 255
4.092576 -17.613777 0.09 84 255 255
3.858883 -17.468891 0.495 84 255 255
3.888422 -17.465984 0.445 84 255 255
3.907671 -17.463448 0.4 84 255 255
3.889313 -17.466438 0.398 84 255 255
3.856646 -17.468874 0.542 84 255 255
3.892003 -17.465565 0.408 84 255 255
3.8629 -17.469816 0.424 84 255 255
3.883496 -17.466843 0.43 84 255 255
3.913488 -17.463045 0.387 84 255 255
3.88215 -17.467279 0.402 84 255 255
3.880805 -17.467716 0.41 84 255 255
3.903636 -17.464758 0.37 84 255 255
3.873206 -17.467211 0.477 84 255 255
3.8629 -17.469816 0.429 84 255 255
3.892893 -17.466019 0.387 84 255 255
3.892457 -17.464674 0.456 84 255 255
3.914834 -17.462606 0.374 84 255 255
3.893347 -17.465128 0.43 84 255 255
3.899618 -17.463833 0.437 84 255 255
3.917069 -17.462626 0.388 84 255 255
3.877225 -17.468136 0.404 84 255 255
3.928704 -17.461819 0.347 84 255 255
3.856192 -17.469765 0.473 84 255 255
3.904981 -17.464321 0.404 84 255 255
3.862009 -17.469362 0.432 84 255 255
3.870516 -17.468084 0.457 84 255 255
3.864245 -17.469379 0.452 84 255 255
3.878133 -17.466354 0.494 84 255 255
3.87097 -17.467194 0.482 84 255 255
3.879477 -17.465916 0.491 84 255 255
3.879477 -17.465916 0.497 84 255 255
3.900055 -17.465179 0.407 84 255 255
3.879915 -17.467262 0.415 84 255 255
3.86559 -17.468943 0.453 84 255 255
3.882604 -17.466389 0.459 84 255 255
3.90409 -17.463867 0.394 84 255 255
3.857991 -17.468437 0.516 84 255 255
3.874552 -17.466774 0.489 84 255 255
3.917069 -17.462626 0.383 84 255 255
3.857991 -17.468437 0.518 84 255 255
3.868718 -17.469414 0.381 84 255 255
3.881259 -17.466824 0.45 84 255 255
3.925122 -17.462238 0.357 84 255 255
3.863791 -17.47027 0.381 84 255 255
3.8571 -17.467983 0.55 84 255 255
3.909017 -17.463011 0.407 84 255 255
3.89871 -17.465616 0.364 84 255 255
3.880369 -17.46637 0.486 84 255 255
3.868734 -17.467176 0.494 84 255 255
3.86739 -17.467613 0.49 84 255 255
3.867372 -17.469851 0.39 84 255 255
3.860665 -17.469799 0.435 84 255 255
3.879915 -17.467262 0.422 84 255 255
3.858429 -17.469782 0.488 84 255 255
3.89782 -17.465162 0.43 84 255 255
3.863791 -17.47027 0.385 84 255 255
3.857975 -17.470673 0.413 84 255 255
3.89871 -17.465616 0.367 84 255 255
3.907218 -17.464338 0.374 84 255 255
3.86739 -17.467613 0.522 84 255 255
3.88395 -17.46595 0.446 84 255 255
3.893347 -17.465128 0.437 84 255 255
3.928704 -17.461819 0.343 84 255 255
3.905873 -17.464775 0.355 84 255 255
3.885294 -17.465513 0.478 84 255 255
3.876333 -17.467682 0.421 84 255 255
3.885278 -17.467751 0.371 84 255 255
3.861573 -17.468018 0.545 84 255 255
3.877225 -17.468136 0.386 84 255 255
3.857975 -17.470673 0.424 84 255 255
3.862917 -17.467581 0.534 84 255 255
3.903636 -17.464758 0.363 84 255 255
3.903097 -17.47683 0.493 84 255 255
3.937613 -17.466358 0.356 84 255 255
3.91791 -17.469786 0.421 84 255 255
3.952726 -17.478548 0.381 84 255 255
3.928602 -17.475235 0.419 84 255 255
3.944304 -17.468645 0.353 84 255 255
3.940673 -17.475773 0.392 84 255 255
3.882604 -17.466389 0.495 84 255 255
3.941984 -17.479809 0.411 84 255 255
3.92766 -17.481489 0.454 84 255 255
3.939378 -17.469503 0.369 84 255 255
3.937631 -17.464123 0.347 84 255 255
3.948255 -17.478514 0.391 84 255 255
3.937159 -17.467249 0.364 84 255 255
3.925055 -17.471182 0.408 84 255 255
3.900492 -17.466524 0.448 84 255 255
3.922785 -17.475637 0.439 84 255 255
3.94116 -17.470411 0.364 84 255 255
3.923692 -17.473856 0.426 84 255 255
3.908041 -17.473736 0.465 84 255 255
3.908999 -17.465246 0.424 84 255 255
3.920969 -17.4792 0.459 84 255 255
3.88484 -17.466404 0.489 84 255 255
3.944742 -17.46999 0.356 84 255 255
3.931325 -17.469889 0.391 84 255 255
3.862463 -17.468472 0.553 84 255 255
3.888405 -17.468222 0.488 84 255 255
3.951348 -17.483458 0.404 84 255 255
3.922381 -17.46982 0.411 84 255 255
3.923658 -17.478327 0.451 84 255 255
3.910765 -17.46839 0.433 84 255 255
3.898206 -17.473215 0.486 84 255 255
3.930032 -17.463617 0.359 84 255 255
3.934923 -17.467232 0.367 84 255 255
3.905839 -17.469248 0.447 84 255 255
3.917875 -17.474258 0.442 84 255 255
3.88395 -17.46595 0.487 84 255 255
3.926382 -17.472982 0.414 84 255 255
3.921541 -17.462658 0.379 84 255 255
3.948709 -17.477623 0.384 84 255 255
3.968311 -17.487612 0.385 84 255 255
3.919221 -17.473822 0.437 84 255 255
3.925946 -17.471636 0.413 84 255 255
3.883042 -17.467733 0.5 84 255 255
3.913 -17.468407 0.427 84 255 255
3.919709 -17.468458 0.41 84 255 255
3.941564 -17.476227 0.393 84 255 255
3.939378 -17.469503 0.365 84 255 255
3.915707 -17.465298 0.404 84 255 255
3.900492 -17.466524 0.448 84 255 255
3.926348 -17.477453 0.44 84 255 255
3.928164 -17.47389 0.414 84 255 255
3.942908 -17.47579 0.389 84 255 255
3.92998 -17.470325 0.396 84 255 255
3.912126 -17.465717 0.416 84 255 255
3.929595 -17.462273 0.356 84 255 255
3.921877 -17.477419 0.452 84 255 255
3.907166 -17.471046 0.456 84 255 255
3.93178 -17.468998 0.383 84 255 255
3.932217 -17.470343 0.387 84 255 255
3.913926 -17.46439 0.405 84 255 255
3.92956 -17.466745 0.38 84 255 255
3.946473 -17.477606 0.391 84 255 255
3.934469 -17.468122 0.374 84 255 255
3.913438 -17.469751 0.433 84 255 255
3.909369 -17.475534 0.472 84 255 255
3.912143 -17.463482 0.405 84 255 255
3.89782 -17.465162 0.449 84 255 255
3.894221 -17.467817 0.471 84 255 255
3.934804 -17.482885 0.442 84 255 255
3.970178 -17.477339 0.35 84 255 255
3.94523 -17.464628 0.338 84 255 255
4.099628 -17.509626 0.315 84 255 255
4.03576 -17.498409 0.347 84 255 255
4.013922 -17.488405 0.339 84 255 255
4.029573 -17.488523 0.323 84 255 255
3.992067 -17.480635 0.338 84 255 255
4.074612 -17.505859 0.329 84 255 255
4.001414 -17.486521 0.347 84 255 255
3.985745 -17.488638 0.369 84 255 255
4.029103 -17.49165 0.334 84 255 255
4.030465 -17.488977 0.322 84 255 255
3.996992 -17.479778 0.33 84 255 255
4.052303 -17.498981 0.332 84 255 255
4.021067 -17.489801 0.335 84 255 255
3.979054 -17.486351 0.37 84 255 255
4.050538 -17.495838 0.322 84 255 255
4.015233 -17.492439 0.35 84 255 255
3.984451 -17.482367 0.352 84 255 255
3.954122 -17.471403 0.349 84 255 255
3.970547 -17.487629 0.383 84 255 255
4.058086 -17.503052 0.337 84 255 255
4.039812 -17.494862 0.331 84 255 255
3.982248 -17.477879 0.34 84 255 255
4.089793 -17.509106 0.322 84 255 255
3.962159 -17.473253 0.345 84 255 255
4.047848 -17.496712 0.328 84 255 255
4.040686 -17.497551 0.338 84 255 255
4.018815 -17.49202 0.345 84 255 255
4.073285 -17.504061 0.324 84 255 255
4.01967 -17.496946 0.36 84 255 255
4.046957 -17.496258 0.328 84 255 255
3.950559 -17.469587 0.349 84 255 255
3.952811 -17.467367 0.339 84 255 255
4.015721 -17.487078 0.334 84 255 255
4.064811 -17.500866 0.323 84 255 255
3.984014 -17.481022 0.348 84 255 255
3.995109 -17.492287 0.37 84 255 255
3.946558 -17.466427 0.343 84 255 255
4.028229 -17.48896 0.325 84 255 255
4.097409 -17.507374 0.31 84 255 255
4.002339 -17.482502 0.333 84 255 255
4.095627 -17.506466 0.309 84 255 255
4.080866 -17.506802 0.325 84 255 255
4.077319 -17.50275 0.318 84 255 255
4.025539 -17.489834 0.33 84 255 255
3.960848 -17.469217 0.334 84 255 255
4.078664 -17.502312 0.315 84 255 255
3.979593 -17.474279 0.331 84 255 255
4.082228 -17.504129 0.316 84 255 255
4.012106 -17.491968 0.35 84 255 255
4.05501 -17.495872 0.32 84 255 255
4.045595 -17.498932 0.338 84 255 255
3.962091 -17.482197 0.375 84 255 255
3.977255 -17.487679 0.376 84 255 255
4.039778 -17.499334 0.344 84 255 255
4.059465 -17.498142 0.321 84 255 255
4.025556 -17.487598 0.325 84 255 255
4.041114 -17.617859 0.062 84 255 255
4.043817 -17.674231 0.143 84 255 255
4.041937 -17.627258 0.077 84 255 255
4.037041 -17.683125 0.101 84 255 255
4.043923 -17.601334 0.061 84 255 255
4.031207 -17.685762 0.057 84 255 255
4.044492 -17.644272 0.117 84 255 255
4.049876 -17.583042 0.091 84 255 255
4.049558 -17.566046 0.07 84 255 255
4.049333 -17.654594 0.166 84 255 255
4.04949 -17.574989 0.079 84 255 255
4.032132 -17.681744 0.059 84 255 255
4.049787 -17.653704 0.167 84 255 255
4.050932 -17.620617 0.135 84 255 255
4.049524 -17.570517 0.075 84 255 255
4.045836 -17.643833 0.122 84 255 255
4.049825 -17.58975 0.1 84 255 255
4.049655 -17.61211 0.118 84 255 255
4.046575 -17.664413 0.151 84 255 255
4.043397 -17.67065 0.133 84 255 255
4.044912 -17.647852 0.122 84 255 255
4.041076 -17.681812 0.125 84 255 255
4.047504 -17.600914 0.087 84 255 255
4.039702 -17.627239 0.056 84 255 255
4.042909 -17.676012 0.138 84 255 255
4.033006 -17.684435 0.07 84 255 255
4.049019 -17.578117 0.08 84 255 255
4.048896 -17.65325 0.159 84 255 255
4.028886 -17.696926 0.053 84 255 255
4.044008 -17.590153 0.054 84 255 255
4.050292 -17.646105 0.16 84 255 255
4.032604 -17.678617 0.059 84 255 255
4.044322 -17.666632 0.136 84 255 255
4.044644 -17.624147 0.092 84 255 255
4.048362 -17.605839 0.1 84 255 255
4.035882 -17.658964 0.069 84 255 255
4.033596 -17.665655 0.052 84 255 255
4.045955 -17.628181 0.113 84 255 255
4.046189 -17.656361 0.138 84 255 255
4.033613 -17.66342 0.052 84 255 255
4.036689 -17.670599 0.081 84 255 255
4.04789 -17.608967 0.101 84 255 255
4.036201 -17.675961 0.087 84 255 255
4.047793 -17.562901 0.055 84 255 255
4.043901 -17.66305 0.132 84 255 255
4.047691 -17.576317 0.067 84 255 255
4.050194 -17.600039 0.113 84 255 255
4.047483 -17.66263 0.161 84 255 255
4.049303 -17.599585 0.102 84 255 255
4.048375 -17.663084 0.162 84 255 255
4.042018 -17.675558 0.131 84 255 255
4.039799 -17.673306 0.113 84 255 255
4.031173 -17.690235 0.061 84 255 255
4.043447 -17.66394 0.131 84 255 255
4.044543 -17.637564 0.109 84 255 255
4.048441 -17.65414 0.16 84 255 255
4.049486 -17.63447 0.143 84 255 255
4.039718 -17.625004 0.054 84 255 255
4.046443 -17.62282 0.108 84 255 255
4.047233 -17.636688 0.127 84 255 255
4.041972 -17.622786 0.072 84 255 255
4.041314 -17.650509 0.097 84 255 255
4.050028 -17.562918 0.072 84 255 255
4.044662 -17.621912 0.09 84 255 255
4.049774 -17.596458 0.105 84 255 255
4.040088 -17.635292 0.073 84 255 255
4.0454 -17.64249 0.117 84 255 255
4.039718 -17.625004 0.06 84 255 255
4.046278 -17.585697 0.061 84 255 255
4.043447 -17.66394 0.129 84 255 255
4.048191 -17.628199 0.128 84 255 255
4.045162 -17.673794 0.15 84 255 255
4.042171 -17.655434 0.11 84 255 255
4.045599 -17.675138 0.155 84 255 255
4.047483 -17.66263 0.16 84 255 255
4.037461 -17.686705 0.109 84 255 255
4.033494 -17.679071 0.068 84 255 255
4.043435 -17.606697 0.068 84 255 255
4.044496 -17.584789 0.054 84 255 255
4.049218 -17.610765 0.117 84 255 255
4.036268 -17.667017 0.078 84 255 255
4.04582 -17.64607 0.123 84 255 255
4.033006 -17.684435 0.071 84 255 255
4.049769 -17.655939 0.168 84 255 255
4.049655 -17.61211 0.123 84 255 255
4.044627 -17.626383 0.099 84 255 255
4.045876 -17.579882 0.053 84 255 255
4.045247 -17.662613 0.137 84 255 255
4.037007 -17.687595 0.106 84 255 255
4.044339 -17.664394 0.133 84 255 255
4.050551 -17.553083 0.059 84 255 255
4.038187 -17.650038 0.076 84 255 255
4.033512 -17.676836 0.062 84 255 255
4.048781 -17.609421 0.107 84 255 255
4.03876 -17.633495 0.059 84 255 255
4.045269 -17.600897 0.073 84 255 255
4.045417 -17.640253 0.117 84 255 255
4.043719 -17.628166 0.087 84 255 255
4.048764 -17.611656 0.114 84 255 255
4.043316 -17.622349 0.083 84 255 255
4.035412 -17.662092 0.062 84 255 255
4.032501 -17.692034 0.072 84 255 255
4.040355 -17.658998 0.098 84 255 255
4.03817 -17.652273 0.078 84 255 255
4.048947 -17.646542 0.15 84 255 255
4.039044 -17.654964 0.085 84 255 255
4.048832 -17.602713 0.105 84 255 255
4.050461 -17.623745 0.137 84 255 255
4.048582 -17.576771 0.075 84 255 255
4.03926 -17.685377 0.12 84 255 255
4.0433 -17.624584 0.082 84 255 255
4.050097 -17.553974 0.059 84 255 255
4.048531 -17.583479 0.077 84 255 255
4.037512 -17.679996 0.097 84 255 255
4.036201 -17.675961 0.082 84 255 255
4.032166 -17.677273 0.053 84 255 255
4.034737 -17.692051 0.088 84 255 255
4.041348 -17.646036 0.094 84 255 255
4.039718 -17.625004 0.059 84 255 255
4.043078 -17.653652 0.114 84 255 255
4.035662 -17.688032 0.093 84 255 255
4.045247 -17.662613 0.136 84 255 255
3.87111 -17.8612 0.614 84 255 255
