ply
format ascii 1.0
element vertex 1378
property double x
property double y
property double z
property uchar red
property uchar green
property uchar blue
element face 0
property list uchar int vertex_indices
end_header
6.10063 -15.020797 1.283 84 0 127
6.062931 -15.096987 1.47 84 0 127
6.011244 -15.189617 1.197 84 0 127
6.013446 -15.194105 1.62 84 0 127
6.018526 -15.173125 1.071 84 0 127
6.188232 -14.851068 1.178 84 0 127
6.093803 -15.036397 1.385 84 0 127
6.038013 -15.139284 1.297 84 0 127
6.049766 -15.122825 1.499 84 0 127
6.113324 -14.998085 1.392 84 0 127
6.050288 -15.11299 1.146 84 0 127
6.077947 -15.06311 1.294 84 0 127
6.063891 -15.088496 1.186 84 0 127
6.039341 -15.141083 1.432 84 0 127
6.11018 -14.999849 1.179 84 0 127
6.032548 -15.152212 1.352 84 0 127
6.185962 -14.855524 1.199 84 0 127
6.038467 -15.138392 1.21 84 0 127
6.164171 -14.898292 1.288 84 0 127
6.158269 -14.909875 1.312 84 0 127
6.150115 -14.923677 1.233 84 0 127
6.155143 -14.909404 1.035 84 0 127
6.065253 -15.085823 1.212 84 0 127
6.182802 -14.859525 1.164 84 0 127
6.044385 -15.124574 1.11 84 0 127
6.141943 -14.939715 1.195 84 0 127
6.021182 -15.176723 1.527 84 0 127
6.23 -14.769096 1.098 84 0 127
6.178228 -14.872907 1.287 84 0 127
6.181423 -14.864433 1.224 84 0 127
6.140615 -14.937917 1.053 84 0 127
6.121548 -14.975339 1.114 84 0 127
6.142379 -14.94106 1.35 84 0 127
6.08109 -15.061346 1.483 84 0 127
6.166475 -14.889365 1.046 84 0 127
6.071155 -15.074241 1.183 84 0 127
6.121076 -14.978466 1.137 84 0 127
6.150115 -14.923677 1.229 84 0 127
6.115174 -14.990048 1.169 84 0 127
6.13288 -14.955299 1.157 84 0 127
6.072499 -15.073803 1.263 84 0 127
6.122876 -14.977138 1.291 84 0 127
6.008066 -15.195854 1.185 84 0 127
6.189158 -14.847051 1.113 84 0 127
6.053885 -15.110334 1.31 84 0 127
6.129214 -14.9669 1.314 84 0 127
6.032548 -15.152212 1.39 84 0 127
6.102463 -15.014997 1.238 84 0 127
6.1465 -14.928569 1.094 84 0 127
6.159665 -14.90273 1.096 84 0 127
6.067471 -15.088077 1.514 84 0 127
6.011682 -15.190962 1.293 84 0 127
6.20503 -14.818101 1.136 84 0 127
6.143742 -14.938387 1.299 84 0 127
6.240442 -14.748602 1.133 84 0 127
6.143339 -14.93257 1.06 84 0 127
6.115158 -14.992285 1.291 84 0 127
6.083798 -15.058236 1.492 84 0 127
6.128323 -14.966446 1.247 84 0 127
6.037071 -15.145537 1.466 84 0 127
6.162389 -14.897384 1.063 84 0 127
6.066581 -15.087623 1.417 84 0 127
6.02029 -15.176269 1.405 84 0 127
6.229529 -14.772223 1.185 84 0 127
6.043915 -15.127701 1.276 84 0 127
6.126927 -14.973591 1.411 84 0 127
6.106514 -15.011449 1.434 84 0 127
6.026629 -15.166031 1.514 84 0 127
6.148315 -14.925005 1.135 84 0 127
6.060713 -15.094733 1.239 84 0 127
6.180969 -14.865325 1.209 84 0 127
6.057063 -15.104097 1.344 84 0 127
6.123817 -14.970883 1.095 84 0 127
6.145138 -14.931242 1.084 84 0 127
6.057501 -15.105442 1.395 84 0 127
6.220466 -14.787807 1.168 84 0 127
6.086993 -15.049763 1.404 84 0 127
6.160103 -14.904075 1.178 84 0 127
6.054374 -15.104972 1.124 84 0 127
6.092509 -15.030128 1.073 84 0 127
6.231799 -14.767768 1.167 84 0 127
6.180532 -14.863979 1.172 84 0 127
6.219104 -14.79048 1.177 84 0 127
6.075643 -15.072038 1.463 84 0 127
6.207283 -14.815883 1.228 84 0 127
6.152401 -14.916986 1.105 84 0 127
6.038013 -15.139284 1.231 84 0 127
6.208226 -14.809628 1.074 84 0 127
6.18645 -14.850161 1.05 84 0 127
6.178699 -14.86978 1.22 84 0 127
6.089297 -15.040836 1.224 84 0 127
6.215001 -14.800735 1.213 84 0 127
6.092458 -15.036835 1.324 84 0 127
6.145609 -14.928115 1.052 84 0 127
6.055231 -15.109898 1.377 84 0 127
6.12607 -14.968664 1.12 84 0 127
6.016675 -15.181161 1.336 84 0 127
6.106548 -15.006978 1.233 84 0 127
6.220937 -14.78468 1.064 84 0 127
6.073373 -15.076492 1.486 84 0 127
6.025704 -15.170049 1.549 84 0 127
6.053903 -15.108099 1.184 84 0 127
6.034364 -15.148648 1.337 84 0 127
6.121513 -14.979811 1.244 84 0 127
6.060276 -15.093388 1.115 84 0 127
6.148299 -14.927241 1.153 84 0 127
6.21865 -14.791371 1.114 84 0 127
6.077056 -15.062657 1.159 84 0 127
6.11968 -14.985611 1.332 84 0 127
6.077981 -15.05864 1.058 84 0 127
6.069339 -15.077805 1.192 84 0 127
6.097468 -15.024798 1.22 84 0 127
6.106061 -15.012341 1.391 84 0 127
6.046219 -15.118773 1.053 84 0 127
6.023905 -15.171377 1.459 84 0 127
6.126507 -14.97001 1.25 84 0 127
6.056643 -15.100516 1.077 84 0 127
6.037962 -15.145991 1.545 84 0 127
6.114266 -14.99183 1.176 84 0 127
6.136949 -14.949516 1.223 84 0 127
6.043427 -15.133063 1.467 84 0 127
6.137839 -14.94997 1.292 84 0 127
6.011228 -15.191854 1.357 84 0 127
6.192353 -14.838577 1.047 84 0 127
6.09836 -15.025252 1.282 84 0 127
6.032582 -15.14774 1.183 84 0 127
6.184164 -14.856852 1.113 84 0 127
6.050707 -15.116571 1.364 84 0 127
6.234523 -14.762422 1.17 84 0 127
6.22092 -14.786916 1.156 84 0 127
6.069809 -15.074677 1.125 84 0 127
6.187813 -14.847487 1.058 84 0 127
6.098848 -15.019889 1.136 84 0 127
6.112433 -14.997631 1.245 84 0 127
6.120134 -14.984719 1.365 84 0 127
6.045226 -15.131736 1.537 84 0 127
6.077947 -15.06311 1.259 84 0 127
6.089716 -15.044417 1.395 84 0 127
6.099302 -15.018998 1.105 84 0 127
6.032094 -15.153102 1.349 84 0 127
6.094745 -15.030144 1.248 84 0 127
6.198238 -14.82923 1.082 84 0 127
6.134696 -14.951735 1.176 84 0 127
6.026158 -15.169157 1.538 84 0 127
6.066144 -15.086277 1.291 84 0 127
6.046167 -15.125482 1.347 84 0 127
6.219575 -14.787354 1.073 84 0 127
6.106094 -15.007869 1.206 84 0 127
6.017986 -15.185196 1.592 84 0 127
6.09429 -15.031035 1.194 84 0 127
6.026158 -15.169157 1.57 84 0 127
6.052978 -15.112117 1.318 84 0 127
6.027152 -15.156196 1.056 84 0 127
6.034398 -15.144176 1.2 84 0 127
6.221828 -14.785134 1.115 84 0 127
6.061132 -15.098314 1.41 84 0 127
6.018072 -15.174016 1.121 84 0 127
6.08659 -15.043946 1.163 84 0 127
6.224098 -14.780679 1.093 84 0 127
6.111526 -14.999413 1.24 84 0 127
6.083395 -15.052419 1.289 84 0 127
6.082016 -15.057328 1.39 84 0 127
6.134242 -14.952626 1.177 84 0 127
6.244965 -14.741929 1.157 84 0 127
6.063839 -15.095203 1.468 84 0 127
6.13241 -14.958426 1.207 84 0 127
6.038013 -15.139284 1.22 84 0 127
6.022543 -15.17405 1.499 84 0 127
6.078367 -15.066692 1.495 84 0 127
6.227259 -14.776678 1.181 84 0 127
6.085665 -15.047964 1.244 84 0 127
6.057063 -15.104097 1.355 84 0 127
6.02125 -15.167779 1.125 84 0 127
6.074753 -15.071584 1.405 84 0 127
6.095636 -15.030598 1.303 84 0 127
6.025335 -15.15976 1.068 84 0 127
6.049799 -15.118354 1.37 84 0 127
6.189141 -14.849286 1.232 84 0 127
6.20229 -14.825684 1.253 84 0 127
6.228638 -14.771769 1.101 84 0 127
6.049799 -15.118354 1.316 84 0 127
6.18598 -14.853288 1.115 84 0 127
6.199583 -14.828793 1.154 84 0 127
6.00763 -15.19451 1.101 84 0 127
6.239987 -14.749494 1.079 84 0 127
6.126996 -14.964646 1.075 84 0 127
6.027066 -15.167376 1.588 84 0 127
6.043427 -15.133063 1.476 84 0 127
6.228167 -14.774896 1.173 84 0 127
6.217742 -14.793153 1.129 84 0 127
6.167786 -14.8934 1.313 84 0 127
6.021182 -15.176723 1.504 84 0 127
6.040317 -15.130357 1.072 84 0 127
6.164608 -14.899637 1.323 84 0 127
6.115174 -14.990048 1.132 84 0 127
6.0403 -15.132593 1.145 84 0 127
6.136512 -14.948172 1.084 84 0 127
6.031152 -15.159357 1.533 84 0 127
6.08205 -15.052856 1.197 84 0 127
6.106532 -15.009213 1.337 84 0 127
6.19279 -14.839923 1.095 84 0 127
6.010336 -15.1914 1.258 84 0 127
6.23227 -14.764641 1.139 84 0 127
6.045731 -15.124137 1.275 84 0 127
6.035709 -15.148211 1.496 84 0 127
6.050673 -15.121043 1.491 84 0 127
6.03803 -15.137048 1.151 84 0 127
6.133351 -14.952172 1.084 84 0 127
6.137874 -14.945498 1.141 84 0 127
6.028934 -15.157104 1.241 84 0 127
6.043444 -15.130828 1.322 84 0 127
6.177808 -14.869326 1.149 84 0 127
6.058931 -15.093825 1.051 84 0 127
6.039846 -15.133483 1.194 84 0 127
6.129214 -14.9669 1.376 84 0 127
6.150097 -14.925913 1.277 84 0 127
6.092895 -15.03818 1.389 84 0 127
6.113796 -14.994958 1.282 84 0 127
6.133771 -14.955753 1.23 84 0 127
6.020256 -15.180741 1.613 84 0 127
6.061183 -15.091606 1.129 84 0 127
6.169182 -14.886255 1.134 84 0 127
6.062999 -15.088042 1.071 84 0 127
6.02441 -15.163778 1.145 84 0 127
6.234994 -14.759295 1.118 84 0 127
6.115628 -14.989158 1.162 84 0 127
6.115646 -14.986921 1.098 84 0 127
6.145087 -14.93795 1.371 84 0 127
6.198238 -14.82923 1.098 84 0 127
6.063873 -15.090732 1.306 84 0 127
6.02848 -15.157995 1.272 84 0 127
6.034381 -15.146412 1.281 84 0 127
6.148315 -14.925005 1.062 84 0 127
6.084723 -15.054218 1.414 84 0 127
6.033053 -15.144613 1.055 84 0 127
6.187342 -14.850615 1.1 84 0 127
6.065707 -15.084932 1.155 84 0 127
6.12422 -14.976701 1.331 84 0 127
6.150115 -14.923677 1.211 84 0 127
6.13742 -14.946389 1.136 84 0 127
6.111962 -15.000757 1.39 84 0 127
6.107928 -15.002069 1.077 84 0 127
6.192336 -14.840814 1.092 84 0 127
6.193698 -14.83814 1.065 84 0 127
6.025722 -15.167813 1.457 84 0 127
6.01259 -15.18918 1.291 84 0 127
6.201398 -14.82523 1.156 84 0 127
6.025284 -15.166468 1.408 84 0 127
6.048909 -15.1179 1.193 84 0 127
6.093871 -15.027454 1.035 84 0 127
6.126524 -14.967773 1.143 84 0 127
6.111526 -14.999413 1.308 84 0 127
6.100193 -15.019452 1.182 84 0 127
6.060225 -15.100097 1.403 84 0 127
6.11245 -14.995395 1.22 84 0 127
6.136983 -14.945045 1.08 84 0 127
6.058914 -15.096061 1.152 84 0 127
6.136931 -14.951753 1.357 84 0 127
6.071557 -15.080057 1.486 84 0 127
6.033944 -15.145067 1.209 84 0 127
6.031692 -15.147286 1.126 84 0 127
6.100612 -15.023033 1.382 84 0 127
6.090205 -15.039054 1.265 84 0 127
6.063454 -15.087151 1.101 84 0 127
6.154217 -14.913423 1.05 84 0 127
6.153763 -14.914312 1.047 84 0 127
6.1029 -15.016342 1.275 84 0 127
6.21322 -14.799828 1.064 84 0 127
6.042116 -15.129029 1.11 84 0 127
6.119714 -14.981138 1.13 84 0 127
6.190503 -14.846614 1.174 84 0 127
6.135133 -14.95308 1.21 84 0 127
6.018912 -15.181178 1.478 84 0 127
6.075257 -15.063985 1.091 84 0 127
6.03887 -15.14421 1.58 84 0 127
6.034347 -15.150884 1.445 84 0 127
6.109256 -15.003868 1.328 84 0 127
6.068851 -15.083167 1.388 84 0 127
6.216852 -14.792699 1.087 84 0 127
6.044301 -15.135754 1.582 84 0 127
6.038887 -15.141973 1.415 84 0 127
6.037071 -15.145537 1.474 84 0 127
6.053852 -15.114806 1.529 84 0 127
6.035289 -15.144629 1.25 84 0 127
6.009446 -15.190946 1.155 84 0 127
6.091567 -15.036381 1.206 84 0 127
6.083866 -15.049293 1.116 84 0 127
6.058443 -15.099189 1.243 84 0 127
6.038501 -15.133921 1.088 84 0 127
6.130576 -14.964227 1.291 84 0 127
6.073895 -15.066658 1.125 84 0 127
6.048472 -15.116554 1.121 84 0 127
6.021652 -15.173596 1.383 84 0 127
6.105607 -15.013231 1.402 84 0 127
6.018894 -15.183414 1.631 84 0 127
6.079292 -15.062675 1.347 84 0 127
6.081579 -15.055984 1.259 84 0 127
6.021232 -15.170015 1.235 84 0 127
6.110146 -15.004322 1.405 84 0 127
6.060207 -15.102332 1.504 84 0 127
6.071574 -15.077822 1.405 84 0 127
6.1124 -15.002103 1.433 84 0 127
6.096595 -15.022107 1.032 84 0 127
6.046219 -15.118773 1.035 84 0 127
6.066195 -15.07957 1.034 84 0 127
6.060293 -15.091152 1.032 84 0 127
6.191832 -14.848413 1.485 84 0 127
6.1428 -14.944642 1.49 84 0 127
6.214025 -14.811461 1.749 84 0 127
6.24631 -14.741491 1.344 84 0 127
6.081074 -15.063582 1.536 84 0 127
6.079696 -15.068492 1.671 84 0 127
6.088792 -15.048435 1.495 84 0 127
6.140531 -14.949096 1.509 84 0 127
6.11467 -14.997647 1.453 84 0 127
6.143725 -14.940623 1.432 84 0 127
6.137335 -14.957569 1.724 84 0 127
6.142783 -14.946877 1.687 84 0 127
6.218634 -14.793607 1.297 84 0 127
6.125111 -14.977155 1.476 84 0 127
6.112383 -15.004338 1.564 84 0 127
6.187745 -14.856432 1.456 84 0 127
6.24673 -14.745073 1.557 84 0 127
6.225443 -14.780242 1.243 84 0 127
6.057921 -15.109023 1.568 84 0 127
6.083782 -15.060472 1.686 84 0 127
6.23496 -14.763767 1.326 84 0 127
6.172746 -14.888071 1.592 84 0 127
6.102412 -15.021705 1.491 84 0 127
6.16639 -14.900545 1.586 84 0 127
6.02705 -15.169612 1.702 84 0 127
6.14507 -14.940187 1.494 84 0 127
6.186366 -14.861341 1.526 84 0 127
6.228604 -14.776241 1.278 84 0 127
6.113291 -15.002557 1.585 84 0 127
6.113761 -14.99943 1.508 84 0 127
6.096493 -15.035523 1.664 84 0 127
6.245856 -14.742383 1.34 84 0 127
6.219507 -14.796297 1.504 84 0 127
6.217221 -14.802988 1.585 84 0 127
6.128709 -14.974499 1.7 84 0 127
6.214093 -14.802517 1.303 84 0 127
6.208611 -14.817681 1.547 84 0 127
6.101033 -15.026614 1.643 84 0 127
6.092408 -15.043543 1.692 84 0 127
6.230875 -14.771787 1.329 84 0 127
6.192706 -14.851102 1.619 84 0 127
6.16866 -14.89609 1.59 84 0 127
6.217709 -14.797626 1.349 84 0 127
6.100596 -15.025269 1.522 84 0 127
6.074265 -15.076947 1.534 84 0 127
6.064731 -15.095658 1.547 84 0 127
6.066076 -15.095222 1.733 84 0 127
6.189056 -14.860466 1.76 84 0 127
6.074718 -15.076056 1.525 84 0 127
6.118755 -14.989629 1.488 84 0 127
6.132341 -14.96737 1.691 84 0 127
6.029319 -15.165156 1.718 84 0 127
6.122825 -14.983846 1.639 84 0 127
6.102395 -15.023941 1.682 84 0 127
6.031135 -15.161592 1.638 84 0 127
6.238592 -14.756639 1.337 84 0 127
6.215387 -14.808788 1.72 84 0 127
6.178194 -14.877378 1.585 84 0 127
6.024779 -15.174067 1.717 84 0 127
6.199095 -14.834156 1.422 84 0 127
6.104681 -15.01725 1.555 84 0 127
6.247654 -14.741055 1.424 84 0 127
6.119647 -14.990083 1.605 84 0 127
6.16323 -14.904547 1.476 84 0 127
6.128273 -14.973154 1.56 84 0 127
6.184096 -14.865795 1.632 84 0 127
6.237667 -14.760656 1.397 84 0 127
6.188636 -14.856886 1.604 84 0 127
6.217237 -14.800752 1.476 84 0 127
6.025687 -15.172285 1.652 84 0 127
6.221795 -14.789606 1.399 84 0 127
6.125985 -14.979844 1.723 84 0 127
6.093769 -15.040871 1.711 84 0 127
6.10147 -15.027959 1.738 84 0 127
6.232707 -14.765985 1.246 84 0 127
6.094677 -15.039088 1.595 84 0 127
6.194504 -14.849774 1.766 84 0 127
6.18366 -14.864451 1.389 84 0 127
6.129651 -14.968245 1.466 84 0 127
6.239449 -14.761564 1.699 84 0 127
6.078351 -15.068928 1.536 84 0 127
6.101504 -15.023487 1.545 84 0 127
6.135973 -14.960242 1.721 84 0 127
6.23311 -14.771803 1.62 84 0 127
6.16323 -14.904547 1.517 84 0 127
6.221341 -14.790498 1.371 84 0 127
6.226789 -14.779805 1.384 84 0 127
6.088776 -15.050671 1.713 84 0 127
6.158707 -14.91122 1.413 84 0 127
6.067892 -15.091658 1.672 84 0 127
6.1655 -14.900091 1.429 84 0 127
6.233615 -14.764204 1.239 84 0 127
6.073794 -15.080074 1.73 84 0 127
6.110113 -15.008794 1.572 84 0 127
6.182752 -14.866233 1.502 84 0 127
6.184584 -14.860433 1.322 84 0 127
6.23311 -14.771803 1.557 84 0 127
6.043847 -15.136644 1.623 84 0 127
6.187292 -14.857323 1.451 84 0 127
6.065168 -15.097004 1.705 84 0 127
6.118739 -14.991864 1.61 84 0 127
6.178682 -14.872016 1.359 84 0 127
6.134175 -14.96157 1.581 84 0 127
6.224921 -14.790077 1.768 84 0 127
6.217203 -14.805224 1.75 84 0 127
6.239971 -14.75173 1.228 84 0 127
6.185492 -14.85865 1.354 84 0 127
6.118285 -14.992756 1.55 84 0 127
6.056559 -15.111696 1.631 84 0 127
6.128709 -14.974499 1.743 84 0 127
6.207737 -14.814991 1.303 84 0 127
6.126003 -14.977609 1.626 84 0 127
6.133703 -14.964697 1.681 84 0 127
6.207687 -14.821699 1.67 84 0 127
6.130996 -14.967808 1.571 84 0 127
6.08743 -15.051108 1.54 84 0 127
6.050657 -15.12328 1.584 84 0 127
6.051548 -15.123734 1.708 84 0 127
6.072432 -15.082747 1.703 84 0 127
6.137369 -14.953097 1.413 84 0 127
6.213623 -14.805645 1.385 84 0 127
6.102412 -15.021705 1.495 84 0 127
6.197279 -14.83772 1.461 84 0 127
6.088792 -15.048435 1.511 84 0 127
6.145525 -14.939295 1.547 84 0 127
6.127381 -14.972699 1.439 84 0 127
6.062914 -15.099222 1.589 84 0 127
6.24219 -14.753983 1.576 84 0 127
6.0688 -15.089875 1.666 84 0 127
6.18366 -14.864451 1.469 84 0 127
6.071978 -15.083638 1.712 84 0 127
6.179102 -14.875597 1.624 84 0 127
6.08516 -15.055563 1.559 84 0 127
6.178211 -14.875143 1.465 84 0 127
6.205922 -14.818555 1.289 84 0 127
6.160943 -14.911237 1.655 84 0 127
6.169602 -14.889835 1.364 84 0 127
6.195009 -14.842175 1.369 84 0 127
6.061099 -15.102786 1.589 84 0 127
6.109659 -15.009686 1.564 84 0 127
6.229041 -14.777586 1.493 84 0 127
6.189981 -14.856449 1.69 84 0 127
6.072448 -15.080511 1.565 84 0 127
6.213623 -14.805645 1.329 84 0 127
6.239954 -14.753965 1.309 84 0 127
6.106498 -15.013685 1.526 84 0 127
6.230857 -14.774022 1.408 84 0 127
6.234018 -14.77002 1.544 84 0 127
6.231328 -14.770895 1.357 84 0 127
6.217221 -14.802988 1.571 84 0 127
6.08242 -15.063145 1.627 84 0 127
6.21453 -14.803863 1.366 84 0 127
6.038853 -15.146445 1.682 84 0 127
6.12644 -14.978953 1.716 84 0 127
6.206813 -14.819009 1.441 84 0 127
6.202675 -14.833736 1.73 84 0 127
6.160943 -14.911237 1.651 84 0 127
6.18186 -14.865779 1.337 84 0 127
6.050203 -15.12417 1.611 84 0 127
6.165936 -14.901436 1.569 84 0 127
6.100562 -15.02974 1.735 84 0 127
6.198153 -14.840411 1.723 84 0 127
6.076518 -15.074729 1.672 84 0 127
6.136461 -14.954879 1.469 84 0 127
6.130979 -14.970043 1.637 84 0 127
6.037037 -15.15001 1.624 84 0 127
6.129197 -14.969135 1.428 84 0 127
6.185492 -14.85865 1.352 84 0 127
6.229478 -14.778932 1.568 84 0 127
6.070616 -15.086311 1.72 84 0 127
6.115578 -14.995866 1.523 84 0 127
6.124169 -14.983408 1.729 84 0 127
6.208629 -14.815445 1.399 84 0 127
6.150955 -14.930839 1.668 84 0 127
6.18909 -14.855994 1.619 84 0 127
6.237684 -14.758421 1.334 84 0 127
6.225847 -14.786058 1.558 84 0 127
6.185021 -14.861778 1.47 84 0 127
6.200893 -14.832829 1.554 84 0 127
6.177758 -14.876034 1.48 84 0 127
6.219995 -14.790934 1.237 84 0 127
6.198641 -14.835048 1.419 84 0 127
6.147323 -14.937967 1.595 84 0 127
6.140984 -14.948206 1.602 84 0 127
6.235431 -14.76064 1.241 84 0 127
6.19548 -14.839048 1.325 84 0 127
6.243569 -14.749074 1.436 84 0 127
6.177286 -14.879161 1.578 84 0 127
6.230823 -14.778494 1.673 84 0 127
6.15415 -14.922366 1.562 84 0 127
6.155058 -14.920585 1.537 84 0 127
6.072432 -15.082747 1.724 84 0 127
6.238541 -14.763347 1.745 84 0 127
6.109676 -15.007448 1.512 84 0 127
6.180918 -14.872032 1.534 84 0 127
6.083344 -15.059127 1.507 84 0 127
6.219507 -14.796297 1.458 84 0 127
6.184584 -14.860433 1.355 84 0 127
6.175504 -14.878253 1.361 84 0 127
6.123733 -14.982064 1.601 84 0 127
6.018424 -15.186541 1.665 84 0 127
6.17004 -14.891181 1.459 84 0 127
6.067 -15.091204 1.584 84 0 127
6.203618 -14.827482 1.587 84 0 127
6.218599 -14.798079 1.545 84 0 127
6.136007 -14.95577 1.477 84 0 127
6.17046 -14.894762 1.691 84 0 127
6.098763 -15.031069 1.577 84 0 127
6.220399 -14.796751 1.571 84 0 127
6.076064 -15.075619 1.683 84 0 127
6.121026 -14.985173 1.45 84 0 127
6.221307 -14.794969 1.562 84 0 127
6.223139 -14.789169 1.5 84 0 127
6.169132 -14.892962 1.462 84 0 127
6.106918 -15.017266 1.701 84 0 127
6.240862 -14.752184 1.296 84 0 127
6.161868 -14.907219 1.503 84 0 127
6.067 -15.091204 1.567 84 0 127
6.176362 -14.883179 1.759 84 0 127
6.226335 -14.780697 1.31 84 0 127
6.160943 -14.911237 1.601 84 0 127
6.120991 -14.989645 1.739 84 0 127
6.129197 -14.969135 1.437 84 0 127
6.213639 -14.803409 1.285 84 0 127
6.150081 -14.928149 1.408 84 0 127
6.122825 -14.983846 1.64 84 0 127
6.240879 -14.749948 1.198 84 0 127
6.107843 -15.013249 1.65 84 0 127
6.224501 -14.786496 1.464 84 0 127
6.09424 -15.037743 1.53 84 0 127
6.155041 -14.92282 1.608 84 0 127
6.196791 -14.843083 1.671 84 0 127
6.145978 -14.938405 1.533 84 0 127
6.109642 -15.011921 1.709 84 0 127
6.088338 -15.049326 1.55 84 0 127
6.121009 -14.98741 1.569 84 0 127
6.042485 -15.139318 1.602 84 0 127
6.175034 -14.88138 1.467 84 0 127
6.174562 -14.884506 1.562 84 0 127
6.203181 -14.826138 1.445 84 0 127
6.025687 -15.172285 1.694 84 0 127
6.143709 -14.942859 1.548 84 0 127
6.164138 -14.902763 1.46 84 0 127
6.177774 -14.873797 1.361 84 0 127
6.146398 -14.941985 1.758 84 0 127
6.204543 -14.823464 1.41 84 0 127
6.179556 -14.874705 1.627 84 0 127
6.194975 -14.846648 1.697 84 0 127
6.102866 -15.020814 1.531 84 0 127
6.160522 -14.907656 1.348 84 0 127
6.23084 -14.776258 1.602 84 0 127
6.097401 -15.033742 1.601 84 0 127
6.161885 -14.904983 1.429 84 0 127
6.154621 -14.919239 1.366 84 0 127
6.180902 -14.874269 1.682 84 0 127
6.225863 -14.783823 1.431 84 0 127
6.19405 -14.850665 1.761 84 0 127
6.072432 -15.082747 1.726 84 0 127
6.047025 -15.130407 1.597 84 0 127
6.100108 -15.030632 1.741 84 0 127
6.083344 -15.059127 1.584 84 0 127
6.152788 -14.925039 1.576 84 0 127
6.18001 -14.873815 1.541 84 0 127
6.101504 -15.023487 1.471 84 0 127
6.244494 -14.745056 1.282 84 0 127
6.125985 -14.979844 1.683 84 0 127
6.150501 -14.93173 1.658 84 0 127
6.228604 -14.776241 1.34 84 0 127
6.192285 -14.847522 1.404 84 0 127
6.209503 -14.818135 1.6 84 0 127
6.142783 -14.946877 1.727 84 0 127
6.238575 -14.758875 1.395 84 0 127
6.19817 -14.838174 1.567 84 0 127
6.169586 -14.892073 1.478 84 0 127
6.123279 -14.982954 1.556 84 0 127
6.150518 -14.929495 1.539 84 0 127
6.16323 -14.904547 1.504 84 0 127
6.20271 -14.829265 1.573 84 0 127
6.103303 -15.02216 1.599 84 0 127
6.200911 -14.830593 1.384 84 0 127
6.19136 -14.85154 1.616 84 0 127
6.235381 -14.767347 1.573 84 0 127
6.172781 -14.883598 1.356 84 0 127
6.189107 -14.853759 1.492 84 0 127
6.227645 -14.784731 1.727 84 0 127
6.22857 -14.780713 1.599 84 0 127
6.170494 -14.890289 1.492 84 0 127
6.077896 -15.069819 1.554 84 0 127
6.207737 -14.814991 1.255 84 0 127
6.164155 -14.900528 1.362 84 0 127
6.168224 -14.894745 1.517 84 0 127
6.055651 -15.113479 1.652 84 0 127
6.127819 -14.974045 1.585 84 0 127
6.102395 -15.023941 1.61 84 0 127
6.173688 -14.881817 1.316 84 0 127
6.206342 -14.822136 1.522 84 0 127
6.141421 -14.94955 1.656 84 0 127
6.116923 -14.995428 1.617 84 0 127
6.158707 -14.91122 1.399 84 0 127
6.229512 -14.77446 1.391 84 0 127
6.132359 -14.965135 1.625 84 0 127
6.141001 -14.94597 1.447 84 0 127
6.193664 -14.842612 1.301 84 0 127
6.211353 -14.8101 1.327 84 0 127
6.202727 -14.827029 1.364 84 0 127
6.218163 -14.796735 1.315 84 0 127
6.110567 -15.007902 1.592 84 0 127
6.095585 -15.037306 1.598 84 0 127
6.235363 -14.769585 1.738 84 0 127
6.163667 -14.90589 1.567 84 0 127
6.099671 -15.029286 1.674 84 0 127
6.027503 -15.168721 1.693 84 0 127
6.139588 -14.955351 1.745 84 0 127
6.024779 -15.174067 1.706 84 0 127
6.06653 -15.09433 1.718 84 0 127
6.102849 -15.023049 1.667 84 0 127
6.202693 -14.831501 1.664 84 0 127
6.190452 -14.853321 1.582 84 0 127
6.16096 -14.909001 1.514 84 0 127
6.236339 -14.758858 1.246 84 0 127
6.095585 -15.037306 1.655 84 0 127
6.163701 -14.901419 1.401 84 0 127
6.028865 -15.166048 1.654 84 0 127
6.050641 -15.125515 1.706 84 0 127
6.226771 -14.782041 1.521 84 0 127
6.097418 -15.031506 1.494 84 0 127
6.210865 -14.815462 1.665 84 0 127
6.218617 -14.795843 1.402 84 0 127
6.155041 -14.92282 1.699 84 0 127
6.244965 -14.741929 1.202 84 0 127
6.125566 -14.976263 1.447 84 0 127
6.183206 -14.865341 1.425 84 0 127
6.082436 -15.060909 1.576 84 0 127
6.244006 -14.750419 1.612 84 0 127
6.16777 -14.895637 1.504 84 0 127
6.195883 -14.844865 1.705 84 0 127
6.172781 -14.883598 1.325 84 0 127
6.199112 -14.831921 1.295 84 0 127
6.193193 -14.84574 1.449 84 0 127
6.105102 -15.020831 1.752 84 0 127
6.115561 -14.998101 1.546 84 0 127
6.207737 -14.814991 1.259 84 0 127
6.203601 -14.829719 1.61 84 0 127
6.218565 -14.802551 1.727 84 0 127
6.10105 -15.024378 1.553 84 0 127
6.229932 -14.77804 1.595 84 0 127
6.203635 -14.825246 1.338 84 0 127
6.180498 -14.868452 1.369 84 0 127
6.228133 -14.779367 1.423 84 0 127
6.188182 -14.857777 1.556 84 0 127
6.082891 -15.060018 1.583 84 0 127
6.093316 -15.04176 1.591 84 0 127
6.201836 -14.826574 1.32 84 0 127
6.108297 -15.012358 1.587 84 0 127
6.195883 -14.844865 1.736 84 0 127
6.148265 -14.931713 1.445 84 0 127
6.233599 -14.766439 1.282 84 0 127
6.134628 -14.96068 1.574 84 0 127
6.190452 -14.853321 1.567 84 0 127
6.227191 -14.785622 1.763 84 0 127
6.095585 -15.037306 1.644 84 0 127
6.102849 -15.023049 1.65 84 0 127
6.2395 -14.754857 1.342 84 0 127
6.224921 -14.790077 1.718 84 0 127
6.121933 -14.983392 1.477 84 0 127
6.175488 -14.880488 1.511 84 0 127
6.11694 -14.993193 1.484 84 0 127
6.158656 -14.917929 1.719 84 0 127
6.090608 -15.044871 1.546 84 0 127
6.132795 -14.966479 1.708 84 0 127
6.17959 -14.870234 1.372 84 0 127
6.094694 -15.036852 1.534 84 0 127
6.106463 -15.018158 1.696 84 0 127
6.194067 -14.84843 1.621 84 0 127
6.203147 -14.830609 1.658 84 0 127
6.152351 -14.923694 1.379 84 0 127
6.203635 -14.825246 1.352 84 0 127
6.041123 -15.141991 1.615 84 0 127
6.214985 -14.802972 1.396 84 0 127
6.111475 -15.006121 1.616 84 0 127
6.048387 -15.127734 1.608 84 0 127
6.098309 -15.03196 1.588 84 0 127
6.199061 -14.838628 1.654 84 0 127
6.212664 -14.814134 1.719 84 0 127
6.15689 -14.914784 1.393 84 0 127
6.065185 -15.094768 1.586 84 0 127
6.202273 -14.827919 1.456 84 0 127
6.088338 -15.049326 1.575 84 0 127
6.128743 -14.970026 1.419 84 0 127
6.233581 -14.768676 1.44 84 0 127
6.238558 -14.76111 1.612 84 0 127
6.240408 -14.753076 1.256 84 0 127
6.099217 -15.030178 1.625 84 0 127
6.239449 -14.761564 1.67 84 0 127
6.066076 -15.095222 1.729 84 0 127
6.185476 -14.860887 1.449 84 0 127
6.217691 -14.799861 1.45 84 0 127
6.130525 -14.970934 1.752 84 0 127
6.234523 -14.762422 1.26 84 0 127
6.086976 -15.051999 1.601 84 0 127
6.078787 -15.070273 1.679 84 0 127
6.117359 -14.996774 1.715 84 0 127
6.151846 -14.931293 1.748 84 0 127
6.183642 -14.866687 1.63 84 0 127
6.116451 -14.998555 1.723 84 0 127
6.213169 -14.806535 1.345 84 0 127
6.042485 -15.139318 1.663 84 0 127
6.16365 -14.908127 1.758 84 0 127
6.073339 -15.080966 1.65 84 0 127
6.196842 -14.836375 1.296 84 0 127
6.071524 -15.08453 1.701 84 0 127
6.235415 -14.762876 1.386 84 0 127
6.183188 -14.867578 1.565 84 0 127
6.203164 -14.828373 1.571 84 0 127
6.051548 -15.123734 1.689 84 0 127
6.130979 -14.970043 1.634 84 0 127
6.180448 -14.87516 1.692 84 0 127
6.126003 -14.977609 1.531 84 0 127
6.181809 -14.872486 1.653 84 0 127
6.217237 -14.800752 1.522 84 0 127
6.120554 -14.988301 1.623 84 0 127
6.151409 -14.929948 1.707 84 0 127
6.164138 -14.902763 1.547 84 0 127
6.125985 -14.979844 1.72 84 0 127
6.118301 -14.99052 1.504 84 0 127
6.205417 -14.826154 1.607 84 0 127
6.206359 -14.819901 1.374 84 0 127
6.14961 -14.931276 1.51 84 0 127
6.191797 -14.852885 1.657 84 0 127
6.101958 -15.022595 1.533 84 0 127
6.234943 -14.766003 1.406 84 0 127
6.071994 -15.081402 1.629 84 0 127
6.160018 -14.915256 1.701 84 0 127
6.236305 -14.76333 1.492 84 0 127
6.099234 -15.027942 1.502 84 0 127
6.208578 -14.822153 1.76 84 0 127
6.049295 -15.125953 1.619 84 0 127
6.057467 -15.109915 1.601 84 0 127
6.224082 -14.782915 1.223 84 0 127
6.061553 -15.101895 1.559 84 0 127
6.189578 -14.850632 1.317 84 0 127
6.229007 -14.782058 1.732 84 0 127
6.16138 -14.912581 1.734 84 0 127
6.080166 -15.065364 1.553 84 0 127
6.184533 -14.867141 1.656 84 0 127
6.01797 -15.187432 1.652 84 0 127
6.189981 -14.856449 1.7 84 0 127
6.230857 -14.774022 1.518 84 0 127
6.104665 -15.019486 1.599 84 0 127
6.188165 -14.860012 1.736 84 0 127
6.119175 -14.99321 1.703 84 0 127
6.216801 -14.799408 1.356 84 0 127
6.087868 -15.052453 1.654 84 0 127
6.097872 -15.030615 1.476 84 0 127
6.18951 -14.859575 1.757 84 0 127
6.22857 -14.780713 1.614 84 0 127
6.248528 -14.743745 1.628 84 0 127
6.148685 -14.935294 1.618 84 0 127
6.193647 -14.844849 1.37 84 0 127
6.202675 -14.833736 1.732 84 0 127
6.078804 -15.068037 1.519 84 0 127
6.104648 -15.021722 1.75 84 0 127
6.197279 -14.83772 1.448 84 0 127
6.192722 -14.848866 1.574 84 0 127
6.105119 -15.018595 1.588 84 0 127
6.108751 -15.011467 1.617 84 0 127
6.189073 -14.858231 1.705 84 0 127
6.168643 -14.898326 1.729 84 0 127
6.032043 -15.159811 1.714 84 0 127
6.24404 -14.745947 1.278 84 0 127
6.179085 -14.877833 1.695 84 0 127
6.150064 -14.930385 1.541 84 0 127
6.133703 -14.964697 1.652 84 0 127
6.239028 -14.757984 1.488 84 0 127
6.239449 -14.761564 1.694 84 0 127
6.19548 -14.839048 1.316 84 0 127
6.134628 -14.96068 1.569 84 0 127
6.160506 -14.909892 1.552 84 0 127
6.179102 -14.875597 1.603 84 0 127
6.083798 -15.058236 1.587 84 0 127
6.192756 -14.844395 1.353 84 0 127
6.241316 -14.751293 1.354 84 0 127
6.205451 -14.821682 1.458 84 0 127
6.027957 -15.16783 1.665 84 0 127
6.095148 -15.035961 1.563 84 0 127
6.150972 -14.928603 1.485 84 0 127
6.152317 -14.928166 1.596 84 0 127
6.18909 -14.855994 1.563 84 0 127
6.22403 -14.789623 1.62 84 0 127
6.236289 -14.765566 1.519 84 0 127
6.170494 -14.890289 1.415 84 0 127
6.206359 -14.819901 1.383 84 0 127
6.220835 -14.798096 1.69 84 0 127
6.155041 -14.92282 1.603 84 0 127
6.233599 -14.766439 1.361 84 0 127
6.168224 -14.894745 1.466 84 0 127
6.145995 -14.936168 1.374 84 0 127
6.226335 -14.780697 1.356 84 0 127
6.208629 -14.815445 1.324 84 0 127
6.107371 -15.016376 1.736 84 0 127
6.164155 -14.900528 1.417 84 0 127
6.139168 -14.951769 1.583 84 0 127
6.183222 -14.863106 1.369 84 0 127
6.204979 -14.824809 1.538 84 0 127
6.127819 -14.974045 1.573 84 0 127
6.165516 -14.897855 1.351 84 0 127
6.242207 -14.751747 1.388 84 0 127
6.160034 -14.913019 1.59 84 0 127
6.105136 -15.016358 1.525 84 0 127
6.182717 -14.870705 1.687 84 0 127
6.204491 -14.830173 1.766 84 0 127
6.160052 -14.910784 1.561 84 0 127
6.225847 -14.786058 1.616 84 0 127
6.224535 -14.782024 1.225 84 0 127
6.067909 -15.089421 1.627 84 0 127
6.125095 -14.979391 1.535 84 0 127
6.172326 -14.88449 1.323 84 0 127
6.134645 -14.958444 1.426 84 0 127
6.143237 -14.945986 1.681 84 0 127
6.068346 -15.090767 1.72 84 0 127
6.237247 -14.757076 1.243 84 0 127
6.155949 -14.921038 1.645 84 0 127
6.198658 -14.832811 1.265 84 0 127
6.051565 -15.121497 1.642 84 0 127
6.22857 -14.780713 1.598 84 0 127
6.034297 -15.157592 1.732 84 0 127
6.231311 -14.77313 1.519 84 0 127
6.139168 -14.951769 1.572 84 0 127
6.191377 -14.849304 1.483 84 0 127
6.048824 -15.12908 1.715 84 0 127
6.160489 -14.912127 1.602 84 0 127
6.234018 -14.77002 1.556 84 0 127
6.040669 -15.142881 1.603 84 0 127
6.019331 -15.184759 1.686 84 0 127
6.090154 -15.045762 1.576 84 0 127
6.246276 -14.745964 1.544 84 0 127
6.108297 -15.012358 1.624 84 0 127
6.18867 -14.852413 1.348 84 0 127
6.086505 -15.055126 1.615 84 0 127
6.195463 -14.841285 1.42 84 0 127
6.198204 -14.833702 1.338 84 0 127
6.035221 -15.153574 1.675 84 0 127
6.195463 -14.841285 1.386 84 0 127
6.117377 -14.994538 1.597 84 0 127
6.096493 -15.035523 1.585 84 0 127
6.233599 -14.766439 1.313 84 0 127
6.241282 -14.755765 1.555 84 0 127
6.135536 -14.958898 1.536 84 0 127
6.097855 -15.032851 1.641 84 0 127
6.1655 -14.900091 1.484 84 0 127
6.239954 -14.753965 1.296 84 0 127
6.159598 -14.911674 1.46 84 0 127
6.184114 -14.86356 1.384 84 0 127
6.122371 -14.984736 1.6 84 0 127
6.040215 -15.143773 1.639 84 0 127
6.210865 -14.815462 1.699 84 0 127
6.205922 -14.818555 1.268 84 0 127
6.138243 -14.955787 1.696 84 0 127
6.19817 -14.838174 1.595 84 0 127
6.200877 -14.835064 1.641 84 0 127
6.05745 -15.112151 1.731 84 0 127
6.156874 -14.917021 1.498 84 0 127
6.098309 -15.03196 1.703 84 0 127
6.212243 -14.810554 1.511 84 0 127
6.126473 -14.974482 1.45 84 0 127
6.21633 -14.802534 1.549 84 0 127
6.079696 -15.068492 1.639 84 0 127
6.231345 -14.768659 1.22 84 0 127
6.191377 -14.849304 1.471 84 0 127
6.125111 -14.977155 1.474 84 0 127
6.1959 -14.842629 1.567 84 0 127
6.172276 -14.891197 1.707 84 0 127
6.13826 -14.953551 1.512 84 0 127
6.075626 -15.074274 1.531 84 0 127
6.221811 -14.78737 1.218 84 0 127
6.181372 -14.871141 1.581 84 0 127
6.159144 -14.912565 1.487 84 0 127
6.0688 -15.089875 1.66 84 0 127
6.152771 -14.927275 1.651 84 0 127
6.115543 -15.000338 1.731 84 0 127
6.224484 -14.788732 1.578 84 0 127
6.189561 -14.852867 1.369 84 0 127
6.217691 -14.799861 1.502 84 0 127
6.159126 -14.914801 1.635 84 0 127
6.212227 -14.81279 1.678 84 0 127
6.22403 -14.789623 1.65 84 0 127
6.152771 -14.927275 1.69 84 0 127
6.229024 -14.779821 1.617 84 0 127
6.234943 -14.766003 1.397 84 0 127
6.163684 -14.903655 1.475 84 0 127
6.19178 -14.855121 1.763 84 0 127
6.062898 -15.101459 1.667 84 0 127
6.122841 -14.981609 1.464 84 0 127
6.145995 -14.936168 1.463 84 0 127
6.102395 -15.023941 1.58 84 0 127
6.20229 -14.825684 1.3 84 0 127
6.141909 -14.944187 1.405 84 0 127
6.175941 -14.879599 1.427 84 0 127
6.151426 -14.927712 1.459 84 0 127
6.209503 -14.818135 1.597 84 0 127
6.213639 -14.803409 1.293 84 0 127
6.065185 -15.094768 1.598 84 0 127
6.057921 -15.109023 1.587 84 0 127
6.245419 -14.741037 1.183 84 0 127
6.080604 -15.066709 1.724 84 0 127
6.128727 -14.972262 1.528 84 0 127
6.164608 -14.899637 1.382 84 0 127
6.091062 -15.04398 1.497 84 0 127
6.128255 -14.975389 1.681 84 0 127
6.118267 -14.994991 1.673 84 0 127
6.095131 -15.038198 1.611 84 0 127
6.063369 -15.098331 1.609 84 0 127
6.196371 -14.839503 1.436 84 0 127
6.134628 -14.96068 1.544 84 0 127
6.237667 -14.760656 1.404 84 0 127
6.040669 -15.142881 1.648 84 0 127
6.050641 -15.125515 1.709 84 0 127
6.20313 -14.832845 1.743 84 0 127
6.233144 -14.767331 1.376 84 0 127
6.22361 -14.786042 1.334 84 0 127
6.147777 -14.937076 1.7 84 0 127
6.135065 -14.962024 1.651 84 0 127
6.067909 -15.089421 1.545 84 0 127
6.169602 -14.889835 1.378 84 0 127
6.138714 -14.952661 1.501 84 0 127
6.094223 -15.039979 1.674 84 0 127
6.067892 -15.091658 1.706 84 0 127
6.205887 -14.823028 1.51 84 0 127
6.162793 -14.903201 1.407 84 0 127
6.083782 -15.060472 1.686 84 0 127
6.223156 -14.786934 1.316 84 0 127
6.114182 -15.003011 1.742 84 0 127
6.208175 -14.816337 1.419 84 0 127
6.193614 -14.84932 1.738 84 0 127
6.135519 -14.961133 1.711 84 0 127
6.106498 -15.013685 1.514 84 0 127
6.192722 -14.848866 1.592 84 0 127
6.176362 -14.883179 1.662 84 0 127
6.211773 -14.81368 1.661 84 0 127
6.171872 -14.885381 1.394 84 0 127
6.192688 -14.853338 1.756 84 0 127
6.099671 -15.029286 1.67 84 0 127
6.019786 -15.183867 1.676 84 0 127
6.231277 -14.777603 1.68 84 0 127
6.245856 -14.742383 1.273 84 0 127
6.037491 -15.149118 1.705 84 0 127
6.165029 -14.903217 1.554 84 0 127
6.041123 -15.141991 1.62 84 0 127
6.203618 -14.827482 1.59 84 0 127
6.122353 -14.986973 1.746 84 0 127
6.212227 -14.81279 1.681 84 0 127
6.219473 -14.800769 1.762 84 0 127
6.235415 -14.762876 1.32 84 0 127
6.152334 -14.92593 1.48 84 0 127
6.21453 -14.803863 1.386 84 0 127
6.192739 -14.84663 1.426 84 0 127
6.155512 -14.919693 1.526 84 0 127
6.194521 -14.847538 1.614 84 0 127
6.132341 -14.96737 1.702 84 0 127
6.219978 -14.793171 1.331 84 0 127
6.166862 -14.897418 1.537 84 0 127
6.123261 -14.98519 1.684 84 0 127
6.04837 -15.129971 1.7 84 0 127
6.106498 -15.013685 1.523 84 0 127
6.236322 -14.761094 1.335 84 0 127
6.216783 -14.801643 1.528 84 0 127
6.12644 -14.978953 1.65 84 0 127
6.184567 -14.862669 1.396 84 0 127
6.225375 -14.789186 1.735 84 0 127
6.103303 -15.02216 1.58 84 0 127
6.173234 -14.882708 1.369 84 0 127
6.158707 -14.91122 1.428 84 0 127
6.204963 -14.827045 1.648 84 0 127
6.213135 -14.811007 1.608 84 0 127
6.205905 -14.820791 1.336 84 0 127
6.173654 -14.886289 1.555 84 0 127
6.130088 -14.96959 1.519 84 0 127
6.225863 -14.783823 1.522 84 0 127
6.078351 -15.068928 1.517 84 0 127
6.203147 -14.830609 1.658 84 0 127
6.128709 -14.974499 1.745 84 0 127
6.079258 -15.067146 1.592 84 0 127
6.025687 -15.172285 1.681 84 0 127
6.191343 -14.853775 1.731 84 0 127
6.190906 -14.85243 1.556 84 0 127
6.193176 -14.847976 1.534 84 0 127
6.203601 -14.829719 1.705 84 0 127
6.116905 -14.997664 1.673 84 0 127
6.243115 -14.749965 1.455 84 0 127
6.146415 -14.939749 1.672 84 0 127
6.166408 -14.89831 1.461 84 0 127
6.150955 -14.930839 1.627 84 0 127
6.171872 -14.885381 1.342 84 0 127
6.179556 -14.874705 1.528 84 0 127
6.164592 -14.901874 1.442 84 0 127
6.182717 -14.870705 1.74 84 0 127
6.229512 -14.77446 1.287 84 0 127
6.142817 -14.942405 1.455 84 0 127
6.182734 -14.868468 1.628 84 0 127
6.10147 -15.027959 1.717 84 0 127
6.082873 -15.062255 1.64 84 0 127
6.191377 -14.849304 1.489 84 0 127
6.192722 -14.848866 1.491 84 0 127
6.052019 -15.120606 1.642 84 0 127
6.105573 -15.017704 1.598 84 0 127
6.149627 -14.92904 1.411 84 0 127
6.167282 -14.900999 1.707 84 0 127
6.155075 -14.918348 1.424 84 0 127
6.092861 -15.042652 1.673 84 0 127
6.058829 -15.107242 1.646 84 0 127
6.243098 -14.752201 1.507 84 0 127
6.078787 -15.070273 1.631 84 0 127
6.229529 -14.772223 1.273 84 0 127
6.144145 -14.944204 1.677 84 0 127
6.194571 -14.840831 1.289 84 0 127
6.160018 -14.915256 1.702 84 0 127
6.093298 -15.043997 1.739 84 0 127
6.125077 -14.981627 1.655 84 0 127
6.219491 -14.798533 1.646 84 0 127
6.217675 -14.802097 1.599 84 0 127
6.166878 -14.895182 1.398 84 0 127
6.206796 -14.821245 1.466 84 0 127
6.100579 -15.027505 1.662 84 0 127
6.170494 -14.890289 1.473 84 0 127
6.170006 -14.895653 1.673 84 0 127
6.05745 -15.112151 1.719 84 0 127
6.043393 -15.137536 1.688 84 0 127
6.190452 -14.853321 1.575 84 0 127
6.219961 -14.795406 1.471 84 0 127
6.194101 -14.843957 1.428 84 0 127
6.01343 -15.196342 1.675 84 0 127
6.216783 -14.801643 1.533 84 0 127
6.183171 -14.869814 1.663 84 0 127
6.095131 -15.038198 1.644 84 0 127
6.137823 -14.952207 1.466 84 0 127
6.167736 -14.900107 1.743 84 0 127
6.125531 -14.980736 1.726 84 0 127
6.221341 -14.790498 1.397 84 0 127
6.187728 -14.858667 1.624 84 0 127
6.188619 -14.859122 1.648 84 0 127
6.219087 -14.792716 1.293 84 0 127
6.157748 -14.91971 1.729 84 0 127
6.143237 -14.945986 1.639 84 0 127
6.160943 -14.911237 1.628 84 0 127
6.214933 -14.809679 1.718 84 0 127
6.082873 -15.062255 1.731 84 0 127
6.123261 -14.98519 1.709 84 0 127
6.223577 -14.790514 1.584 84 0 127
6.233599 -14.766439 1.315 84 0 127
6.126019 -14.975372 1.446 84 0 127
6.227225 -14.78115 1.485 84 0 127
6.099671 -15.029286 1.658 84 0 127
6.219525 -14.794061 1.407 84 0 127
6.164104 -14.907236 1.729 84 0 127
6.178228 -14.872907 1.334 84 0 127
6.227679 -14.780259 1.459 84 0 127
6.178632 -14.878723 1.712 84 0 127
6.226737 -14.786512 1.676 84 0 127
6.098326 -15.029724 1.569 84 0 127
6.141001 -14.94597 1.463 84 0 127
6.033405 -15.157138 1.664 84 0 127
6.11921 -14.988737 1.459 84 0 127
6.214077 -14.804753 1.399 84 0 127
6.192268 -14.849757 1.567 84 0 127
6.186854 -14.855978 1.327 84 0 127
6.208175 -14.816337 1.334 84 0 127
6.229949 -14.775804 1.506 84 0 127
6.111929 -15.00523 1.617 84 0 127
6.202273 -14.827919 1.376 84 0 127
6.165483 -14.902327 1.629 84 0 127
6.18408 -14.868032 1.706 84 0 127
6.220852 -14.79586 1.64 84 0 127
6.205451 -14.821682 1.37 84 0 127
6.163247 -14.902309 1.338 84 0 127
6.127365 -14.974936 1.528 84 0 127
6.135991 -14.958006 1.608 84 0 127
6.181389 -14.868906 1.454 84 0 127
6.132359 -14.965135 1.551 84 0 127
6.178228 -14.872907 1.371 84 0 127
6.136007 -14.95577 1.479 84 0 127
6.154133 -14.924602 1.657 84 0 127
6.189107 -14.853759 1.402 84 0 127
6.218145 -14.79897 1.449 84 0 127
6.221795 -14.789606 1.373 84 0 127
6.162759 -14.907673 1.579 84 0 127
6.205871 -14.825264 1.613 84 0 127
6.074718 -15.076056 1.593 84 0 127
6.231731 -14.776711 1.695 84 0 127
6.117831 -14.993647 1.589 84 0 127
6.23496 -14.763767 1.278 84 0 127
6.211353 -14.8101 1.405 84 0 127
6.168694 -14.891618 1.337 84 0 127
6.154604 -14.921475 1.57 84 0 127
6.073811 -15.077838 1.562 84 0 127
6.244494 -14.745056 1.283 84 0 127
6.165046 -14.900982 1.525 84 0 127
6.070178 -15.084967 1.634 84 0 127
6.086505 -15.055126 1.66 84 0 127
6.120537 -14.990537 1.713 84 0 127
6.047009 -15.132644 1.708 84 0 127
6.190906 -14.85243 1.512 84 0 127
6.21907 -14.794952 1.416 84 0 127
6.168224 -14.894745 1.445 84 0 127
6.199549 -14.833266 1.378 84 0 127
6.145053 -14.942422 1.612 84 0 127
6.169132 -14.892962 1.492 84 0 127
6.093332 -15.039525 1.532 84 0 127
6.187257 -14.861794 1.632 84 0 127
6.185946 -14.857759 1.324 84 0 127
6.129163 -14.973607 1.652 84 0 127
6.224013 -14.791859 1.697 84 0 127
6.032497 -15.158919 1.628 84 0 127
6.037037 -15.15001 1.703 84 0 127
6.236759 -14.762439 1.45 84 0 127
6.044301 -15.135754 1.692 84 0 127
6.041577 -15.1411 1.6 84 0 127
6.168678 -14.893854 1.518 84 0 127
6.059737 -15.105459 1.615 84 0 127
6.081965 -15.064036 1.74 84 0 127
6.158672 -14.915692 1.596 84 0 127
6.154621 -14.919239 1.43 84 0 127
6.195883 -14.844865 1.714 84 0 127
6.143674 -14.947331 1.751 84 0 127
6.137823 -14.952207 1.451 84 0 127
6.150955 -14.930839 1.679 84 0 127
6.181826 -14.870251 1.566 84 0 127
6.23496 -14.763767 1.301 84 0 127
6.235885 -14.759748 1.209 84 0 127
6.169552 -14.896544 1.734 84 0 127
6.134157 -14.963806 1.717 84 0 127
6.118721 -14.994101 1.72 84 0 127
6.239047 -14.755748 1.366 84 0 127
6.171368 -14.892981 1.723 84 0 127
6.106952 -15.012794 1.543 84 0 127
6.038836 -15.148682 1.717 84 0 127
6.183222 -14.863106 1.357 84 0 127
6.182298 -14.867124 1.387 84 0 127
6.224484 -14.788732 1.56 84 0 127
6.231294 -14.775368 1.649 84 0 127
6.211807 -14.809209 1.326 84 0 127
6.05518 -15.116606 1.74 84 0 127
6.053818 -15.119278 1.7 84 0 127
6.038853 -15.146445 1.628 84 0 127
6.175034 -14.88138 1.403 84 0 127
6.229461 -14.781167 1.665 84 0 127
6.185895 -14.864468 1.681 84 0 127
6.119193 -14.990974 1.572 84 0 127
6.106463 -15.018158 1.712 84 0 127
6.114199 -15.000775 1.665 84 0 127
6.08516 -15.055563 1.593 84 0 127
6.204997 -14.822574 1.376 84 0 127
6.140513 -14.951332 1.728 84 0 127
6.159161 -14.910329 1.411 84 0 127
6.229983 -14.771332 1.236 84 0 127
6.140531 -14.949096 1.505 84 0 127
6.204997 -14.822574 1.393 84 0 127
6.130979 -14.970043 1.651 84 0 127
6.118285 -14.992756 1.596 84 0 127
6.117847 -14.99141 1.469 84 0 127
6.228116 -14.781605 1.66 84 0 127
6.19321 -14.843503 1.309 84 0 127
6.132812 -14.964243 1.559 84 0 127
6.154604 -14.921475 1.538 84 0 127
6.153713 -14.921021 1.368 84 0 127
6.16365 -14.908127 1.713 84 0 127
6.217709 -14.797626 1.311 84 0 127
6.15415 -14.922366 1.523 84 0 127
6.235415 -14.762876 1.334 84 0 127
6.217203 -14.805224 1.726 84 0 127
6.128743 -14.970026 1.436 84 0 127
6.219019 -14.80166 1.706 84 0 127
6.21907 -14.794952 1.407 84 0 127
6.208595 -14.819917 1.678 84 0 127
6.145961 -14.94064 1.646 84 0 127
6.228621 -14.774005 1.204 84 0 127
6.248546 -14.741509 1.516 84 0 127
6.101033 -15.026614 1.661 84 0 127
6.160506 -14.909892 1.457 84 0 127
6.200877 -14.835064 1.686 84 0 127
6.151443 -14.925476 1.423 84 0 127
6.234489 -14.766893 1.514 84 0 127
6.104681 -15.01725 1.548 84 0 127
6.189998 -14.854213 1.614 84 0 127
6.089229 -15.049781 1.601 84 0 127
6.16866 -14.89609 1.553 84 0 127
6.139168 -14.951769 1.513 84 0 127
6.06426 -15.098785 1.708 84 0 127
6.198153 -14.840411 1.683 84 0 127
6.131467 -14.964681 1.484 84 0 127
6.190486 -14.848849 1.316 84 0 127
6.198641 -14.835048 1.415 84 0 127
6.24404 -14.745947 1.367 84 0 127
6.027957 -15.16783 1.638 84 0 127
6.127381 -14.972699 1.418 84 0 127
6.177269 -14.881397 1.698 84 0 127
6.104211 -15.020377 1.572 84 0 127
6.188636 -14.856886 1.574 84 0 127
6.229495 -14.776695 1.457 84 0 127
6.120118 -14.986956 1.493 84 0 127
6.203181 -14.826138 1.386 84 0 127
6.136865 -14.960696 1.754 84 0 127
6.147357 -14.933496 1.462 84 0 127
6.105119 -15.018595 1.645 84 0 127
6.160034 -14.913019 1.598 84 0 127
6.22361 -14.786042 1.323 84 0 127
6.177774 -14.873797 1.369 84 0 127
6.225847 -14.786058 1.583 84 0 127
6.120571 -14.986065 1.506 84 0 127
6.093332 -15.039525 1.511 84 0 127
6.198624 -14.837283 1.583 84 0 127
6.220852 -14.79586 1.56 84 0 127
6.150518 -14.929495 1.538 84 0 127
6.21179 -14.811444 1.505 84 0 127
6.022055 -15.179413 1.668 84 0 127
6.033405 -15.157138 1.66 84 0 127
6.07561 -15.07651 1.662 84 0 127
6.177774 -14.873797 1.369 84 0 127
6.196808 -14.840847 1.547 84 0 127
6.243098 -14.752201 1.535 84 0 127
6.17685 -14.877815 1.408 84 0 127
6.077896 -15.069819 1.542 84 0 127
6.119175 -14.99321 1.691 84 0 127
6.244965 -14.741929 1.201 84 0 127
6.115107 -14.998993 1.543 84 0 127
6.141875 -14.948659 1.657 84 0 127
6.081965 -15.064036 1.67 84 0 127
6.18366 -14.864451 1.463 84 0 127
6.067909 -15.089421 1.619 84 0 127
6.030681 -15.162484 1.715 84 0 127
6.231749 -14.774476 1.595 84 0 127
6.092878 -15.040416 1.487 84 0 127
6.165483 -14.902327 1.663 84 0 127
6.223559 -14.792749 1.689 84 0 127
6.074247 -15.079184 1.679 84 0 127
6.047462 -15.131753 1.717 84 0 127
6.19363 -14.847084 1.587 84 0 127
6.135553 -14.956661 1.442 84 0 127
6.224535 -14.782024 1.237 84 0 127
6.023417 -15.17674 1.718 84 0 127
6.173218 -14.884944 1.491 84 0 127
6.224519 -14.784261 1.294 84 0 127
6.08696 -15.054235 1.614 84 0 127
6.193647 -14.844849 1.402 84 0 127
6.111492 -15.003884 1.537 84 0 127
6.11694 -14.993193 1.47 84 0 127
6.107843 -15.013249 1.597 84 0 127
6.128255 -14.975389 1.701 84 0 127
6.175958 -14.877361 1.388 84 0 127
6.143254 -14.94375 1.535 84 0 127
6.093786 -15.038634 1.512 84 0 127
6.199532 -14.835502 1.578 84 0 127
6.151896 -14.924585 1.378 84 0 127
6.175016 -14.883615 1.623 84 0 127
6.165483 -14.902327 1.643 84 0 127
6.166408 -14.89831 1.512 84 0 127
6.208175 -14.816337 1.377 84 0 127
6.238104 -14.762002 1.62 84 0 127
6.141455 -14.945078 1.459 84 0 127
6.242644 -14.753092 1.528 84 0 127
6.073811 -15.077838 1.574 84 0 127
6.090591 -15.047108 1.668 84 0 127
6.071086 -15.083184 1.6 84 0 127
6.189561 -14.852867 1.413 84 0 127
6.220887 -14.791388 1.395 84 0 127
6.126927 -14.973591 1.476 84 0 127
6.101016 -15.02885 1.748 84 0 127
6.152771 -14.927275 1.587 84 0 127
6.037945 -15.148228 1.667 84 0 127
6.218634 -14.793607 1.277 84 0 127
6.189527 -14.85734 1.633 84 0 127
6.167736 -14.900107 1.701 84 0 127
6.143237 -14.945986 1.697 84 0 127
6.177758 -14.876034 1.397 84 0 127
6.118739 -14.991864 1.534 84 0 127
6.21137 -14.807863 1.24 84 0 127
6.229024 -14.779821 1.649 84 0 127
6.178648 -14.876488 1.565 84 0 127
6.079712 -15.066255 1.536 84 0 127
6.194101 -14.843957 1.427 84 0 127
6.145978 -14.938405 1.501 84 0 127
6.172763 -14.885836 1.424 84 0 127
6.064714 -15.097895 1.684 84 0 127
6.209519 -14.815899 1.545 84 0 127
6.092424 -15.041306 1.551 84 0 127
6.014791 -15.193669 1.656 84 0 127
6.236742 -14.764675 1.558 84 0 127
6.155041 -14.92282 1.647 84 0 127
6.222231 -14.790951 1.494 84 0 127
6.07561 -15.07651 1.699 84 0 127
6.179102 -14.875597 1.524 84 0 127
6.1428 -14.944642 1.563 84 0 127
6.041577 -15.1411 1.669 84 0 127
6.165046 -14.900982 1.528 84 0 127
6.217726 -14.795389 1.288 84 0 127
6.192706 -14.851102 1.691 84 0 127
6.19817 -14.838174 1.489 84 0 127
6.0897 -15.046653 1.592 84 0 127
6.208192 -14.8141 1.285 84 0 127
6.06426 -15.098785 1.728 84 0 127
6.131433 -14.969152 1.744 84 0 127
6.153678 -14.925493 1.634 84 0 127
6.066546 -15.092094 1.573 84 0 127
6.160943 -14.911237 1.655 84 0 127
6.234909 -14.770474 1.723 84 0 127
6.15869 -14.913456 1.485 84 0 127
6.143237 -14.945986 1.642 84 0 127
6.116032 -14.994974 1.53 84 0 127
6.196842 -14.836375 1.271 84 0 127
6.132341 -14.96737 1.739 84 0 127
6.238592 -14.756639 1.372 84 0 127
6.237213 -14.761548 1.462 84 0 127
6.091936 -15.04667 1.732 84 0 127
6.178211 -14.875143 1.515 84 0 127
6.205434 -14.823918 1.56 84 0 127
6.210899 -14.81099 1.439 84 0 127
6.137806 -14.954443 1.587 84 0 127
6.157799 -14.913002 1.431 84 0 127
6.092408 -15.043543 1.704 84 0 127
6.230857 -14.774022 1.481 84 0 127
6.166408 -14.89831 1.494 84 0 127
6.164592 -14.901874 1.495 84 0 127
6.182298 -14.867124 1.424 84 0 127
6.229967 -14.773568 1.282 84 0 127
6.117831 -14.993647 1.624 84 0 127
6.035659 -15.154919 1.733 84 0 127
6.223593 -14.788278 1.463 84 0 127
6.144599 -14.943313 1.654 84 0 127
6.1959 -14.842629 1.558 84 0 127
6.094677 -15.039088 1.633 84 0 127
6.184584 -14.860433 1.315 84 0 127
6.075156 -15.077401 1.736 84 0 127
6.181809 -14.872486 1.705 84 0 127
6.236322 -14.761094 1.264 84 0 127
6.216295 -14.807006 1.702 84 0 127
6.133266 -14.963353 1.595 84 0 127
6.134628 -14.96068 1.526 84 0 127
6.210445 -14.811882 1.39 84 0 127
6.132359 -14.965135 1.568 84 0 127
6.017062 -15.189214 1.662 84 0 127
6.138697 -14.954896 1.623 84 0 127
6.24631 -14.741491 1.261 84 0 127
6.210411 -14.816354 1.639 84 0 127
6.132375 -14.962898 1.448 84 0 127
6.125095 -14.979391 1.539 84 0 127
6.093769 -15.040871 1.687 84 0 127
6.159564 -14.916146 1.722 84 0 127
6.211756 -14.815916 1.761 84 0 127
6.17093 -14.891635 1.649 84 0 127
6.063369 -15.098331 1.567 84 0 127
6.17912 -14.873361 1.488 84 0 127
6.183222 -14.863106 1.341 84 0 127
6.247654 -14.741055 1.451 84 0 127
6.033405 -15.157138 1.631 84 0 127
6.214967 -14.805207 1.562 84 0 127
6.201802 -14.831046 1.517 84 0 127
6.125531 -14.980736 1.669 84 0 127
6.128255 -14.975389 1.733 84 0 127
6.223174 -14.784697 1.268 84 0 127
6.155949 -14.921038 1.669 84 0 127
6.124187 -14.981173 1.568 84 0 127
6.160489 -14.912127 1.642 84 0 127
6.188619 -14.859122 1.696 84 0 127
6.225392 -14.78695 1.594 84 0 127
6.212664 -14.814134 1.727 84 0 127
6.148248 -14.933949 1.5 84 0 127
6.090137 -15.047997 1.723 84 0 127
6.037928 -15.150464 1.723 84 0 127
6.049278 -15.128188 1.707 84 0 127
6.231782 -14.770004 1.328 84 0 127
6.204963 -14.827045 1.699 84 0 127
6.135536 -14.958898 1.613 84 0 127
6.218163 -14.796735 1.312 84 0 127
