ply
format ascii 1.0
element vertex 1420
property double x
property double y
property double z
property uchar red
property uchar green
property uchar blue
element face 0
property list uchar int vertex_indices
end_header
5.399306 -17.917078 3.415 255 0 0
5.371158 -17.972321 3.537 255 0 0
5.384324 -17.946482 3.483 255 0 0
5.425235 -17.859583 3.544 255 0 0
5.36524 -17.986139 3.415 255 0 0
5.384778 -17.945591 3.415 255 0 0
5.374336 -17.966084 3.513 255 0 0
5.382037 -17.953173 3.39 255 0 0
5.387048 -17.941135 3.456 255 0 0
5.393858 -17.927771 3.386 255 0 0
5.378893 -17.954937 3.52 255 0 0
5.360716 -17.992813 3.504 255 0 0
5.376606 -17.961628 3.456 255 0 0
5.364332 -17.987923 3.439 255 0 0
5.381146 -17.952719 3.446 255 0 0
5.413431 -17.88275 3.55 255 0 0
5.351636 -18.010633 3.535 255 0 0
5.363424 -17.989704 3.418 255 0 0
5.427521 -17.852892 3.552 255 0 0
5.418879 -17.872057 3.524 255 0 0
5.35251 -18.013323 3.403 255 0 0
5.364802 -17.984795 3.509 255 0 0
5.412035 -17.889894 3.445 255 0 0
5.36613 -17.986593 3.358 255 0 0
5.3948 -17.921516 3.557 255 0 0
5.384307 -17.948717 3.37 255 0 0
5.354781 -18.008869 3.398 255 0 0
5.381618 -17.949593 3.556 255 0 0
5.401139 -17.911278 3.459 255 0 0
5.383416 -17.948263 3.483 255 0 0
5.3607 -17.99505 3.469 255 0 0
5.412051 -17.887657 3.463 255 0 0
5.418425 -17.872948 3.562 255 0 0
5.37294 -17.973228 3.332 255 0 0
5.36936 -17.973648 3.55 255 0 0
5.373882 -17.966974 3.494 255 0 0
5.414321 -17.883204 3.474 255 0 0
5.371578 -17.975901 3.359 255 0 0
5.401155 -17.909042 3.558 255 0 0
5.366164 -17.982122 3.497 255 0 0
5.399777 -17.913952 3.45 255 0 0
5.356176 -18.001724 3.529 255 0 0
5.35162 -18.012869 3.531 255 0 0
5.358866 -18.000849 3.382 255 0 0
5.432969 -17.842199 3.561 255 0 0
5.354344 -18.007524 3.451 255 0 0
5.359321 -17.999958 3.424 255 0 0
5.374336 -17.966084 3.5 255 0 0
5.343011 -18.027563 2.937 255 0 0
5.395691 -17.92197 2.924 255 0 0
5.336218 -18.038692 2.757 255 0 0
5.294837 -18.128717 3.165 255 0 0
5.324415 -18.061857 2.794 255 0 0
5.361624 -17.991032 2.99 255 0 0
5.303009 -18.11268 3.155 255 0 0
5.3589 -17.996378 2.91 255 0 0
5.352562 -18.006617 2.822 255 0 0
5.372503 -17.971884 3.067 255 0 0
5.278074 -18.157213 2.946 255 0 0
5.309819 -18.099314 3.166 255 0 0
5.350712 -18.014652 3.043 255 0 0
5.333477 -18.046274 2.934 255 0 0
5.347551 -18.018652 2.915 255 0 0
5.381634 -17.947355 2.777 255 0 0
5.395708 -17.919735 2.759 255 0 0
5.341598 -18.036943 3.199 255 0 0
5.369308 -17.980356 3.204 255 0 0
5.37437 -17.961611 2.779 255 0 0
5.441141 -17.826162 2.645 255 0 0
5.357068 -18.002178 3.075 255 0 0
5.387031 -17.943371 3.071 255 0 0
5.241736 -18.23073 2.948 255 0 0
5.284866 -18.146084 3.011 255 0 0
5.354781 -18.008869 3.142 255 0 0
5.285757 -18.146538 3.126 255 0 0
5.357539 -17.99905 2.914 255 0 0
5.244461 -18.225384 2.973 255 0 0
5.353436 -18.009306 3.078 255 0 0
5.347988 -18.019999 3.021 255 0 0
5.341598 -18.036943 3.233 255 0 0
5.361659 -17.986559 2.749 255 0 0
5.401627 -17.905914 2.69 255 0 0
5.412539 -17.882296 2.629 255 0 0
5.415229 -17.88142 2.797 255 0 0
5.352999 -18.007961 2.905 255 0 0
5.322093 -18.073021 3.108 255 0 0
5.428412 -17.853346 2.701 255 0 0
5.370739 -17.968739 2.747 255 0 0
5.282159 -18.149193 2.862 255 0 0
5.339345 -18.039164 3.116 255 0 0
5.251725 -18.211126 2.93 255 0 0
5.285337 -18.142956 2.879 255 0 0
5.284883 -18.143848 2.965 255 0 0
5.28443 -18.144739 2.937 255 0 0
5.357522 -18.001287 3.01 255 0 0
5.396127 -17.923315 2.983 255 0 0
5.330736 -18.053856 3.002 255 0 0
5.320731 -18.075693 3.131 255 0 0
5.348004 -18.017761 2.902 255 0 0
5.329811 -18.057875 3.107 255 0 0
5.302572 -18.111334 3.077 255 0 0
5.382491 -17.952282 3.057 255 0 0
5.234019 -18.245876 2.975 255 0 0
5.372538 -17.967411 2.837 255 0 0
5.384342 -17.944244 2.819 255 0 0
5.381164 -17.950481 2.857 255 0 0
5.247168 -18.222273 3.033 255 0 0
5.367526 -17.979448 2.944 255 0 0
5.374808 -17.962955 2.86 255 0 0
5.328029 -18.056967 2.883 255 0 0
5.436601 -17.835072 2.585 255 0 0
5.325305 -18.062311 2.9 255 0 0
5.260805 -18.193306 2.982 255 0 0
5.342994 -18.029799 2.974 255 0 0
5.292601 -18.1287 2.929 255 0 0
5.423855 -17.864492 2.786 255 0 0
5.343448 -18.028908 3.012 255 0 0
5.305313 -18.103752 2.975 255 0 0
5.347534 -18.020889 3.023 255 0 0
5.39068 -17.934008 2.984 255 0 0
5.284395 -18.149212 3.156 255 0 0
5.333477 -18.046274 2.919 255 0 0
5.376152 -17.962519 2.923 255 0 0
5.229916 -18.256132 3.006 255 0 0
5.364366 -17.98345 2.885 255 0 0
5.313955 -18.084587 2.806 255 0 0
5.258972 -18.199108 3.076 255 0 0
5.247185 -18.220037 2.97 255 0 0
5.300739 -18.117134 3.155 255 0 0
5.396616 -17.917952 2.797 255 0 0
5.286699 -18.140284 2.966 255 0 0
5.357504 -18.003523 3.21 255 0 0
5.261713 -18.191525 2.979 255 0 0
5.342506 -18.035162 3.228 255 0 0
5.382996 -17.944683 2.806 255 0 0
5.375261 -17.962067 2.864 255 0 0
5.219475 -18.276625 3.041 255 0 0
5.382037 -17.953173 3.108 255 0 0
5.340236 -18.039618 3.194 255 0 0
5.238089 -18.240093 3.043 255 0 0
5.222652 -18.270388 3.004 255 0 0
5.261713 -18.191525 3.003 255 0 0
5.399357 -17.91037 2.633 255 0 0
5.328483 -18.056074 2.852 255 0 0
5.313939 -18.086824 2.922 255 0 0
5.309819 -18.099314 3.207 255 0 0
5.363474 -17.982996 2.733 255 0 0
5.357539 -17.99905 2.978 255 0 0
5.381129 -17.954954 3.034 255 0 0
5.30348 -18.109552 3.023 255 0 0
5.287153 -18.139393 2.92 255 0 0
5.265327 -18.186634 3.144 255 0 0
5.384778 -17.945591 2.955 255 0 0
5.386158 -17.940681 2.918 255 0 0
5.236726 -18.242765 3.084 255 0 0
5.262184 -18.188398 2.92 255 0 0
5.254886 -18.207127 3.093 255 0 0
5.342052 -18.036053 3.243 255 0 0
5.231732 -18.252567 3.046 255 0 0
5.316645 -18.083714 3.119 255 0 0
5.379784 -17.955391 2.916 255 0 0
5.277602 -18.160339 3.027 255 0 0
5.396599 -17.920189 2.908 255 0 0
5.443411 -17.821707 2.642 255 0 0
5.321185 -18.074802 3.147 255 0 0
5.359843 -17.990124 2.73 255 0 0
5.329391 -18.054293 2.892 255 0 0
5.373866 -17.969212 3.042 255 0 0
5.224015 -18.267714 3.058 255 0 0
5.261258 -18.192415 3.002 255 0 0
5.301698 -18.108644 2.839 255 0 0
5.303968 -18.104189 2.888 255 0 0
5.275786 -18.163904 3.052 255 0 0
5.282579 -18.152775 3.133 255 0 0
5.333931 -18.045383 2.916 255 0 0
5.302572 -18.111334 3.033 255 0 0
5.296687 -18.120682 2.892 255 0 0
5.257156 -18.202671 3.074 255 0 0
5.35705 -18.004414 3.118 255 0 0
5.37205 -17.972775 3.043 255 0 0
5.320731 -18.075693 3.106 255 0 0
5.264908 -18.183052 2.946 255 0 0
5.38799 -17.934881 2.704 255 0 0
5.42932 -17.851564 2.721 255 0 0
5.285791 -18.142067 2.974 255 0 0
5.390226 -17.934898 3.028 255 0 0
5.395254 -17.920626 2.778 255 0 0
5.285757 -18.146538 3.116 255 0 0
5.415701 -17.878294 2.711 255 0 0
5.310273 -18.098423 3.205 255 0 0
5.42478 -17.860474 2.762 255 0 0
5.439325 -17.829725 2.646 255 0 0
5.339379 -18.034691 2.922 255 0 0
5.293509 -18.126919 2.969 255 0 0
5.355722 -18.002615 2.905 255 0 0
5.308474 -18.099751 3.034 255 0 0
5.369762 -17.979465 3.121 255 0 0
5.366182 -17.979885 2.825 255 0 0
5.447968 -17.81056 2.541 255 0 0
5.271683 -18.17416 3.159 255 0 0
5.37706 -17.960737 2.928 255 0 0
5.323943 -18.064985 2.913 255 0 0
5.254448 -18.205782 2.935 255 0 0
5.299411 -18.115335 2.937 255 0 0
5.290348 -18.13092 2.872 255 0 0
5.438417 -17.831507 2.621 255 0 0
5.38345 -17.94379 2.789 255 0 0
5.366148 -17.984358 3.044 255 0 0
5.336621 -18.044508 3.178 255 0 0
5.3076 -18.097061 2.835 255 0 0
5.328937 -18.055183 2.829 255 0 0
5.37706 -17.960737 2.961 255 0 0
5.406149 -17.89924 2.817 255 0 0
5.428412 -17.853346 2.721 255 0 0
5.380692 -17.953609 3.015 255 0 0
5.291659 -18.134954 3.156 255 0 0
5.341195 -18.031126 2.957 255 0 0
5.258972 -18.199108 3.065 255 0 0
5.424309 -17.863602 2.788 255 0 0
5.437055 -17.834181 2.624 255 0 0
5.288481 -18.141191 3.16 255 0 0
5.210849 -18.293554 3.028 255 0 0
5.268522 -18.17816 2.993 255 0 0
5.266235 -18.184851 3.15 255 0 0
5.265344 -18.184397 2.95 255 0 0
5.295745 -18.126936 3.191 255 0 0
5.40161 -17.908152 2.803 255 0 0
5.309835 -18.097078 3.098 255 0 0
5.369796 -17.974993 3.005 255 0 0
5.311685 -18.089043 2.818 255 0 0
5.304371 -18.110006 3.149 255 0 0
5.243553 -18.227165 3.019 255 0 0
5.449329 -17.807886 2.573 255 0 0
5.245823 -18.22271 2.974 255 0 0
5.293929 -18.130501 3.129 255 0 0
5.384795 -17.943356 2.893 255 0 0
5.329828 -18.055639 2.952 255 0 0
5.388461 -17.931755 2.676 255 0 0
5.248093 -18.218256 2.946 255 0 0
5.394329 -17.924644 2.928 255 0 0
5.372066 -17.970539 2.995 255 0 0
5.26442 -18.188416 3.071 255 0 0
5.273079 -18.167015 2.908 255 0 0
5.317554 -18.08193 3.059 255 0 0
5.242645 -18.228949 3.0 255 0 0
5.394783 -17.923752 2.874 255 0 0
5.392967 -17.927317 2.873 255 0 0
5.377498 -17.962082 3.056 255 0 0
5.368418 -17.979902 3.037 255 0 0
5.273953 -18.169704 3.14 255 0 0
5.430228 -17.849783 2.693 255 0 0
5.426125 -17.860037 2.77 255 0 0
5.322093 -18.073021 3.12 255 0 0
5.40161 -17.908152 2.762 255 0 0
5.281705 -18.150085 2.925 255 0 0
5.3607 -17.99505 3.081 255 0 0
5.386174 -17.938446 2.72 255 0 0
5.418879 -17.872057 2.706 255 0 0
5.34797 -18.022234 3.114 255 0 0
5.396162 -17.918842 2.748 255 0 0
5.362952 -17.99283 3.154 255 0 0
5.270339 -18.174595 2.994 255 0 0
5.309365 -18.100206 3.175 255 0 0
5.304421 -18.103298 2.884 255 0 0
5.379801 -17.953156 2.828 255 0 0
5.361624 -17.991032 2.905 255 0 0
5.378893 -17.954937 2.877 255 0 0
5.298503 -18.117119 2.923 255 0 0
5.359354 -17.995487 2.988 255 0 0
5.263528 -18.187962 3.051 255 0 0
5.303514 -18.10508 2.881 255 0 0
5.36159 -17.995504 3.213 255 0 0
5.419787 -17.870275 2.69 255 0 0
5.367492 -17.983921 3.198 255 0 0
5.257156 -18.202671 3.093 255 0 0
5.303497 -18.107317 2.986 255 0 0
5.222198 -18.271278 3.043 255 0 0
5.313905 -18.091295 3.143 255 0 0
5.287607 -18.138502 2.884 255 0 0
5.42204 -17.868055 2.776 255 0 0
5.443865 -17.820816 2.593 255 0 0
5.430683 -17.84889 2.743 255 0 0
5.250362 -18.2138 2.944 255 0 0
5.311685 -18.089043 2.844 255 0 0
5.446589 -17.81547 2.614 255 0 0
5.293037 -18.130045 3.084 255 0 0
5.378422 -17.958065 2.941 255 0 0
5.34797 -18.022234 3.111 255 0 0
5.271264 -18.170578 2.894 255 0 0
5.444319 -17.819925 2.582 255 0 0
5.365273 -17.981668 2.847 255 0 0
5.363441 -17.987467 2.998 255 0 0
5.265799 -18.183506 2.955 255 0 0
5.385737 -17.937099 2.665 255 0 0
5.357992 -17.998159 2.932 255 0 0
5.346206 -18.019091 2.81 255 0 0
5.362096 -17.987906 2.869 255 0 0
5.326197 -18.062765 3.029 255 0 0
5.383399 -17.9505 3.058 255 0 0
5.332989 -18.051638 3.13 255 0 0
5.369813 -17.972757 2.79 255 0 0
5.325708 -18.068129 3.209 255 0 0
5.435239 -17.837744 2.63 255 0 0
5.208579 -18.29801 3.031 255 0 0
5.411597 -17.88855 2.781 255 0 0
5.313014 -18.090841 3.086 255 0 0
5.373412 -17.9701 3.09 255 0 0
5.377094 -17.956264 2.733 255 0 0
5.38841 -17.938461 2.96 255 0 0
5.277165 -18.158995 2.902 255 0 0
5.298923 -18.120699 3.182 255 0 0
5.316679 -18.079241 2.82 255 0 0
5.338437 -18.040945 3.14 255 0 0
5.339362 -18.036928 3.005 255 0 0
5.310761 -18.093061 3.007 255 0 0
5.351603 -18.015106 3.132 255 0 0
5.352544 -18.008852 2.953 255 0 0
5.259896 -18.195089 3.001 255 0 0
5.363877 -17.988813 3.018 255 0 0
5.403863 -17.905933 2.896 255 0 0
5.258972 -18.199108 3.061 255 0 0
5.401627 -17.905914 2.651 255 0 0
5.357958 -18.002632 3.176 255 0 0
5.358412 -18.001741 3.161 255 0 0
5.436601 -17.835072 2.671 255 0 0
5.307566 -18.101534 3.058 255 0 0
5.224939 -18.263697 2.986 255 0 0
5.233111 -18.247658 2.988 255 0 0
5.278056 -18.159449 3.046 255 0 0
5.422493 -17.867165 2.769 255 0 0
5.363928 -17.982105 2.747 255 0 0
5.397087 -17.914825 2.716 255 0 0
5.25761 -18.20178 3.13 255 0 0
5.339833 -18.0338 2.872 255 0 0
5.338908 -18.037817 3.043 255 0 0
5.362533 -17.98925 2.885 255 0 0
5.309365 -18.100206 3.164 255 0 0
5.238089 -18.240093 3.093 255 0 0
5.237651 -18.238749 2.979 255 0 0
5.431591 -17.847109 2.733 255 0 0
5.286699 -18.140284 2.926 255 0 0
5.392513 -17.928207 2.893 255 0 0
5.310273 -18.098423 3.147 255 0 0
5.338437 -18.040945 3.098 255 0 0
5.349838 -18.011961 2.754 255 0 0
5.34481 -18.026236 3.062 255 0 0
5.294871 -18.124245 2.892 255 0 0
5.240358 -18.23564 3.032 255 0 0
5.22356 -18.268606 2.995 255 0 0
5.364836 -17.980322 2.733 255 0 0
5.253978 -18.208908 3.053 255 0 0
5.333023 -18.047165 2.861 255 0 0
5.295762 -18.124699 3.099 255 0 0
5.371142 -17.974556 3.094 255 0 0
5.289877 -18.134047 2.94 255 0 0
5.370687 -17.975449 3.096 255 0 0
5.380709 -17.951374 2.889 255 0 0
5.325323 -18.060076 2.807 255 0 0
5.36482 -17.982559 2.854 255 0 0
5.412051 -17.887657 2.789 255 0 0
5.37432 -17.968319 3.06 255 0 0
5.435222 -17.839981 2.676 255 0 0
5.407075 -17.895224 2.629 255 0 0
5.340724 -18.034254 2.979 255 0 0
5.398415 -17.916624 2.915 255 0 0
5.367544 -17.977213 2.787 255 0 0
5.327575 -18.057858 2.917 255 0 0
5.310743 -18.095297 3.124 255 0 0
5.389301 -17.938915 3.044 255 0 0
5.369813 -17.972757 2.826 255 0 0
5.242191 -18.229837 2.968 255 0 0
5.330736 -18.053856 3.0 255 0 0
5.216751 -18.281971 2.996 255 0 0
5.255357 -18.203999 3.039 255 0 0
5.301681 -18.11088 2.971 255 0 0
5.229933 -18.253895 2.963 255 0 0
5.295325 -18.123356 2.996 255 0 0
5.431136 -17.848 2.717 255 0 0
5.293037 -18.130045 3.007 255 0 0
5.337563 -18.038256 2.881 255 0 0
5.426613 -17.854673 2.642 255 0 0
5.361136 -17.996395 3.167 255 0 0
5.348476 -18.014635 2.755 255 0 0
5.300336 -18.111317 2.872 255 0 0
5.418425 -17.872948 2.721 255 0 0
5.426613 -17.854673 2.642 255 0 0
5.338017 -18.037363 2.885 255 0 0
5.352544 -18.008852 2.966 255 0 0
5.354832 -18.002161 2.813 255 0 0
5.297561 -18.123371 3.169 255 0 0
5.377514 -17.959846 3.016 255 0 0
5.312611 -18.085024 2.803 255 0 0
5.385215 -17.946936 3.098 255 0 0
5.387956 -17.939354 2.933 255 0 0
5.221745 -18.272169 3.037 255 0 0
5.38979 -17.933554 2.921 255 0 0
5.333931 -18.045383 2.87 255 0 0
5.370284 -17.969631 2.704 255 0 0
5.374353 -17.963848 2.814 255 0 0
5.398886 -17.913498 2.833 255 0 0
5.349821 -18.014198 2.965 255 0 0
5.350275 -18.013308 2.947 255 0 0
5.318915 -18.079258 3.058 255 0 0
5.313031 -18.088606 3.008 255 0 0
5.309399 -18.095734 2.971 255 0 0
5.368906 -17.974541 2.874 255 0 0
5.350729 -18.012415 2.974 255 0 0
5.26716 -18.180832 3.003 255 0 0
5.377514 -17.959846 2.978 255 0 0
5.298957 -18.116226 2.931 255 0 0
5.333897 -18.049854 3.096 255 0 0
5.37479 -17.965193 2.962 255 0 0
5.436131 -17.838198 2.692 255 0 0
5.312106 -18.092623 3.082 255 0 0
5.34069 -18.038725 3.223 255 0 0
5.265782 -18.185741 3.062 255 0 0
5.198137 -18.318502 3.038 255 0 0
5.330317 -18.050276 2.765 255 0 0
5.351603 -18.015106 3.18 255 0 0
5.434331 -17.839527 2.66 255 0 0
5.340252 -18.03738 3.079 255 0 0
5.288027 -18.142082 3.14 255 0 0
5.242191 -18.229837 2.983 255 0 0
5.346172 -18.023561 3.006 255 0 0
5.396616 -17.917952 2.818 255 0 0
5.355286 -18.00127 2.866 255 0 0
5.370234 -17.976339 3.039 255 0 0
5.332098 -18.051184 2.954 255 0 0
5.345264 -18.025343 3.013 255 0 0
5.347534 -18.020889 3.079 255 0 0
5.318041 -18.076569 2.906 255 0 0
5.400265 -17.908588 2.718 255 0 0
5.304405 -18.105536 2.964 255 0 0
5.34935 -18.017324 3.084 255 0 0
5.367544 -17.977213 2.799 255 0 0
5.237651 -18.238749 2.993 255 0 0
5.349333 -18.01956 3.099 255 0 0
5.291239 -18.131374 2.945 255 0 0
5.371142 -17.974556 3.109 255 0 0
5.305749 -18.105097 3.071 255 0 0
5.321639 -18.073912 3.15 255 0 0
5.345718 -18.024454 3.061 255 0 0
5.352091 -18.009743 2.928 255 0 0
5.241283 -18.231621 2.99 255 0 0
5.213119 -18.289099 3.054 255 0 0
5.425705 -17.856455 2.58 255 0 0
5.263074 -18.188852 2.956 255 0 0
5.249438 -18.217819 3.073 255 0 0
5.353452 -18.007071 2.966 255 0 0
5.313451 -18.092186 3.209 255 0 0
5.350258 -18.015543 3.039 255 0 0
5.387536 -17.935772 2.756 255 0 0
5.396633 -17.915716 2.676 255 0 0
5.246731 -18.220928 3.026 255 0 0
5.332081 -18.053419 3.12 255 0 0
5.320311 -18.072113 2.815 255 0 0
5.369762 -17.979465 3.124 255 0 0
5.407546 -17.892096 2.617 255 0 0
5.382962 -17.949154 2.946 255 0 0
5.256736 -18.199091 2.909 255 0 0
5.205401 -18.304247 3.01 255 0 0
5.295325 -18.123356 2.911 255 0 0
5.391588 -17.932224 2.961 255 0 0
5.23264 -18.250786 3.005 255 0 0
5.342574 -18.026218 2.747 255 0 0
5.374808 -17.962955 2.869 255 0 0
5.349367 -18.015089 2.93 255 0 0
5.356176 -18.001724 2.89 255 0 0
5.389352 -17.932209 2.802 255 0 0
5.362498 -17.993721 3.205 255 0 0
5.376169 -17.960283 2.825 255 0 0
5.325305 -18.062311 2.862 255 0 0
5.448404 -17.811905 2.593 255 0 0
5.290331 -18.133156 2.938 255 0 0
5.367544 -17.977213 2.844 255 0 0
5.318007 -18.081039 3.147 255 0 0
5.34523 -18.029816 3.249 255 0 0
5.366182 -17.979885 2.83 255 0 0
5.377951 -17.961191 3.09 255 0 0
5.235381 -18.243204 2.991 255 0 0
5.406621 -17.896114 2.624 255 0 0
5.355268 -18.003506 2.943 255 0 0
5.373446 -17.96563 2.89 255 0 0
5.37933 -17.956282 2.957 255 0 0
5.352528 -18.011087 3.067 255 0 0
5.378893 -17.954937 2.828 255 0 0
5.251725 -18.211126 3.036 255 0 0
5.420695 -17.868492 2.675 255 0 0
5.207217 -18.300682 3.028 255 0 0
5.387536 -17.935772 2.762 255 0 0
5.224468 -18.266825 3.021 255 0 0
5.326633 -18.064112 3.076 255 0 0
5.300336 -18.111317 2.883 255 0 0
5.316663 -18.081476 2.957 255 0 0
5.337563 -18.038256 2.867 255 0 0
5.253978 -18.208908 3.092 255 0 0
5.297124 -18.122026 3.028 255 0 0
5.423419 -17.863148 2.715 255 0 0
5.265344 -18.184397 2.952 255 0 0
5.405241 -17.901024 2.741 255 0 0
5.399323 -17.914843 2.872 255 0 0
5.278074 -18.157213 2.876 255 0 0
5.321639 -18.073912 3.096 255 0 0
5.279872 -18.155884 3.05 255 0 0
5.289423 -18.134937 2.955 255 0 0
5.431136 -17.848 2.682 255 0 0
5.29398 -18.123791 2.841 255 0 0
5.290785 -18.132265 2.881 255 0 0
5.321185 -18.074802 3.15 255 0 0
5.365694 -17.985249 3.11 255 0 0
5.397524 -17.91617 2.81 255 0 0
5.326179 -18.065002 3.063 255 0 0
5.356142 -18.006195 3.136 255 0 0
5.417971 -17.873838 2.706 255 0 0
5.379784 -17.955391 2.923 255 0 0
5.359321 -17.999958 3.159 255 0 0
5.283033 -18.151884 3.133 255 0 0
5.309819 -18.099314 3.183 255 0 0
5.33985 -18.031565 2.824 255 0 0
5.319823 -18.077477 3.144 255 0 0
5.378002 -17.954483 2.689 255 0 0
5.421131 -17.869839 2.796 255 0 0
5.242645 -18.228949 3.021 255 0 0
5.283504 -18.148756 3.0 255 0 0
5.378456 -17.953592 2.753 255 0 0
5.362498 -17.993721 3.13 255 0 0
5.25761 -18.20178 3.137 255 0 0
5.376624 -17.959393 2.805 255 0 0
5.412051 -17.887657 2.771 255 0 0
5.272626 -18.167904 2.904 255 0 0
5.364768 -17.989267 3.174 255 0 0
5.412069 -17.885422 2.7 255 0 0
5.346626 -18.022671 2.996 255 0 0
5.378859 -17.95941 3.086 255 0 0
5.390226 -17.934898 3.04 255 0 0
5.356596 -18.005304 3.183 255 0 0
5.367073 -17.980339 2.989 255 0 0
5.373848 -17.971447 3.127 255 0 0
5.229025 -18.255678 2.971 255 0 0
5.35801 -17.995924 2.84 255 0 0
5.313485 -18.087715 2.966 255 0 0
5.306641 -18.105551 3.192 255 0 0
5.364786 -17.98703 3.091 255 0 0
5.34797 -18.022234 3.161 255 0 0
5.206309 -18.302464 3.026 255 0 0
5.263546 -18.185726 2.921 255 0 0
5.363912 -17.984341 2.785 255 0 0
5.388864 -17.937571 3.032 255 0 0
5.299393 -18.117573 3.035 255 0 0
5.297595 -18.1189 2.936 255 0 0
5.402518 -17.906368 2.728 255 0 0
5.436147 -17.835962 2.604 255 0 0
5.361642 -17.988796 2.789 255 0 0
5.425235 -17.859583 2.66 255 0 0
5.280797 -18.151867 2.933 255 0 0
5.243099 -18.228056 2.951 255 0 0
5.294837 -18.128717 3.19 255 0 0
5.426143 -17.857801 2.683 255 0 0
5.285337 -18.142956 2.878 255 0 0
5.424343 -17.859129 2.611 255 0 0
5.208125 -18.298899 3.035 255 0 0
5.339816 -18.036036 2.965 255 0 0
5.331207 -18.05073 2.896 255 0 0
5.437509 -17.83329 2.633 255 0 0
5.292147 -18.129593 2.9 255 0 0
5.379364 -17.951811 2.767 255 0 0
5.266706 -18.181725 3.03 255 0 0
5.265362 -18.182161 2.898 255 0 0
5.306237 -18.099735 2.899 255 0 0
5.381618 -17.949593 2.913 255 0 0
5.350712 -18.014652 3.064 255 0 0
5.32211 -18.070786 3.011 255 0 0
5.306657 -18.103315 3.027 255 0 0
5.269448 -18.174141 2.926 255 0 0
5.318967 -18.07255 2.808 255 0 0
5.354832 -18.002161 2.811 255 0 0
5.36978 -17.97723 3.096 255 0 0
5.292584 -18.130936 3.03 255 0 0
5.372486 -17.974119 3.17 255 0 0
5.298049 -18.118008 2.91 255 0 0
5.349804 -18.016434 2.998 255 0 0
5.241266 -18.233856 3.061 255 0 0
5.37432 -17.968319 3.064 255 0 0
5.326667 -18.059639 2.852 255 0 0
5.410707 -17.888096 2.637 255 0 0
5.394329 -17.924644 2.845 255 0 0
5.204493 -18.306028 3.02 255 0 0
5.27989 -18.153648 2.882 255 0 0
5.348442 -18.019106 2.992 255 0 0
5.431591 -17.847109 2.733 255 0 0
5.430683 -17.84889 2.707 255 0 0
5.394817 -17.919281 2.639 255 0 0
5.415701 -17.878294 2.64 255 0 0
5.421149 -17.867601 2.693 255 0 0
5.368872 -17.979012 3.019 255 0 0
5.314375 -18.088169 3.031 255 0 0
5.203131 -18.308701 3.058 255 0 0
5.414775 -17.882313 2.759 255 0 0
5.346155 -18.025797 3.095 255 0 0
5.302589 -18.109098 2.959 255 0 0
5.331173 -18.055201 3.106 255 0 0
5.263074 -18.188852 2.977 255 0 0
5.321219 -18.070332 2.89 255 0 0
5.340287 -18.032909 2.94 255 0 0
5.439779 -17.828835 2.593 255 0 0
5.323439 -18.072584 3.168 255 0 0
5.373882 -17.966974 2.927 255 0 0
5.421149 -17.867601 2.69 255 0 0
5.296199 -18.126045 3.144 255 0 0
5.261713 -18.191525 2.958 255 0 0
5.422965 -17.864038 2.731 255 0 0
5.363424 -17.989704 3.062 255 0 0
5.408437 -17.892551 2.663 255 0 0
5.357084 -17.999941 2.943 255 0 0
5.274896 -18.16345 2.942 255 0 0
5.33388 -18.052092 3.232 255 0 0
5.194505 -18.32563 3.032 255 0 0
5.367055 -17.982576 3.052 255 0 0
5.254432 -18.208017 3.046 255 0 0
5.407511 -17.896568 2.76 255 0 0
5.331191 -18.052965 3.032 255 0 0
5.414793 -17.880075 2.719 255 0 0
5.315301 -18.08415 2.952 255 0 0
5.426159 -17.855564 2.643 255 0 0
5.35436 -18.005287 2.98 255 0 0
5.363406 -17.99194 3.143 255 0 0
5.423401 -17.865383 2.798 255 0 0
5.297158 -18.117554 2.882 255 0 0
5.261713 -18.191525 2.942 255 0 0
5.287119 -18.143864 3.097 255 0 0
5.384358 -17.942009 2.73 255 0 0
5.290768 -18.134501 3.05 255 0 0
5.336638 -18.042273 2.991 255 0 0
5.209941 -18.295336 3.036 255 0 0
5.288969 -18.13583 2.98 255 0 0
5.288969 -18.13583 2.959 255 0 0
5.281705 -18.150085 2.877 255 0 0
5.322984 -18.073475 3.173 255 0 0
5.392059 -17.929098 2.852 255 0 0
5.358884 -17.998613 3.004 255 0 0
5.280343 -18.152758 2.958 255 0 0
5.401593 -17.910387 2.848 255 0 0
5.243536 -18.229403 3.083 255 0 0
5.282125 -18.153666 3.169 255 0 0
5.328012 -18.059202 2.954 255 0 0
5.258534 -18.197762 3.03 255 0 0
5.382946 -17.951389 3.096 255 0 0
5.36709 -17.978104 2.801 255 0 0
5.297107 -18.124264 3.134 255 0 0
5.307095 -18.10466 3.204 255 0 0
5.312559 -18.091732 3.028 255 0 0
5.249438 -18.217819 3.112 255 0 0
5.195867 -18.322958 3.031 255 0 0
5.383887 -17.945137 2.851 255 0 0
5.34523 -18.029816 3.23 255 0 0
5.39068 -17.934008 3.028 255 0 0
5.321673 -18.069441 2.848 255 0 0
5.303497 -18.107317 2.99 255 0 0
5.392496 -17.930443 3.007 255 0 0
5.313467 -18.089951 3.104 255 0 0
5.24853 -18.219601 3.048 255 0 0
5.252179 -18.210236 3.015 255 0 0
5.328046 -18.054731 2.778 255 0 0
5.258988 -18.196871 2.973 255 0 0
5.366584 -17.985703 3.191 255 0 0
5.399323 -17.914843 2.843 255 0 0
5.405679 -17.902369 2.877 255 0 0
5.237651 -18.238749 3.009 255 0 0
5.233094 -18.249895 3.04 255 0 0
5.246731 -18.220928 2.973 255 0 0
5.364314 -17.990158 3.209 255 0 0
5.320261 -18.078821 3.174 255 0 0
5.250817 -18.21291 3.004 255 0 0
5.355706 -18.00485 3.072 255 0 0
5.239013 -18.236074 2.994 255 0 0
5.343448 -18.028908 3.046 255 0 0
5.202677 -18.309591 3.026 255 0 0
5.425251 -17.857347 2.581 255 0 0
5.350241 -18.017778 3.087 255 0 0
5.330265 -18.056982 3.156 255 0 0
5.389369 -17.929974 2.667 255 0 0
5.320261 -18.078821 3.16 255 0 0
5.413431 -17.88275 2.686 255 0 0
5.27535 -18.16256 2.919 255 0 0
5.364332 -17.987923 3.027 255 0 0
5.366652 -17.976759 2.704 255 0 0
5.384324 -17.946482 3.011 255 0 0
5.327995 -18.061438 3.107 255 0 0
5.417517 -17.874729 2.683 255 0 0
5.372503 -17.971884 3.097 255 0 0
5.279435 -18.154541 2.922 255 0 0
5.328954 -18.052948 2.822 255 0 0
5.260805 -18.193306 3.021 255 0 0
5.446605 -17.813234 2.544 255 0 0
5.312577 -18.089497 2.969 255 0 0
5.329863 -18.051167 2.817 255 0 0
5.253524 -18.209799 3.05 255 0 0
5.311232 -18.089933 2.849 255 0 0
5.349333 -18.01956 3.168 255 0 0
5.348022 -18.015526 2.75 255 0 0
5.230841 -18.252113 2.993 255 0 0
5.407075 -17.895224 2.703 255 0 0
5.205855 -18.303354 3.033 255 0 0
5.298469 -18.12159 3.14 255 0 0
5.379801 -17.953156 2.813 255 0 0
5.348442 -18.019106 3.049 255 0 0
5.301209 -18.114008 3.067 255 0 0
5.273499 -18.170595 3.126 255 0 0
5.316191 -18.084604 3.065 255 0 0
5.369813 -17.972757 2.801 255 0 0
5.359826 -17.992359 2.835 255 0 0
5.256265 -18.202217 2.99 255 0 0
5.354848 -17.999926 2.726 255 0 0
5.306692 -18.098843 2.819 255 0 0
5.339396 -18.032455 2.819 255 0 0
5.360262 -17.993704 2.957 255 0 0
5.290314 -18.135391 3.047 255 0 0
5.314863 -18.082806 2.822 255 0 0
5.360716 -17.992813 2.906 255 0 0
5.298015 -18.12248 3.196 255 0 0
5.353873 -18.010651 3.129 255 0 0
5.35801 -17.995924 2.837 255 0 0
5.332081 -18.053419 3.072 255 0 0
5.394783 -17.923752 2.876 255 0 0
5.234019 -18.245876 2.997 255 0 0
5.382525 -17.947809 2.817 255 0 0
5.337563 -18.038256 2.872 255 0 0
5.300319 -18.113554 2.904 255 0 0
5.34708 -18.02178 3.068 255 0 0
5.272608 -18.170141 3.033 255 0 0
5.343482 -18.024435 2.813 255 0 0
5.362566 -17.984777 2.761 255 0 0
5.308037 -18.098406 3.016 255 0 0
5.355722 -18.002615 2.948 255 0 0
5.352579 -18.004379 2.749 255 0 0
5.362533 -17.98925 2.947 255 0 0
5.396179 -17.916607 2.698 255 0 0
5.354798 -18.006632 3.014 255 0 0
5.313501 -18.085478 2.9 255 0 0
5.276678 -18.164358 3.108 255 0 0
5.298032 -18.120245 3.057 255 0 0
5.227192 -18.261477 3.071 255 0 0
5.35251 -18.013323 3.15 255 0 0
5.26442 -18.188416 3.068 255 0 0
5.259914 -18.192852 2.92 255 0 0
5.357976 -18.000397 3.019 255 0 0
5.2508 -18.215145 3.046 255 0 0
5.382071 -17.9487 2.913 255 0 0
5.30306 -18.105972 2.891 255 0 0
5.330719 -18.056091 3.105 255 0 0
5.310743 -18.095297 3.096 255 0 0
5.416609 -17.876513 2.642 255 0 0
5.290785 -18.132265 2.974 255 0 0
5.341666 -18.028 2.75 255 0 0
5.388393 -17.940699 3.068 255 0 0
5.359774 -17.999067 3.155 255 0 0
5.330719 -18.056091 3.116 255 0 0
5.273987 -18.165232 2.937 255 0 0
5.349786 -18.018669 3.198 255 0 0
5.307583 -18.099298 3.001 255 0 0
5.371595 -17.973665 3.098 255 0 0
5.297141 -18.119791 2.978 255 0 0
5.342103 -18.029345 2.924 255 0 0
5.373412 -17.9701 3.086 255 0 0
5.371595 -17.973665 3.092 255 0 0
5.312577 -18.089497 3.017 255 0 0
5.371124 -17.976793 3.175 255 0 0
5.257156 -18.202671 3.068 255 0 0
5.319807 -18.079712 3.189 255 0 0
5.309415 -18.093498 2.883 255 0 0
5.445243 -17.815907 2.548 255 0 0
5.224468 -18.266825 3.058 255 0 0
5.392025 -17.933571 3.046 255 0 0
5.367964 -17.980793 3.01 255 0 0
5.352074 -18.01198 2.99 255 0 0
5.269413 -18.178614 3.098 255 0 0
5.355286 -18.00127 2.809 255 0 0
5.225831 -18.264151 3.01 255 0 0
5.36255 -17.987015 2.839 255 0 0
5.427958 -17.854237 2.736 255 0 0
5.279435 -18.154541 2.917 255 0 0
5.373882 -17.966974 2.977 255 0 0
5.397961 -17.917515 2.878 255 0 0
5.442503 -17.823488 2.613 255 0 0
5.363928 -17.982105 2.738 255 0 0
5.355286 -18.00127 2.86 255 0 0
5.38118 -17.948246 2.696 255 0 0
5.332518 -18.054764 3.242 255 0 0
5.346609 -18.024906 3.13 255 0 0
5.268086 -18.176815 2.936 255 0 0
5.268506 -18.180397 3.15 255 0 0
5.349786 -18.018669 3.149 255 0 0
5.254432 -18.208017 3.067 255 0 0
5.256248 -18.204453 3.052 255 0 0
5.269884 -18.175488 3.041 255 0 0
5.288935 -18.140301 3.131 255 0 0
5.39295 -17.929552 2.989 255 0 0
5.33346 -18.04851 3.041 255 0 0
5.331645 -18.052074 3.021 255 0 0
5.347988 -18.019999 2.981 255 0 0
5.35574 -18.00038 2.823 255 0 0
5.269867 -18.177723 3.072 255 0 0
5.197229 -18.320284 3.029 255 0 0
5.382037 -17.953173 3.075 255 0 0
5.381618 -17.949593 2.856 255 0 0
5.398432 -17.914389 2.729 255 0 0
5.308961 -18.094389 2.853 255 0 0
5.2281 -18.259695 3.047 255 0 0
5.416625 -17.874275 2.631 255 0 0
5.257173 -18.200436 2.961 255 0 0
5.334788 -18.05031 3.213 255 0 0
5.321168 -18.07704 3.156 255 0 0
5.256282 -18.199982 2.926 255 0 0
5.391185 -17.926409 2.7 255 0 0
5.360734 -17.990578 2.876 255 0 0
5.277602 -18.160339 3.063 255 0 0
5.433423 -17.841309 2.613 255 0 0
5.316628 -18.085949 3.175 255 0 0
5.369326 -17.978121 3.113 255 0 0
5.311232 -18.089933 2.88 255 0 0
5.309415 -18.093498 2.83 255 0 0
5.424327 -17.861364 2.654 255 0 0
5.259442 -18.19598 2.94 255 0 0
5.355286 -18.00127 2.776 255 0 0
5.385215 -17.946936 3.052 255 0 0
5.439779 -17.828835 2.645 255 0 0
5.392059 -17.929098 2.825 255 0 0
5.435222 -17.839981 2.689 255 0 0
5.263528 -18.187962 3.052 255 0 0
5.301698 -18.108644 2.889 255 0 0
5.408419 -17.894787 2.815 255 0 0
5.396582 -17.922424 2.95 255 0 0
5.325288 -18.064548 2.947 255 0 0
5.224923 -18.265932 3.005 255 0 0
5.292601 -18.1287 2.924 255 0 0
5.379364 -17.951811 2.697 255 0 0
5.36028 -17.991468 2.815 255 0 0
5.333897 -18.049854 3.166 255 0 0
5.367073 -17.980339 2.93 255 0 0
5.303933 -18.108662 3.015 255 0 0
5.236743 -18.24053 2.995 255 0 0
5.390731 -17.927299 2.674 255 0 0
5.246731 -18.220928 2.972 255 0 0
5.221291 -18.273062 3.042 255 0 0
5.444789 -17.816797 2.553 255 0 0
5.235818 -18.244549 3.088 255 0 0
5.288935 -18.140301 3.131 255 0 0
5.255794 -18.205345 3.045 255 0 0
5.220383 -18.274843 3.086 255 0 0
5.356614 -18.003069 3.037 255 0 0
5.227192 -18.261477 3.063 255 0 0
5.292147 -18.129593 2.887 255 0 0
5.35663 -18.000834 2.923 255 0 0
5.446135 -17.81636 2.584 255 0 0
5.363474 -17.982996 2.735 255 0 0
5.372554 -17.965176 2.7 255 0 0
5.262166 -18.190634 3.05 255 0 0
5.322127 -18.068548 2.92 255 0 0
5.402518 -17.906368 2.766 255 0 0
5.374824 -17.96072 2.705 255 0 0
5.335747 -18.041819 2.917 255 0 0
5.396162 -17.918842 2.827 255 0 0
5.391588 -17.932224 2.934 255 0 0
5.256248 -18.204453 3.063 255 0 0
5.311197 -18.094406 3.056 255 0 0
5.377548 -17.955374 2.729 255 0 0
5.366164 -17.982122 2.908 255 0 0
5.441141 -17.826162 2.591 255 0 0
5.349804 -18.016434 3.001 255 0 0
5.285808 -18.13983 2.865 255 0 0
5.332586 -18.04582 2.801 255 0 0
5.387485 -17.94248 3.057 255 0 0
5.300756 -18.114899 3.063 255 0 0
5.319386 -18.076132 3.018 255 0 0
5.276258 -18.160778 2.906 255 0 0
5.328012 -18.059202 3.011 255 0 0
5.334334 -18.051199 3.205 255 0 0
5.344339 -18.029362 3.086 255 0 0
5.280343 -18.152758 2.865 255 0 0
5.334385 -18.044493 2.849 255 0 0
5.34935 -18.017324 3.048 255 0 0
5.37437 -17.961611 2.712 255 0 0
5.272592 -18.172377 3.116 255 0 0
5.333494 -18.044039 2.78 255 0 0
5.347534 -18.020889 3.078 255 0 0
5.408419 -17.894787 2.743 255 0 0
5.239467 -18.235184 2.965 255 0 0
5.379364 -17.951811 2.736 255 0 0
5.34212 -18.027109 2.775 255 0 0
5.278493 -18.160793 3.122 255 0 0
5.418425 -17.872948 2.734 255 0 0
5.288498 -18.138956 3.002 255 0 0
5.426159 -17.855564 2.638 255 0 0
5.291693 -18.130482 2.983 255 0 0
5.336638 -18.042273 2.98 255 0 0
5.368855 -17.981247 3.185 255 0 0
5.255357 -18.203999 2.993 255 0 0
5.313467 -18.089951 3.135 255 0 0
5.37706 -17.960737 2.95 255 0 0
5.336167 -18.045401 3.117 255 0 0
5.383853 -17.949608 3.04 255 0 0
5.336167 -18.045401 3.147 255 0 0
5.347063 -18.024015 3.158 255 0 0
5.427487 -17.857363 2.769 255 0 0
5.382054 -17.950935 3.029 255 0 0
5.287119 -18.143864 3.137 255 0 0
5.438871 -17.830616 2.606 255 0 0
5.318479 -18.077913 2.948 255 0 0
5.415701 -17.878294 2.712 255 0 0
5.335713 -18.046291 3.158 255 0 0
5.323909 -18.069456 3.056 255 0 0
5.412943 -17.888111 2.864 255 0 0
5.337109 -18.039146 2.878 255 0 0
5.285757 -18.146538 3.119 255 0 0
5.433877 -17.840418 2.588 255 0 0
5.400702 -17.909933 2.775 255 0 0
5.326197 -18.062765 3.013 255 0 0
5.310324 -18.091715 2.896 255 0 0
5.427505 -17.855127 2.75 255 0 0
5.29213 -18.131828 3.093 255 0 0
5.25988 -18.197325 3.079 255 0 0
5.340707 -18.036489 3.089 255 0 0
5.338454 -18.03871 2.959 255 0 0
5.315301 -18.08415 2.975 255 0 0
5.367106 -17.975868 2.728 255 0 0
5.382996 -17.944683 2.786 255 0 0
5.27397 -18.167467 3.037 255 0 0
5.34523 -18.029816 3.246 255 0 0
5.252162 -18.212473 3.073 255 0 0
5.340252 -18.03738 3.131 255 0 0
5.320277 -18.076586 3.081 255 0 0
5.220837 -18.273951 3.08 255 0 0
5.293929 -18.130501 3.126 255 0 0
5.231278 -18.253458 3.093 255 0 0
5.352074 -18.01198 3.005 255 0 0
5.316191 -18.084604 3.087 255 0 0
5.282159 -18.149193 2.885 255 0 0
5.412977 -17.88364 2.67 255 0 0
5.280764 -18.156338 3.143 255 0 0
5.244007 -18.226274 2.988 255 0 0
5.352074 -18.01198 3.064 255 0 0
5.394346 -17.922407 2.783 255 0 0
5.313467 -18.089951 3.037 255 0 0
5.367509 -17.981686 3.115 255 0 0
5.288952 -18.138065 3.002 255 0 0
5.416592 -17.878748 2.752 255 0 0
5.307549 -18.103769 3.158 255 0 0
5.295342 -18.121119 2.867 255 0 0
5.405679 -17.902369 2.94 255 0 0
5.242628 -18.231184 3.066 255 0 0
5.318915 -18.079258 3.053 255 0 0
5.317099 -18.082823 3.113 255 0 0
5.25988 -18.197325 3.108 255 0 0
5.385215 -17.946936 3.107 255 0 0
5.347046 -18.026251 3.217 255 0 0
5.27624 -18.163013 3.001 255 0 0
5.344373 -18.024889 2.947 255 0 0
5.295308 -18.125591 3.083 255 0 0
5.413851 -17.88633 2.865 255 0 0
5.308037 -18.098406 2.985 255 0 0
5.251725 -18.211126 3.011 255 0 0
5.2281 -18.259695 3.081 255 0 0
5.318915 -18.079258 3.051 255 0 0
5.254902 -18.204889 2.95 255 0 0
5.389755 -17.938026 3.072 255 0 0
5.414793 -17.880075 2.65 255 0 0
5.344356 -18.027126 3.014 255 0 0
5.298015 -18.12248 3.136 255 0 0
5.314375 -18.088169 3.032 255 0 0
5.36482 -17.982559 2.816 255 0 0
5.278964 -18.157667 3.08 255 0 0
5.282579 -18.152775 3.133 255 0 0
5.300756 -18.114899 3.059 255 0 0
5.309399 -18.095734 2.978 255 0 0
5.376135 -17.964756 3.115 255 0 0
5.382491 -17.952282 3.045 255 0 0
5.205401 -18.304247 3.025 255 0 0
5.274442 -18.164341 2.92 255 0 0
5.348425 -18.021343 3.182 255 0 0
5.297158 -18.117554 2.846 255 0 0
5.336184 -18.043165 3.02 255 0 0
5.293037 -18.130045 3.092 255 0 0
5.317083 -18.085058 3.165 255 0 0
5.318933 -18.077023 2.95 255 0 0
5.329391 -18.054293 2.84 255 0 0
5.376169 -17.960283 2.882 255 0 0
5.331156 -18.057436 3.178 255 0 0
5.332081 -18.053419 3.118 255 0 0
5.434331 -17.839527 2.657 255 0 0
5.352108 -18.007507 2.829 255 0 0
5.344776 -18.030706 3.245 255 0 0
5.312593 -18.087261 2.85 255 0 0
5.302152 -18.107754 2.885 255 0 0
5.366584 -17.985703 3.205 255 0 0
5.318495 -18.075678 2.819 255 0 0
5.392042 -17.931334 2.94 255 0 0
5.360716 -17.992813 2.958 255 0 0
5.36709 -17.978104 2.855 255 0 0
5.268522 -18.17816 3.037 255 0 0
5.404771 -17.90415 2.914 255 0 0
5.290314 -18.135391 3.01 255 0 0
5.418425 -17.872948 2.701 255 0 0
5.336201 -18.040928 2.901 255 0 0
5.295308 -18.125591 3.091 255 0 0
5.447951 -17.812796 2.594 255 0 0
5.271246 -18.172813 3.009 255 0 0
5.355286 -18.00127 2.793 255 0 0
5.366584 -17.985703 3.226 255 0 0
5.415229 -17.88142 2.787 255 0 0
5.30348 -18.109552 3.07 255 0 0
5.392967 -17.927317 2.926 255 0 0
5.350275 -18.013308 2.931 255 0 0
5.338 -18.0396 2.98 255 0 0
5.332569 -18.048056 2.87 255 0 0
5.268522 -18.17816 2.99 255 0 0
5.429791 -17.848436 2.657 255 0 0
5.312559 -18.091732 3.099 255 0 0
5.366636 -17.978994 2.842 255 0 0
5.455231 -17.796305 2.534 255 0 0
5.336167 -18.045401 3.154 255 0 0
5.392496 -17.930443 2.968 255 0 0
5.338874 -18.04229 3.244 255 0 0
5.370284 -17.969631 2.709 255 0 0
5.295762 -18.124699 3.108 255 0 0
5.328012 -18.059202 3.051 255 0 0
5.230824 -18.254351 3.028 255 0 0
5.313921 -18.08906 3.044 255 0 0
5.419349 -17.868931 2.594 255 0 0
5.366199 -17.97765 2.711 255 0 0
5.230371 -18.255239 3.018 255 0 0
5.328449 -18.060547 3.077 255 0 0
5.402063 -17.907261 2.755 255 0 0
5.333426 -18.052982 3.199 255 0 0
5.298032 -18.120245 3.084 255 0 0
5.314829 -18.087276 3.047 255 0 0
5.38345 -17.94379 2.727 255 0 0
5.291205 -18.135845 3.167 255 0 0
5.396162 -17.918842 2.766 255 0 0
5.328029 -18.056967 2.876 255 0 0
5.33346 -18.04851 3.047 255 0 0
5.364314 -17.990158 3.196 255 0 0
5.458409 -17.790068 2.522 255 0 0
5.405679 -17.902369 2.939 255 0 0
5.398397 -17.918859 2.99 255 0 0
5.359826 -17.992359 2.782 255 0 0
5.40161 -17.908152 2.766 255 0 0
5.308019 -18.100643 3.027 255 0 0
5.25307 -18.21069 3.039 255 0 0
5.338437 -18.040945 3.167 255 0 0
5.324363 -18.068565 3.115 255 0 0
5.357119 -17.99547 2.742 255 0 0
5.292567 -18.133173 3.172 255 0 0
5.36798 -17.978558 2.895 255 0 0
5.276694 -18.162121 3.003 255 0 0
5.395708 -17.919735 2.826 255 0 0
5.270356 -18.172359 2.896 255 0 0
5.346592 -18.027143 3.232 255 0 0
5.244461 -18.225384 3.013 255 0 0
5.369342 -17.975885 2.953 255 0 0
5.312559 -18.091732 3.129 255 0 0
5.234019 -18.245876 2.995 255 0 0
5.279418 -18.156776 3.005 255 0 0
5.364332 -17.987923 3.03 255 0 0
5.305313 -18.103752 2.973 255 0 0
5.366199 -17.97765 2.746 255 0 0
5.306203 -18.104206 3.121 255 0 0
5.423419 -17.863148 2.737 255 0 0
5.298503 -18.117119 2.924 255 0 0
5.291239 -18.131374 2.961 255 0 0
5.279856 -18.158121 3.093 255 0 0
5.422073 -17.863585 2.634 255 0 0
5.435239 -17.837744 2.621 255 0 0
5.342574 -18.026218 2.845 255 0 0
5.4175 -17.876966 2.847 255 0 0
5.358412 -18.001741 3.209 255 0 0
5.300739 -18.117134 3.178 255 0 0
5.385703 -17.941572 2.897 255 0 0
5.394329 -17.924644 2.874 255 0 0
5.379313 -17.958519 3.037 255 0 0
5.392967 -17.927317 2.851 255 0 0
5.392547 -17.923737 2.691 255 0 0
5.303009 -18.11268 3.163 255 0 0
5.328903 -18.059656 3.134 255 0 0
5.363441 -17.987467 2.994 255 0 0
5.34481 -18.026236 2.986 255 0 0
5.33758 -18.03602 2.785 255 0 0
5.216751 -18.281971 3.011 255 0 0
5.432969 -17.842199 2.606 255 0 0
5.25127 -18.212019 2.938 255 0 0
5.290785 -18.132265 2.888 255 0 0
5.342557 -18.028454 2.871 255 0 0
5.33388 -18.052092 3.173 255 0 0
5.279418 -18.156776 3.037 255 0 0
5.35251 -18.013323 3.173 255 0 0
5.438854 -17.832853 2.681 255 0 0
5.292567 -18.133173 3.176 255 0 0
5.306221 -18.101971 2.992 255 0 0
5.266252 -18.182615 2.961 255 0 0
5.340707 -18.036489 3.111 255 0 0
5.285337 -18.142956 2.93 255 0 0
5.397087 -17.914825 2.694 255 0 0
5.382962 -17.949154 3.027 255 0 0
5.330283 -18.054747 3.045 255 0 0
5.321673 -18.069441 2.842 255 0 0
5.405713 -17.897896 2.729 255 0 0
5.391168 -17.928644 2.749 255 0 0
5.391605 -17.929989 2.906 255 0 0
5.285303 -18.147429 3.152 255 0 0
5.257156 -18.202671 3.111 255 0 0
5.409345 -17.890768 2.716 255 0 0
5.338454 -18.03871 3.02 255 0 0
5.382037 -17.953173 3.104 255 0 0
5.298503 -18.117119 2.931 255 0 0
5.397053 -17.919296 2.934 255 0 0
5.384307 -17.948717 3.076 255 0 0
5.349316 -18.021797 3.262 255 0 0
5.386577 -17.944263 3.046 255 0 0
5.246714 -18.223164 3.031 255 0 0
5.200407 -18.314047 3.048 255 0 0
5.288061 -18.137611 2.898 255 0 0
5.26627 -18.180378 2.895 255 0 0
5.33847 -18.036472 2.927 255 0 0
5.221291 -18.273062 3.068 255 0 0
5.266724 -18.179489 2.938 255 0 0
5.278527 -18.156322 2.904 255 0 0
5.427051 -17.85602 2.751 255 0 0
5.360262 -17.993704 2.886 255 0 0
5.458409 -17.790068 2.517 255 0 0
5.330283 -18.054747 2.97 255 0 0
5.28305 -18.149647 3.038 255 0 0
5.258534 -18.197762 3.016 255 0 0
5.280764 -18.156338 3.142 255 0 0
5.381129 -17.954954 3.074 255 0 0
5.294837 -18.128717 3.154 255 0 0
5.396616 -17.917952 2.747 255 0 0
5.325708 -18.068129 3.207 255 0 0
5.408419 -17.894787 2.81 255 0 0
5.363004 -17.986122 2.809 255 0 0
5.260787 -18.195543 3.078 255 0 0
5.337546 -18.040491 2.966 255 0 0
5.224015 -18.267714 3.025 255 0 0
5.325759 -18.06142 2.85 255 0 0
5.407495 -17.898804 2.925 255 0 0
5.375296 -17.957594 2.679 255 0 0
5.437492 -17.835526 2.679 255 0 0
5.355722 -18.002615 2.874 255 0 0
5.338034 -18.035128 2.832 255 0 0
5.448421 -17.809669 2.568 255 0 0
5.296703 -18.118446 2.842 255 0 0
5.371595 -17.973665 3.042 255 0 0
5.344827 -18.023998 2.902 255 0 0
5.294837 -18.128717 3.112 255 0 0
5.273499 -18.170595 3.154 255 0 0
5.361204 -17.987452 2.77 255 0 0
5.393909 -17.921062 2.702 255 0 0
5.338454 -18.03871 3.066 255 0 0
5.37706 -17.960737 2.942 255 0 0
5.356142 -18.006195 3.108 255 0 0
5.371176 -17.970085 2.888 255 0 0
5.408891 -17.891659 2.702 255 0 0
5.338017 -18.037363 2.909 255 0 0
5.281688 -18.152321 3.012 255 0 0
5.249926 -18.212456 2.921 255 0 0
5.39934 -17.912605 2.726 255 0 0
5.273534 -18.166122 2.895 255 0 0
5.281217 -18.155449 3.098 255 0 0
5.375732 -17.958939 2.783 255 0 0
5.280343 -18.152758 2.937 255 0 0
5.393858 -17.927771 2.992 255 0 0
5.308507 -18.09528 2.862 255 0 0
5.220837 -18.273951 2.996 255 0 0
5.312106 -18.092623 3.078 255 0 0
5.291222 -18.13361 3.073 255 0 0
5.285774 -18.144302 3.093 255 0 0
5.259442 -18.19598 3.008 255 0 0
5.302572 -18.111334 3.079 255 0 0
5.357958 -18.002632 3.12 255 0 0
5.380221 -17.956738 3.12 255 0 0
5.277586 -18.162575 3.117 255 0 0
5.287153 -18.139393 2.892 255 0 0
5.248076 -18.220491 3.119 255 0 0
5.304388 -18.107771 3.119 255 0 0
5.258552 -18.195526 2.915 255 0 0
5.356648 -17.998596 2.798 255 0 0
5.332586 -18.04582 2.814 255 0 0
5.375681 -17.965647 3.13 255 0 0
5.414321 -17.883204 2.748 255 0 0
5.338891 -18.040054 3.152 255 0 0
5.258988 -18.196871 3.019 255 0 0
5.370739 -17.968739 2.725 255 0 0
5.288969 -18.13583 2.984 255 0 0
5.190873 -18.332758 3.039 255 0 0
5.392496 -17.930443 2.969 255 0 0
5.281688 -18.152321 3.058 255 0 0
5.345718 -18.024454 3.001 255 0 0
5.338 -18.0396 3.014 255 0 0
5.325725 -18.065893 3.053 255 0 0
5.248076 -18.220491 3.054 255 0 0
5.430245 -17.847546 2.646 255 0 0
5.319823 -18.077477 3.075 255 0 0
5.395691 -17.92197 2.863 255 0 0
5.342523 -18.032927 3.168 255 0 0
5.350241 -18.017778 3.14 255 0 0
5.284412 -18.146975 2.979 255 0 0
5.35801 -17.995924 2.808 255 0 0
5.33615 -18.047636 3.191 255 0 0
5.382996 -17.944683 2.787 255 0 0
5.391151 -17.930882 2.839 255 0 0
5.346155 -18.025797 3.106 255 0 0
5.338437 -18.040945 3.167 255 0 0
5.298066 -18.115772 2.828 255 0 0
5.405679 -17.902369 2.919 255 0 0
5.269867 -18.177723 3.082 255 0 0
5.325305 -18.062311 2.897 255 0 0
5.295779 -18.122463 2.903 255 0 0
5.373446 -17.96563 2.843 255 0 0
5.391605 -17.929989 2.883 255 0 0
5.34254 -18.030691 2.996 255 0 0
5.37706 -17.960737 3.017 255 0 0
5.329409 -18.052057 2.802 255 0 0
5.238105 -18.237858 2.977 255 0 0
5.35801 -17.995924 2.767 255 0 0
5.36613 -17.986593 3.165 255 0 0
5.338908 -18.037817 3.031 255 0 0
5.32211 -18.070786 2.988 255 0 0
5.34797 -18.022234 3.099 255 0 0
5.268522 -18.17816 3.02 255 0 0
5.368014 -17.974085 2.759 255 0 0
5.380221 -17.956738 3.042 255 0 0
5.213119 -18.289099 3.023 255 0 0
5.336655 -18.040037 2.846 255 0 0
5.219475 -18.276625 3.016 255 0 0
5.277165 -18.158995 2.926 255 0 0
5.27535 -18.16256 2.923 255 0 0
5.263982 -18.187069 3.003 255 0 0
5.24626 -18.224056 3.09 255 0 0
5.325288 -18.064548 2.95 255 0 0
5.328046 -18.054731 2.812 255 0 0
5.348896 -18.018217 3.065 255 0 0
5.265799 -18.183506 3.053 255 0 0
5.24172 -18.232965 3.082 255 0 0
5.338454 -18.03871 3.064 255 0 0
5.434785 -17.838636 2.621 255 0 0
5.247639 -18.219147 2.967 255 0 0
5.350695 -18.016888 3.123 255 0 0
5.36983 -17.970522 2.73 255 0 0
5.378859 -17.95941 3.128 255 0 0
5.235835 -18.242311 2.961 255 0 0
5.385686 -17.943808 3.008 255 0 0
5.328903 -18.059656 3.132 255 0 0
5.348425 -18.021343 3.086 255 0 0
5.408437 -17.892551 2.661 255 0 0
5.355722 -18.002615 2.938 255 0 0
5.343011 -18.027563 2.915 255 0 0
5.402483 -17.910841 2.97 255 0 0
5.303933 -18.108662 3.059 255 0 0
5.338 -18.0396 3.047 255 0 0
5.375227 -17.966537 3.086 255 0 0
5.43386 -17.842653 2.71 255 0 0
5.265782 -18.185741 3.061 255 0 0
5.332098 -18.051184 2.982 255 0 0
5.408403 -17.897022 2.922 255 0 0
5.274878 -18.165686 3.043 255 0 0
5.249454 -18.215582 2.979 255 0 0
5.424763 -17.862709 2.79 255 0 0
5.340758 -18.029783 2.75 255 0 0
5.318933 -18.077023 2.935 255 0 0
5.326667 -18.059639 2.833 255 0 0
5.3457 -18.02669 3.129 255 0 0
5.275769 -18.16614 3.126 255 0 0
5.306675 -18.10108 2.928 255 0 0
5.392529 -17.925972 2.723 255 0 0
5.314393 -18.085932 2.99 255 0 0
5.235818 -18.244549 3.067 255 0 0
5.32892 -18.057421 2.994 255 0 0
5.367073 -17.980339 2.967 255 0 0
5.313467 -18.089951 3.066 255 0 0
5.370721 -17.970976 2.856 255 0 0
5.424343 -17.859129 2.595 255 0 0
5.391117 -17.935352 3.054 255 0 0
5.273499 -18.170595 3.156 255 0 0
5.416171 -17.875168 2.617 255 0 0
5.288498 -18.138956 3.092 255 0 0
5.313047 -18.086369 2.9 255 0 0
5.33077 -18.049383 2.796 255 0 0
5.249001 -18.216473 2.93 255 0 0
5.340252 -18.03738 3.162 255 0 0
5.301681 -18.11088 2.901 255 0 0
5.33842 -18.04318 3.234 255 0 0
5.198591 -18.317612 3.027 255 0 0
5.379313 -17.958519 3.131 255 0 0
5.355689 -18.007086 3.122 255 0 0
5.418861 -17.874292 2.756 255 0 0
5.382037 -17.953173 3.034 255 0 0
5.34481 -18.026236 3.074 255 0 0
5.34116 -18.035599 3.159 255 0 0
5.29852 -18.114882 2.846 255 0 0
5.251725 -18.211126 3.008 255 0 0
5.235818 -18.244549 3.02 255 0 0
5.351166 -18.013762 3.047 255 0 0
5.289877 -18.134047 2.906 255 0 0
5.323489 -18.065876 2.92 255 0 0
5.398886 -17.913498 2.785 255 0 0
5.365728 -17.980778 2.843 255 0 0
5.282613 -18.148304 2.945 255 0 0
5.301209 -18.114008 3.045 255 0 0
5.372066 -17.970539 2.986 255 0 0
5.431591 -17.847109 2.686 255 0 0
5.409327 -17.893003 2.837 255 0 0
5.303497 -18.107317 3.005 255 0 0
5.414775 -17.882313 2.756 255 0 0
5.282613 -18.148304 2.92 255 0 0
5.284849 -18.148319 3.15 255 0 0
5.326667 -18.059639 2.886 255 0 0
5.367509 -17.981686 3.014 255 0 0
5.35663 -18.000834 2.946 255 0 0
5.406133 -17.901478 2.924 255 0 0
5.283504 -18.148756 2.997 255 0 0
5.342994 -18.029799 2.989 255 0 0
5.325254 -18.069021 3.215 255 0 0
5.2281 -18.259695 3.05 255 0 0
5.384778 -17.945591 3.002 255 0 0
5.245369 -18.2236 3.006 255 0 0
5.22356 -18.268606 3.088 255 0 0
5.339396 -18.032455 2.775 255 0 0
5.458863 -17.789175 2.518 255 0 0
5.382088 -17.946465 2.796 255 0 0
5.210395 -18.294445 3.035 255 0 0
5.338034 -18.035128 2.783 255 0 0
5.323035 -18.066767 2.844 255 0 0
5.288532 -18.134483 2.856 255 0 0
5.25127 -18.212019 2.933 255 0 0
5.338034 -18.035128 2.759 255 0 0
5.373412 -17.9701 3.113 255 0 0
5.295795 -18.120228 2.839 255 0 0
5.381146 -17.952719 3.026 255 0 0
5.28305 -18.149647 3.008 255 0 0
5.2281 -18.259695 3.071 255 0 0
5.27535 -18.16256 2.915 255 0 0
5.292584 -18.130936 3.102 255 0 0
5.326197 -18.062765 2.956 255 0 0
5.27989 -18.153648 2.97 255 0 0
5.382054 -17.950935 3.01 255 0 0
5.238089 -18.240093 3.092 255 0 0
5.333006 -18.049402 2.985 255 0 0
5.369326 -17.978121 3.093 255 0 0
5.251708 -18.213364 3.11 255 0 0
5.38118 -17.948246 2.779 255 0 0
5.280326 -18.154993 3.012 255 0 0
5.234002 -18.248114 3.054 255 0 0
5.236289 -18.241421 2.971 255 0 0
5.394311 -17.92688 3.009 255 0 0
5.303497 -18.107317 2.956 255 0 0
5.360716 -17.992813 2.915 255 0 0
5.32438 -18.06633 2.946 255 0 0
5.290768 -18.134501 3.076 255 0 0
5.393437 -17.924189 2.814 255 0 0
5.258064 -18.20089 3.072 255 0 0
5.377077 -17.958502 2.88 255 0 0
5.253541 -18.207563 2.991 255 0 0
5.3589 -17.996378 2.912 255 0 0
5.447043 -17.814579 2.582 255 0 0
5.372992 -17.96652 2.795 255 0 0
5.360716 -17.992813 2.987 255 0 0
5.363928 -17.982105 2.746 255 0 0
5.251725 -18.211126 2.966 255 0 0
5.370721 -17.970976 2.853 255 0 0
5.228117 -18.25746 2.978 255 0 0
5.438434 -17.829271 2.561 255 0 0
5.344356 -18.027126 3.004 255 0 0
5.407495 -17.898804 2.872 255 0 0
5.317587 -18.077459 2.895 255 0 0
5.347063 -18.024015 3.171 255 0 0
5.287573 -18.142975 3.148 255 0 0
5.355722 -18.002615 2.896 255 0 0
5.363928 -17.982105 2.733 255 0 0
5.326213 -18.06053 2.833 255 0 0
5.271683 -18.17416 3.132 255 0 0
5.396599 -17.920189 2.924 255 0 0
5.323489 -18.065876 2.897 255 0 0
5.359388 -17.991014 2.72 255 0 0
5.388898 -17.9331 2.791 255 0 0
5.230824 -18.254351 3.099 255 0 0
5.391168 -17.928644 2.756 255 0 0
5.439342 -17.82749 2.553 255 0 0
5.400719 -17.907698 2.701 255 0 0
5.329845 -18.053402 2.926 255 0 0
5.221761 -18.269934 2.98 255 0 0
5.264874 -18.187523 3.132 255 0 0
5.335276 -18.044947 2.979 255 0 0
5.205401 -18.304247 3.063 255 0 0
5.357084 -17.999941 2.901 255 0 0
5.244915 -18.224493 2.976 255 0 0
5.327995 -18.061438 3.119 255 0 0
5.328954 -18.052948 2.771 255 0 0
5.332518 -18.054764 3.182 255 0 0
5.402063 -17.907261 2.776 255 0 0
5.325759 -18.06142 2.905 255 0 0
5.333041 -18.04493 2.806 255 0 0
5.378893 -17.954937 2.801 255 0 0
5.349316 -18.021797 3.235 255 0 0
5.354326 -18.00976 3.181 255 0 0
5.366618 -17.98123 2.98 255 0 0
5.313921 -18.08906 3.037 255 0 0
5.294383 -18.129608 3.117 255 0 0
5.423889 -17.86002 2.641 255 0 0
5.392059 -17.929098 2.839 255 0 0
5.22356 -18.268606 3.027 255 0 0
5.235364 -18.24544 3.083 255 0 0
5.276694 -18.162121 3.014 255 0 0
5.383416 -17.948263 2.994 255 0 0
5.278982 -18.15543 2.954 255 0 0
5.383887 -17.945137 2.915 255 0 0
5.235364 -18.24544 3.094 255 0 0
5.377514 -17.959846 2.933 255 0 0
5.347046 -18.026251 3.199 255 0 0
5.373848 -17.971447 3.14 255 0 0
5.398449 -17.912151 2.644 255 0 0
5.279872 -18.155884 3.042 255 0 0
5.392076 -17.926863 2.816 255 0 0
