ply
format ascii 1.0
element vertex 1268
property double x
property double y
property double z
property uchar red
property uchar green
property uchar blue
element face 0
property list uchar int vertex_indices
end_header
2.93153 -18.150133 0.015 170 170 127
2.955523 -18.111853 0.012 170 170 127
2.955523 -18.111853 0.011 170 170 127
2.960466 -18.108761 0.016 170 170 127
2.924754 -18.159027 0.014 170 170 127
2.936507 -18.142567 0.014 170 170 127
2.933329 -18.148804 0.016 170 170 127
2.943703 -18.137257 0.019 170 170 127
2.953691 -18.117653 0.014 170 170 127
2.930116 -18.159513 0.022 170 170 127
2.940054 -18.14662 0.024 170 170 127
2.944577 -18.139946 0.023 170 170 127
3.094928 -18.129011 0.035 170 170 127
3.104627 -18.147423 0.035 170 170 127
3.134382 -18.174929 0.05 170 170 127
3.101653 -18.126827 0.044 170 170 127
3.137913 -18.181215 0.05 170 170 127
3.15642 -18.217583 0.048 170 170 127
3.148015 -18.205442 0.046 170 170 127
3.1326 -18.174021 0.049 170 170 127
3.14529 -18.210789 0.041 170 170 127
3.120058 -18.176609 0.034 170 170 127
3.114848 -18.155996 0.04 170 170 127
3.083918 -18.106567 0.037 170 170 127
3.094996 -18.120068 0.04 170 170 127
3.134717 -18.18969 0.041 170 170 127
3.116261 -18.146616 0.047 170 170 127
3.113419 -18.167614 0.032 170 170 127
3.152436 -18.212185 0.047 170 170 127
3.128129 -18.173986 0.044 170 170 127
3.074503 -18.109627 0.026 170 170 127
3.125875 -18.176205 0.04 170 170 127
3.108106 -18.160418 0.031 170 170 127
3.070502 -18.106466 0.024 170 170 127
3.127271 -18.16906 0.046 170 170 127
3.106443 -18.143858 0.039 170 170 127
3.102577 -18.122808 0.047 170 170 127
3.075779 -18.118134 0.022 170 170 127
3.105501 -18.150112 0.035 170 170 127
3.098997 -18.12323 0.043 170 170 127
3.097181 -18.126793 0.04 170 170 127
3.069259 -18.093487 0.029 170 170 127
3.072318 -18.102901 0.027 170 170 127
3.122884 -18.157846 0.048 170 170 127
3.07637 -18.099354 0.033 170 170 127
3.134751 -18.185217 0.044 170 170 127
3.083918 -18.106567 0.038 170 170 127
3.076755 -18.107407 0.03 170 170 127
3.293096 -18.299568 0.029 170 170 127
3.215057 -18.269907 0.05 170 170 127
3.283799 -18.286976 0.043 170 170 127
3.281093 -18.290085 0.039 170 170 127
3.270787 -18.29269 0.032 170 170 127
3.273528 -18.285109 0.043 170 170 127
3.316733 -18.308245 0.023 170 170 127
3.226186 -18.276699 0.043 170 170 127
3.297585 -18.297365 0.032 170 170 127
3.245401 -18.278633 0.045 170 170 127
3.314128 -18.297939 0.036 170 170 127
3.218603 -18.273958 0.045 170 170 127
3.304361 -18.288473 0.046 170 170 127
3.272586 -18.291363 0.035 170 170 127
3.286893 -18.291918 0.037 170 170 127
3.309639 -18.30014 0.032 170 170 127
3.15415 -18.222036 0.042 170 170 127
3.103062 -18.176928 0.021 170 170 127
3.177147 -18.256201 0.048 170 170 127
3.143458 -18.216589 0.037 170 170 127
3.071643 -18.13286 0.013 170 170 127
3.166471 -18.248516 0.043 170 170 127
3.139003 -18.214319 0.035 170 170 127
3.076484 -18.143183 0.013 170 170 127
3.104458 -18.169783 0.025 170 170 127
3.154587 -18.223383 0.043 170 170 127
3.088992 -18.145067 0.022 170 170 127
3.118259 -18.177937 0.032 170 170 127
3.061574 -18.10416 0.016 170 170 127
3.147879 -18.223331 0.038 170 170 127
3.139389 -18.222372 0.032 170 170 127
3.088101 -18.144613 0.021 170 170 127
3.086387 -18.13476 0.024 170 170 127
3.158571 -18.228779 0.044 170 170 127
3.056262 -18.096966 0.014 170 170 127
3.161647 -18.235958 0.043 170 170 127
3.11377 -18.180138 0.028 170 170 127
3.125808 -18.18515 0.035 170 170 127
3.08973 -18.165646 0.016 170 170 127
3.057136 -18.099655 0.014 170 170 127
3.150553 -18.224693 0.04 170 170 127
3.060212 -18.106834 0.014 170 170 127
3.160722 -18.239977 0.042 170 170 127
3.140314 -18.218355 0.034 170 170 127
3.146517 -18.226004 0.036 170 170 127
3.016452 -18.098005 0.022 170 170 127
3.046041 -18.08839 0.023 170 170 127
2.989921 -18.117033 0.027 170 170 127
3.013795 -18.094406 0.02 170 170 127
2.999217 -18.129627 0.036 170 170 127
3.029965 -18.144173 0.05 170 170 127
2.991702 -18.117941 0.028 170 170 127
3.028255 -18.074839 0.012 170 170 127
3.033113 -18.082926 0.018 170 170 127
3.036592 -18.095921 0.025 170 170 127
3.057187 -18.092947 0.028 170 170 127
3.024101 -18.091801 0.02 170 170 127
2.970148 -18.129406 0.029 170 170 127
3.010028 -18.119423 0.032 170 170 127
3.056479 -18.127378 0.046 170 170 127
3.011152 -18.148054 0.047 170 170 127
3.058329 -18.119343 0.042 170 170 127
3.046462 -18.091972 0.025 170 170 127
3.070853 -18.11899 0.044 170 170 127
3.023698 -18.085983 0.018 170 170 127
2.994745 -18.129593 0.035 170 170 127
2.990693 -18.133141 0.036 170 170 127
3.000193 -18.1189 0.03 170 170 127
3.061154 -18.10058 0.032 170 170 127
3.057488 -18.112181 0.038 170 170 127
3.017054 -18.136471 0.043 170 170 127
2.995636 -18.130047 0.035 170 170 127
3.028454 -18.107487 0.03 170 170 127
3.05552 -18.135868 0.05 170 170 127
2.97689 -18.124985 0.028 170 170 127
3.013625 -18.116766 0.031 170 170 127
3.016634 -18.132889 0.04 170 170 127
3.052863 -18.132271 0.048 170 170 127
3.026855 -18.141464 0.047 170 170 127
3.02304 -18.113708 0.032 170 170 127
3.021492 -18.140976 0.046 170 170 127
2.97874 -18.116949 0.024 170 170 127
3.037296 -18.120972 0.039 170 170 127
3.057942 -18.111288 0.038 170 170 127
3.062699 -18.132792 0.05 170 170 127
3.000731 -18.106831 0.024 170 170 127
2.997015 -18.125137 0.033 170 170 127
3.082102 -18.110132 0.042 170 170 127
3.006583 -18.101955 0.022 170 170 127
3.052346 -18.082624 0.021 170 170 127
3.061354 -18.13323 0.05 170 170 127
2.970518 -18.139696 0.035 170 170 127
3.026893 -18.077511 0.013 170 170 127
3.076183 -18.123949 0.048 170 170 127
3.079832 -18.114586 0.044 170 170 127
2.978167 -18.133492 0.033 170 170 127
3.018416 -18.133797 0.041 170 170 127
2.984371 -18.141142 0.039 170 170 127
3.01475 -18.145397 0.047 170 170 127
3.056916 -18.128723 0.047 170 170 127
3.012281 -18.117203 0.031 170 170 127
3.016299 -18.11813 0.033 170 170 127
2.975881 -18.140184 0.036 170 170 127
3.043585 -18.117441 0.038 170 170 127
3.014818 -18.136454 0.042 170 170 127
3.060917 -18.131884 0.049 170 170 127
2.997248 -18.153315 0.048 170 170 127
3.006379 -18.128788 0.036 170 170 127
3.073493 -18.124825 0.048 170 170 127
3.054832 -18.108582 0.036 170 170 127
3.058834 -18.111742 0.038 170 170 127
3.056785 -18.08713 0.025 170 170 127
3.022841 -18.081059 0.015 170 170 127
3.019511 -18.10742 0.028 170 170 127
2.996997 -18.127375 0.034 170 170 127
3.051002 -18.083061 0.021 170 170 127
3.000294 -18.105486 0.023 170 170 127
3.051285 -18.10453 0.032 170 170 127
2.979933 -18.136637 0.035 170 170 127
3.077141 -18.115459 0.044 170 170 127
2.971948 -18.128078 0.029 170 170 127
2.99466 -18.140774 0.04 170 170 127
3.008127 -18.134167 0.04 170 170 127
3.37086 -18.188799 0.047 170 170 127
3.402652 -18.183672 0.019 170 170 127
3.431772 -18.177185 0.02 170 170 127
3.409831 -18.180597 0.033 170 170 127
3.396835 -18.184076 0.031 170 170 127
3.404451 -18.182344 0.032 170 170 127
3.393237 -18.186731 0.013 170 170 127
3.427753 -18.17626 0.033 170 170 127
3.440749 -18.172783 0.034 170 170 127
3.367716 -18.190563 0.039 170 170 127
3.350248 -18.194008 0.04 170 170 127
3.329182 -18.200109 0.038 170 170 127
3.358755 -18.192732 0.037 170 170 127
3.323365 -18.200514 0.042 170 170 127
3.319784 -18.200933 0.048 170 170 127
3.393254 -18.184496 0.034 170 170 127
3.363227 -18.192766 0.023 170 170 127
3.469413 -18.167187 0.023 170 170 127
3.382057 -18.186647 0.04 170 170 127
3.401307 -18.184111 0.025 170 170 127
3.335907 -18.197926 0.042 170 170 127
3.35203 -18.194916 0.028 170 170 127
3.418355 -18.177084 0.046 170 170 127
3.373987 -18.18927 0.039 170 170 127
3.33278 -18.197454 0.048 170 170 127
3.364118 -18.19322 0.02 170 170 127
3.328744 -18.198765 0.045 170 170 127
3.327837 -18.200548 0.038 170 170 127
3.392817 -18.183151 0.047 170 170 127
3.380258 -18.187975 0.032 170 170 127
3.36279 -18.191422 0.039 170 170 127
3.317094 -18.201807 0.046 170 170 127
3.41252 -18.179724 0.039 170 170 127
3.403123 -18.180546 0.047 170 170 127
3.431788 -18.17495 0.032 170 170 127
3.372642 -18.189707 0.034 170 170 127
3.343976 -18.195303 0.046 170 170 127
3.369951 -18.19058 0.033 170 170 127
3.382931 -18.189337 0.015 170 170 127
3.282146 -18.151453 0.036 170 170 127
3.327387 -18.141958 0.022 170 170 127
3.304993 -18.146259 0.015 170 170 127
3.284835 -18.150578 0.045 170 170 127
3.34351 -18.138948 0.05 170 170 127
3.299613 -18.148008 0.046 170 170 127
3.344856 -18.138512 0.043 170 170 127
3.420107 -18.122984 0.015 170 170 127
3.338584 -18.139807 0.032 170 170 127
3.363214 -18.135521 0.047 170 170 127
3.308574 -18.14584 0.023 170 170 127
3.391442 -18.12858 0.032 170 170 127
3.279909 -18.151436 0.032 170 170 127
3.424142 -18.121672 0.016 170 170 127
3.296032 -18.148428 0.037 170 170 127
3.28618 -18.150143 0.036 170 170 127
3.352471 -18.13678 0.037 170 170 127
3.392334 -18.129034 0.031 170 170 127
3.314845 -18.144545 0.029 170 170 127
3.37263 -18.132462 0.033 170 170 127
3.342619 -18.138494 0.031 170 170 127
3.311264 -18.144964 0.018 170 170 127
3.283037 -18.151907 0.044 170 170 127
3.27453 -18.153183 0.041 170 170 127
3.300959 -18.14757 0.022 170 170 127
3.317081 -18.144562 0.038 170 170 127
3.388752 -18.129454 0.038 170 170 127
3.259285 -18.099401 0.033 170 170 127
3.245687 -18.064413 0.041 170 170 127
3.246089 -18.07023 0.042 170 170 127
3.249318 -18.057287 0.034 170 170 127
3.256849 -18.066736 0.027 170 170 127
3.258194 -18.066298 0.025 170 170 127
3.254329 -18.045248 0.024 170 170 127
3.253184 -18.078335 0.035 170 170 127
3.25917 -18.055573 0.022 170 170 127
3.248847 -18.060413 0.035 170 170 127
3.250493 -18.07921 0.038 170 170 127
3.283491 -18.151016 0.02 170 170 127
3.244222 -18.080503 0.047 170 170 127
3.260023 -18.119978 0.043 170 170 127
3.272429 -18.135279 0.03 170 170 127
3.256527 -18.109219 0.043 170 170 127
3.248575 -18.096189 0.048 170 170 127
3.265267 -18.136118 0.043 170 170 127
3.260443 -18.12356 0.043 170 170 127
3.265369 -18.122704 0.035 170 170 127
3.263218 -18.111506 0.033 170 170 127
3.271907 -18.145113 0.036 170 170 127
3.256124 -18.103403 0.041 170 170 127
3.263031 -18.136103 0.047 170 170 127
3.259654 -18.10969 0.038 170 170 127
3.261907 -18.107471 0.032 170 170 127
3.257469 -18.102964 0.039 170 170 127
3.256981 -18.108328 0.043 170 170 127
3.175195 -18.277653 0.041 170 170 127
3.170201 -18.287455 0.042 170 170 127
3.174287 -18.279434 0.043 170 170 127
3.166619 -18.287874 0.031 170 170 127
3.17701 -18.27409 0.042 170 170 127
3.167965 -18.287437 0.035 170 170 127
3.168839 -18.290127 0.042 170 170 127
2.981176 -18.149614 0.043 170 170 127
2.999518 -18.148859 0.047 170 170 127
2.996845 -18.147499 0.046 170 170 127
2.999081 -18.147514 0.047 170 170 127
2.961977 -18.145445 0.037 170 170 127
2.978673 -18.125895 0.03 170 170 127
3.000312 -18.103249 0.022 170 170 127
3.033147 -18.078453 0.016 170 170 127
2.984842 -18.138016 0.038 170 170 127
3.004966 -18.138168 0.043 170 170 127
3.02573 -18.112833 0.034 170 170 127
3.043669 -18.106262 0.034 170 170 127
2.95574 -18.142267 0.033 170 170 127
2.97541 -18.143311 0.039 170 170 127
3.008887 -18.093029 0.019 170 170 127
3.017677 -18.11322 0.032 170 170 127
3.017864 -18.088623 0.018 170 170 127
2.993518 -18.114378 0.027 170 170 127
3.043466 -18.133093 0.05 170 170 127
3.004058 -18.13995 0.044 170 170 127
3.044441 -18.122368 0.044 170 170 127
3.015794 -18.125729 0.039 170 170 127
3.040492 -18.112499 0.037 170 170 127
3.04577 -18.124166 0.045 170 170 127
3.054883 -18.101873 0.035 170 170 127
3.033953 -18.090088 0.023 170 170 127
3.014737 -18.088152 0.017 170 170 127
3.025395 -18.098072 0.025 170 170 127
3.05468 -18.128706 0.05 170 170 127
2.998677 -18.141699 0.043 170 170 127
3.026656 -18.108816 0.032 170 170 127
3.013892 -18.140472 0.047 170 170 127
2.975092 -18.126314 0.029 170 170 127
3.002479 -18.112209 0.028 170 170 127
3.046325 -18.109859 0.037 170 170 127
3.037177 -18.136623 0.05 170 170 127
2.962448 -18.142317 0.035 170 170 127
3.057858 -18.122469 0.047 170 170 127
2.976385 -18.132584 0.033 170 170 127
3.031026 -18.122265 0.041 170 170 127
3.023006 -18.118179 0.036 170 170 127
2.978655 -18.12813 0.031 170 170 127
3.024152 -18.085094 0.018 170 170 127
2.991333 -18.107653 0.022 170 170 127
3.008314 -18.109571 0.028 170 170 127
3.013137 -18.122129 0.036 170 170 127
3.024703 -18.130268 0.043 170 170 127
2.980319 -18.14469 0.041 170 170 127
3.05964 -18.123377 0.048 170 170 127
3.010096 -18.110479 0.029 170 170 127
3.003036 -18.097902 0.02 170 170 127
3.003587 -18.143078 0.046 170 170 127
3.008093 -18.138638 0.044 170 170 127
2.978151 -18.135729 0.035 170 170 127
3.041213 -18.135313 0.05 170 170 127
3.006196 -18.093901 0.018 170 170 127
3.00122 -18.101467 0.021 170 170 127
3.464148 -18.44845 0.813 170 170 127
3.482036 -18.448587 0.812 170 170 127
3.450863 -18.489943 0.799 170 170 127
3.502296 -18.430851 0.816 170 170 127
3.484272 -18.448603 0.811 170 170 127
3.380741 -18.477781 0.81 170 170 127
3.477229 -18.433792 0.817 170 170 127
3.393805 -18.465359 0.813 170 170 127
3.345771 -18.489145 0.809 170 170 127
3.421897 -18.476307 0.807 170 170 127
3.45374 -18.464472 0.808 170 170 127
3.478205 -18.423067 0.821 170 170 127
3.467996 -18.471735 0.804 170 170 127
3.396796 -18.483719 0.806 170 170 127
3.490628 -18.436129 0.815 170 170 127
3.375713 -18.492056 0.805 170 170 127
3.430604 -18.507677 0.795 170 170 127
3.427782 -18.466959 0.81 170 170 127
3.478069 -18.440954 0.815 170 170 127
3.411574 -18.481148 0.806 170 170 127
3.463393 -18.430109 0.82 170 170 127
3.348933 -18.485144 0.81 170 170 127
3.338156 -18.490875 0.809 170 170 127
3.48597 -18.460691 0.807 170 170 127
3.52486 -18.40419 0.824 170 170 127
3.401149 -18.499405 0.8 170 170 127
3.381717 -18.467056 0.814 170 170 127
3.367694 -18.48797 0.808 170 170 127
3.477212 -18.436028 0.817 170 170 127
3.450613 -18.464001 0.809 170 170 127
3.441703 -18.459461 0.811 170 170 127
3.380589 -18.497906 0.803 170 170 127
3.390372 -18.505136 0.799 170 170 127
3.447584 -18.509596 0.793 170 170 127
3.387937 -18.472469 0.811 170 170 127
3.441703 -18.459461 0.811 170 170 127
3.476521 -18.468224 0.805 170 170 127
3.486627 -18.432968 0.817 170 170 127
3.447923 -18.464876 0.809 170 170 127
3.471191 -18.463263 0.807 170 170 127
3.438746 -18.43663 0.82 170 170 127
3.397437 -18.458231 0.815 170 170 127
3.470215 -18.473989 0.804 170 170 127
3.370083 -18.467863 0.815 170 170 127
3.412181 -18.460131 0.814 170 170 127
3.438996 -18.462572 0.81 170 170 127
3.496024 -18.432146 0.816 170 170 127
3.304127 -18.495983 0.81 170 170 127
3.447197 -18.501543 0.796 170 170 127
3.340005 -18.48284 0.812 170 170 127
3.471594 -18.46908 0.805 170 170 127
3.500565 -18.423235 0.819 170 170 127
3.436862 -18.449139 0.815 170 170 127
3.46921 -18.429707 0.819 170 170 127
3.398362 -18.454212 0.817 170 170 127
3.373461 -18.494274 0.805 170 170 127
3.355152 -18.490557 0.808 170 170 127
3.471073 -18.478914 0.802 170 170 127
3.404765 -18.494513 0.802 170 170 127
3.391047 -18.475178 0.81 170 170 127
3.464233 -18.437271 0.817 170 170 127
3.50855 -18.431793 0.815 170 170 127
3.468972 -18.46101 0.809 170 170 127
3.371157 -18.503202 0.802 170 170 127
3.435734 -18.479988 0.805 170 170 127
3.457911 -18.445272 0.815 170 170 127
3.45848 -18.488211 0.799 170 170 127
3.376621 -18.490273 0.806 170 170 127
3.42188 -18.478542 0.806 170 170 127
3.468972 -18.46101 0.808 170 170 127
3.351588 -18.488741 0.809 170 170 127
3.338156 -18.490875 0.809 170 170 127
3.418685 -18.487015 0.803 170 170 127
3.521749 -18.401482 0.825 170 170 127
3.383397 -18.48138 0.808 170 170 127
3.455573 -18.458672 0.81 170 170 127
3.487637 -18.41777 0.822 170 170 127
3.383415 -18.479145 0.809 170 170 127
3.367745 -18.48126 0.81 170 170 127
3.428401 -18.503189 0.797 170 170 127
3.483551 -18.425791 0.82 170 170 127
3.441029 -18.48942 0.8 170 170 127
3.518084 -18.413082 0.821 170 170 127
3.365072 -18.479898 0.811 170 170 127
3.397114 -18.500715 0.8 170 170 127
3.320285 -18.488504 0.811 170 170 127
3.334086 -18.496658 0.807 170 170 127
3.446426 -18.485437 0.802 170 170 127
3.370033 -18.474569 0.812 170 170 127
3.454177 -18.465818 0.808 170 170 127
3.492461 -18.43033 0.817 170 170 127
3.378976 -18.474638 0.811 170 170 127
3.392965 -18.458197 0.816 170 170 127
3.380622 -18.493435 0.804 170 170 127
3.391365 -18.492174 0.804 170 170 127
3.447181 -18.503778 0.795 170 170 127
3.453456 -18.443003 0.816 170 170 127
3.351066 -18.498577 0.805 170 170 127
3.460567 -18.44887 0.813 170 170 127
3.49737 -18.431709 0.816 170 170 127
3.099434 -18.124573 0.059 170 170 127
3.109774 -18.117496 0.057 170 170 127
3.096994 -18.151388 0.074 170 170 127
3.099014 -18.120993 0.056 170 170 127
3.102056 -18.132645 0.064 170 170 127
3.156594 -18.13574 0.079 170 170 127
3.136101 -18.125299 0.068 170 170 127
3.120937 -18.119818 0.061 170 170 127
3.105369 -18.108519 0.051 170 170 127
3.112277 -18.141218 0.071 170 170 127
3.106176 -18.120153 0.058 170 170 127
3.147196 -18.136564 0.077 170 170 127
3.118009 -18.151997 0.079 170 170 127
3.133025 -18.11812 0.063 170 170 127
3.121691 -18.138161 0.072 170 170 127
3.111301 -18.151945 0.077 170 170 127
3.099702 -18.148279 0.072 170 170 127
3.184703 -18.144451 0.091 170 170 127
3.130335 -18.118994 0.063 170 170 127
3.178381 -18.152454 0.094 170 170 127
3.087295 -18.132978 0.06 170 170 127
3.219033 -18.158577 0.107 170 170 127
3.142151 -18.153074 0.085 170 170 127
3.09839 -18.144243 0.069 170 170 127
3.187796 -18.149395 0.094 170 170 127
3.148456 -18.147306 0.084 170 170 127
3.116112 -18.107258 0.053 170 170 127
3.219033 -18.158577 0.107 170 170 127
3.180617 -18.15247 0.094 170 170 127
3.16135 -18.157244 0.092 170 170 127
3.171253 -18.148821 0.09 170 170 127
3.202926 -18.159348 0.104 170 170 127
3.159317 -18.130396 0.076 170 170 127
3.173036 -18.149731 0.091 170 170 127
3.117759 -18.126055 0.064 170 170 127
3.165118 -18.132229 0.079 170 170 127
3.136436 -18.14006 0.076 170 170 127
3.205633 -18.156239 0.103 170 170 127
3.111959 -18.124222 0.061 170 170 127
3.079764 -18.123529 0.053 170 170 127
3.124416 -18.132812 0.069 170 170 127
3.127038 -18.140884 0.074 170 170 127
3.100694 -18.135317 0.065 170 170 127
3.105166 -18.135351 0.066 170 170 127
3.130097 -18.150299 0.081 170 170 127
3.147718 -18.12673 0.072 170 170 127
3.168092 -18.152822 0.091 170 170 127
3.165135 -18.129992 0.078 170 170 127
3.111119 -18.11706 0.057 170 170 127
3.122248 -18.123852 0.064 170 170 127
3.080116 -18.136055 0.06 170 170 127
3.119239 -18.107729 0.054 170 170 127
3.1632 -18.149208 0.088 170 170 127
3.119541 -18.126963 0.065 170 170 127
3.198472 -18.157078 0.101 170 170 127
3.236539 -18.091177 0.057 170 170 127
3.16522 -18.118811 0.069 170 170 127
3.16396 -18.108068 0.061 170 170 127
3.159471 -18.110271 0.061 170 170 127
3.16875 -18.125101 0.075 170 170 127
3.224985 -18.140285 0.094 170 170 127
3.129966 -18.108706 0.056 170 170 127
3.211484 -18.151363 0.101 170 170 127
3.144675 -18.115078 0.063 170 170 127
3.226313 -18.142084 0.096 170 170 127
3.230433 -18.129593 0.087 170 170 127
3.218697 -18.143816 0.096 170 170 127
3.240607 -18.085394 0.054 170 170 127
3.200003 -18.132046 0.084 170 170 127
3.220144 -18.129963 0.085 170 170 127
3.221659 -18.107164 0.068 170 170 127
3.189129 -18.091713 0.051 170 170 127
3.189327 -18.124361 0.077 170 170 127
3.174248 -18.1077 0.061 170 170 127
3.226211 -18.1555 0.106 170 170 127
3.189985 -18.096638 0.055 170 170 127
3.226233 -18.093782 0.058 170 170 127
3.220161 -18.127726 0.084 170 170 127
3.147014 -18.101679 0.053 170 170 127
3.206545 -18.094975 0.056 170 170 127
3.231608 -18.151516 0.104 170 170 127
3.211518 -18.146893 0.097 170 170 127
3.237396 -18.096104 0.061 170 170 127
3.230331 -18.143009 0.098 170 170 127
3.223407 -18.112545 0.072 170 170 127
3.181309 -18.120275 0.072 170 170 127
3.229406 -18.147028 0.1 170 170 127
3.158142 -18.108473 0.06 170 170 127
3.187142 -18.117636 0.071 170 170 127
3.227994 -18.156408 0.108 170 170 127
3.22507 -18.129105 0.085 170 170 127
3.224014 -18.09153 0.056 170 170 127
3.229071 -18.132265 0.089 170 170 127
3.229945 -18.134956 0.091 170 170 127
3.215808 -18.112041 0.071 170 170 127
3.136708 -18.104284 0.054 170 170 127
3.235699 -18.084017 0.051 170 170 127
3.161201 -18.117887 0.068 170 170 127
3.17746 -18.096991 0.054 170 170 127
3.210814 -18.121841 0.078 170 170 127
3.161605 -18.123705 0.072 170 170 127
3.182183 -18.122965 0.074 170 170 127
3.2244 -18.099583 0.062 170 170 127
3.224315 -18.110764 0.071 170 170 127
3.224298 -18.112999 0.073 170 170 127
3.182251 -18.114021 0.068 170 170 127
3.187512 -18.127926 0.079 170 170 127
3.234854 -18.136335 0.093 170 170 127
3.197716 -18.138737 0.089 170 170 127
3.177694 -18.125168 0.076 170 170 127
3.161168 -18.122358 0.071 170 170 127
3.177477 -18.094755 0.052 170 170 127
3.229928 -18.137194 0.093 170 170 127
3.169845 -18.098722 0.054 170 170 127
3.207954 -18.145077 0.096 170 170 127
3.148223 -18.119131 0.066 170 170 127
3.201247 -18.145025 0.095 170 170 127
3.18119 -18.135927 0.085 170 170 127
3.184521 -18.109566 0.064 170 170 127
3.134751 -18.185217 0.093 170 170 127
3.212137 -18.183121 0.113 170 170 127
3.195696 -18.169132 0.105 170 170 127
3.190248 -18.179825 0.107 170 170 127
3.205781 -18.195595 0.115 170 170 127
3.219232 -18.191225 0.117 170 170 127
3.154842 -18.189842 0.1 170 170 127
3.219418 -18.16663 0.11 170 170 127
3.153951 -18.189388 0.1 170 170 127
3.175874 -18.188213 0.105 170 170 127
3.203109 -18.194233 0.114 170 170 127
3.155698 -18.194769 0.102 170 170 127
3.214459 -18.171959 0.111 170 170 127
3.150421 -18.1831 0.097 170 170 127
3.222528 -18.169336 0.112 170 170 127
3.21333 -18.202808 0.119 170 170 127
3.120025 -18.18108 0.088 170 170 127
3.219197 -18.195698 0.119 170 170 127
3.174211 -18.171654 0.1 170 170 127
3.195442 -18.202673 0.114 170 170 127
3.176345 -18.185085 0.104 170 170 127
3.218947 -18.169756 0.111 170 170 127
3.137039 -18.178526 0.092 170 170 127
3.131256 -18.174458 0.09 170 170 127
3.18522 -18.194098 0.109 170 170 127
3.124985 -18.175753 0.088 170 170 127
3.224259 -18.176952 0.115 170 170 127
3.228731 -18.176987 0.116 170 170 127
3.224896 -18.210947 0.124 170 170 127
3.145562 -18.175013 0.093 170 170 127
3.229924 -18.196672 0.122 170 170 127
3.195896 -18.201782 0.114 170 170 127
3.149143 -18.174593 0.094 170 170 127
3.125404 -18.179333 0.089 170 170 127
3.172429 -18.170746 0.099 170 170 127
3.19884 -18.167368 0.105 170 170 127
3.208557 -18.183542 0.112 170 170 127
3.165636 -18.181873 0.101 170 170 127
3.192383 -18.193258 0.111 170 170 127
3.18424 -18.264305 0.051 170 170 127
3.240009 -18.223137 0.117 170 170 127
3.274287 -18.243969 0.083 170 170 127
3.23468 -18.218176 0.123 170 170 127
3.275195 -18.242188 0.082 170 170 127
3.245389 -18.221388 0.112 170 170 127
3.245372 -18.223623 0.112 170 170 127
3.250667 -18.233057 0.106 170 170 127
3.30117 -18.237465 0.057 170 170 127
3.293724 -18.216835 0.066 170 170 127
3.305103 -18.249569 0.053 170 170 127
3.285972 -18.236454 0.072 170 170 127
3.290631 -18.211893 0.069 170 170 127
3.30667 -18.220064 0.053 170 170 127
3.289134 -18.232454 0.069 170 170 127
3.235134 -18.217285 0.122 170 170 127
3.280779 -18.213608 0.078 170 170 127
3.303457 -18.230774 0.055 170 170 127
3.303759 -18.250006 0.055 170 170 127
3.281046 -18.237312 0.077 170 170 127
3.299121 -18.212851 0.061 170 170 127
3.291404 -18.227999 0.067 170 170 127
3.279837 -18.21986 0.079 170 170 127
3.304989 -18.20574 0.055 170 170 127
3.276541 -18.241751 0.081 170 170 127
3.236042 -18.215504 0.121 170 170 127
3.296444 -18.270971 0.06 170 170 127
3.274338 -18.237261 0.083 170 170 127
3.306771 -18.206648 0.053 170 170 127
3.287503 -18.211422 0.071 170 170 127
3.259226 -18.225071 0.099 170 170 127
3.289939 -18.244087 0.068 170 170 127
3.297857 -18.261589 0.059 170 170 127
3.27318 -18.213102 0.085 170 170 127
3.284089 -18.248962 0.073 170 170 127
3.275297 -18.228771 0.082 170 170 127
3.27876 -18.244003 0.078 170 170 127
3.271716 -18.229191 0.086 170 170 127
3.299103 -18.215088 0.061 170 170 127
3.288242 -18.232 0.07 170 170 127
3.286159 -18.211859 0.073 170 170 127
3.30142 -18.263405 0.056 170 170 127
3.295977 -18.214617 0.063 170 170 127
3.281097 -18.230604 0.077 170 170 127
3.243607 -18.22048 0.113 170 170 127
3.267346 -18.21574 0.091 170 170 127
3.269298 -18.19429 0.107 170 170 127
3.390716 -18.165247 0.054 170 170 127
3.273838 -18.185379 0.103 170 170 127
3.286413 -18.178318 0.096 170 170 127
3.237591 -18.188234 0.118 170 170 127
3.348602 -18.175213 0.072 170 170 127
3.274274 -18.186724 0.103 170 170 127
3.36733 -18.18251 0.067 170 170 127
3.319131 -18.169176 0.082 170 170 127
3.26654 -18.204107 0.11 170 170 127
3.372778 -18.171818 0.062 170 170 127
3.280932 -18.193481 0.102 170 170 127
3.297424 -18.200764 0.098 170 170 127
3.329283 -18.186693 0.082 170 170 127
3.400518 -18.17024 0.051 170 170 127
3.251881 -18.191027 0.113 170 170 127
3.350905 -18.166286 0.069 170 170 127
3.277754 -18.199718 0.105 170 170 127
3.242835 -18.204374 0.119 170 170 127
3.246415 -18.203955 0.118 170 170 127
3.338381 -18.166637 0.074 170 170 127
3.24978 -18.17312 0.109 170 170 127
3.277083 -18.170197 0.098 170 170 127
3.366575 -18.164169 0.062 170 170 127
3.403174 -18.173838 0.051 170 170 127
3.325737 -18.182642 0.082 170 170 127
3.279234 -18.181395 0.1 170 170 127
3.320322 -18.188862 0.086 170 170 127
3.26923 -18.203232 0.109 170 170 127
3.305982 -18.192778 0.093 170 170 127
3.235791 -18.189562 0.118 170 170 127
3.307832 -18.184742 0.09 170 170 127
3.298048 -18.177513 0.092 170 170 127
3.239725 -18.201668 0.12 170 170 127
3.248923 -18.168196 0.108 170 170 127
3.292112 -18.193567 0.098 170 170 127
3.240366 -18.17618 0.113 170 170 127
3.391051 -18.180008 0.057 170 170 127
3.25469 -18.1745 0.108 170 170 127
3.297509 -18.189583 0.095 170 170 127
3.299325 -18.18602 0.093 170 170 127
3.307866 -18.180269 0.089 170 170 127
3.232058 -18.210108 0.125 170 170 127
3.299677 -18.198544 0.096 170 170 127
3.323586 -18.171446 0.081 170 170 127
3.252504 -18.167776 0.107 170 170 127
3.303411 -18.177999 0.09 170 170 127
3.330141 -18.19162 0.083 170 170 127
3.28638 -18.182791 0.098 170 170 127
3.32219 -18.178591 0.083 170 170 127
3.286936 -18.168484 0.094 170 170 127
3.244014 -18.166815 0.11 170 170 127
3.237422 -18.210594 0.123 170 170 127
3.39196 -18.178225 0.056 170 170 127
3.235541 -18.163622 0.113 170 170 127
3.319835 -18.194225 0.088 170 170 127
3.276193 -18.169744 0.098 170 170 127
3.275739 -18.170635 0.099 170 170 127
3.286952 -18.166248 0.093 170 170 127
3.258691 -18.177662 0.107 170 170 127
3.400954 -18.171585 0.051 170 170 127
3.342768 -18.177853 0.075 170 170 127
3.288968 -18.195333 0.1 170 170 127
3.312253 -18.191484 0.09 170 170 127
3.286482 -18.169374 0.094 170 170 127
3.37002 -18.181637 0.066 170 170 127
3.384025 -18.16296 0.056 170 170 127
3.298769 -18.200327 0.097 170 170 127
3.321032 -18.154432 0.076 170 170 127
3.327269 -18.15761 0.075 170 170 127
3.297293 -18.15917 0.087 170 170 127
3.317416 -18.159323 0.08 170 170 127
3.365734 -18.157007 0.06 170 170 127
3.346989 -18.151945 0.065 170 170 127
3.318342 -18.155306 0.078 170 170 127
3.362255 -18.144011 0.056 170 170 127
3.361297 -18.1525 0.06 170 170 127
3.357834 -18.137268 0.054 170 170 127
3.349646 -18.155542 0.066 170 170 127
3.34082 -18.139822 0.062 170 170 127
3.303564 -18.157877 0.084 170 170 127
3.355429 -18.159611 0.065 170 170 127
3.306758 -18.149403 0.079 170 170 127
3.317031 -18.15127 0.076 170 170 127
3.32199 -18.145941 0.072 170 170 127
3.34119 -18.150112 0.067 170 170 127
3.276294 -18.156328 0.094 170 170 127
3.122782 -18.171263 0.086 170 170 127
3.095479 -18.174187 0.08 170 170 127
3.108475 -18.170708 0.082 170 170 127
3.108929 -18.169815 0.082 170 170 127
3.167536 -18.16713 0.097 170 170 127
3.091024 -18.171915 0.078 170 170 127
3.136737 -18.159292 0.087 170 170 127
3.127271 -18.16906 0.087 170 170 127
3.117085 -18.156013 0.081 170 170 127
3.142554 -18.15889 0.088 170 170 127
3.095615 -18.156298 0.075 170 170 127
3.108544 -18.161762 0.08 170 170 127
3.10856 -18.159527 0.079 170 170 127
3.135358 -18.164202 0.088 170 170 127
3.097278 -18.172857 0.08 170 170 127
3.122414 -18.160975 0.083 170 170 127
3.22616 -18.162209 0.111 170 170 127
3.17828 -18.165871 0.1 170 170 127
3.110359 -18.158199 0.079 170 170 127
3.49577 -18.229998 0.497 170 170 127
3.521058 -18.197989 0.567 170 170 127
3.525984 -18.197132 0.567 170 170 127
3.536257 -18.198999 0.556 170 170 127
3.498999 -18.217052 0.53 170 170 127
3.537516 -18.209742 0.525 170 170 127
3.505237 -18.22023 0.518 170 170 127
3.454025 -18.250254 0.467 170 170 127
3.506632 -18.213085 0.535 170 170 127
3.507558 -18.209066 0.547 170 170 127
3.513777 -18.214481 0.527 170 170 127
3.47067 -18.23741 0.493 170 170 127
3.502598 -18.214396 0.535 170 170 127
3.534423 -18.2048 0.542 170 170 127
3.48328 -18.225878 0.514 170 170 127
3.53708 -18.208397 0.531 170 170 127
3.516484 -18.21137 0.535 170 170 127
3.523765 -18.19488 0.573 170 170 127
3.526926 -18.190878 0.581 170 170 127
3.532306 -18.189129 0.583 170 170 127
3.536676 -18.202579 0.545 170 170 127
3.515491 -18.224333 0.5 170 170 127
3.53402 -18.198982 0.558 170 170 127
3.48232 -18.234367 0.493 170 170 127
3.456278 -18.248034 0.472 170 170 127
3.520638 -18.194408 0.576 170 170 127
3.534945 -18.194963 0.566 170 170 127
3.460347 -18.24225 0.483 170 170 127
3.512449 -18.212683 0.532 170 170 127
3.511559 -18.212229 0.534 170 170 127
3.532205 -18.202545 0.549 170 170 127
3.494057 -18.220146 0.524 170 170 127
3.531194 -18.217743 0.51 170 170 127
3.467055 -18.242302 0.48 170 170 127
3.501571 -18.231831 0.488 170 170 127
3.533113 -18.200764 0.553 170 170 127
3.518805 -18.200209 0.562 170 170 127
3.514753 -18.203754 0.555 170 170 127
3.507961 -18.214884 0.529 170 170 127
3.503891 -18.220667 0.518 170 170 127
3.46798 -18.238283 0.49 170 170 127
3.528674 -18.196259 0.567 170 170 127
3.524521 -18.213221 0.526 170 170 127
3.515224 -18.200628 0.562 170 170 127
3.527278 -18.203403 0.549 170 170 127
3.503085 -18.209032 0.547 170 170 127
3.518771 -18.204679 0.551 170 170 127
3.511121 -18.210882 0.539 170 170 127
3.535752 -18.206598 0.536 170 170 127
3.532221 -18.20031 0.554 170 170 127
3.522387 -18.199787 0.562 170 170 127
3.539719 -18.214231 0.513 170 170 127
3.536557 -18.218231 0.505 170 170 127
3.523595 -18.217239 0.515 170 170 127
3.464365 -18.243176 0.479 170 170 127
3.478353 -18.226734 0.515 170 170 127
3.526251 -18.220837 0.505 170 170 127
3.124581 -17.934246 0.374 170 170 127
3.141545 -17.9384 0.404 170 170 127
3.137543 -17.935238 0.384 170 170 127
3.141999 -17.93751 0.399 170 170 127
3.126818 -17.934263 0.376 170 170 127
3.124145 -17.932901 0.368 170 170 127
3.124111 -17.937374 0.396 170 170 127
3.147328 -17.942469 0.426 170 170 127
3.140671 -17.935711 0.389 170 170 127
3.14289 -17.937963 0.398 170 170 127
3.126347 -17.937389 0.392 170 170 127
3.130836 -17.935188 0.381 170 170 127
3.123657 -17.938263 0.398 170 170 127
3.141528 -17.940636 0.418 170 170 127
3.125943 -17.931572 0.356 170 170 127
3.16054 -18.205091 0.417 170 170 127
3.193261 -18.136467 0.415 170 170 127
3.135922 -18.266623 0.418 170 170 127
3.202549 -18.268023 0.407 170 170 127
3.262102 -18.1996 0.4 170 170 127
3.288849 -18.210985 0.395 170 170 127
3.243026 -18.120298 0.407 170 170 127
3.232882 -18.219505 0.404 170 170 127
3.222024 -18.176935 0.408 170 170 127
3.113028 -17.983353 0.436 170 170 127
3.169285 -18.17251 0.417 170 170 127
3.160391 -18.165735 0.419 170 170 127
3.108327 -18.13135 0.43 170 170 127
3.148936 -18.025217 0.428 170 170 127
3.127331 -18.279078 0.419 170 170 127
3.184173 -18.273249 0.41 170 170 127
3.19402 -18.095327 0.417 170 170 127
3.19534 -18.216089 0.411 170 170 127
3.160425 -18.161263 0.419 170 170 127
3.066458 -18.226738 0.432 170 170 127
3.104224 -18.141605 0.43 170 170 127
3.329131 -18.20682 0.388 170 170 127
3.084295 -18.233582 0.429 170 170 127
3.14563 -18.166069 0.422 170 170 127
3.284644 -18.234655 0.395 170 170 127
3.025496 -18.320345 0.434 170 170 127
3.240106 -18.269201 0.401 170 170 127
3.258338 -18.165136 0.403 170 170 127
3.16612 -18.235992 0.415 170 170 127
3.210797 -18.124077 0.413 170 170 127
3.175398 -18.25082 0.413 170 170 127
3.182229 -18.175739 0.415 170 170 127
3.119991 -18.185553 0.425 170 170 127
3.17679 -18.067469 0.421 170 170 127
3.083056 -18.161121 0.432 170 170 127
3.072967 -18.194139 0.433 170 170 127
3.293707 -18.219072 0.394 170 170 127
3.209499 -18.177288 0.41 170 170 127
3.211539 -18.085175 0.414 170 170 127
3.114848 -18.155996 0.427 170 170 127
3.145604 -18.287268 0.416 170 170 127
3.207932 -18.206793 0.409 170 170 127
3.240234 -18.134588 0.407 170 170 127
3.114572 -18.251253 0.423 170 170 127
3.158193 -18.101763 0.423 170 170 127
3.224231 -18.121943 0.411 170 170 127
3.06706 -18.265203 0.43 170 170 127
3.215566 -18.202826 0.408 170 170 127
3.305205 -18.236155 0.391 170 170 127
3.10304 -18.002954 0.437 170 170 127
3.251863 -18.193262 0.402 170 170 127
3.178419 -18.088501 0.42 170 170 127
3.092904 -18.218889 0.428 170 170 127
3.145571 -18.29174 0.415 170 170 127
3.145673 -18.278324 0.416 170 170 127
3.102098 -18.009209 0.437 170 170 127
3.127377 -18.096165 0.428 170 170 127
3.090006 -18.070387 0.436 170 170 127
3.197996 -18.219687 0.41 170 170 127
3.308252 -18.188324 0.393 170 170 127
3.189612 -18.14583 0.415 170 170 127
3.275467 -18.206411 0.398 170 170 127
3.239721 -18.261148 0.401 170 170 127
3.196757 -18.147226 0.414 170 170 127
3.247455 -18.243765 0.401 170 170 127
3.163819 -18.185438 0.418 170 170 127
3.047412 -18.202444 0.437 170 170 127
3.110321 -17.986464 0.437 170 170 127
3.033906 -18.273003 0.435 170 170 127
3.215587 -18.141109 0.411 170 170 127
3.070293 -18.192778 0.433 170 170 127
3.100511 -18.100431 0.433 170 170 127
3.055935 -18.198931 0.435 170 170 127
3.231298 -18.251245 0.403 170 170 127
3.219941 -18.156794 0.41 170 170 127
3.059534 -18.196276 0.435 170 170 127
3.240782 -18.239243 0.402 170 170 127
3.078784 -18.193737 0.432 170 170 127
3.19943 -18.148588 0.413 170 170 127
3.119969 -18.247271 0.422 170 170 127
3.033873 -18.277475 0.435 170 170 127
3.180443 -18.234312 0.412 170 170 127
3.13106 -18.082327 0.428 170 170 127
3.131133 -18.013903 0.432 170 170 127
3.105251 -18.12417 0.431 170 170 127
3.197033 -18.287659 0.407 170 170 127
3.261211 -18.199146 0.4 170 170 127
3.099183 -18.098633 0.433 170 170 127
3.096358 -18.117395 0.433 170 170 127
3.101831 -18.221193 0.426 170 170 127
3.025496 -18.320345 0.434 170 170 127
3.070217 -18.320684 0.427 170 170 127
3.136618 -18.174946 0.423 170 170 127
3.182823 -18.097479 0.419 170 170 127
3.225083 -18.18635 0.407 170 170 127
3.209901 -18.183105 0.41 170 170 127
3.295688 -18.252628 0.392 170 170 127
3.12742 -18.208418 0.423 170 170 127
3.26435 -18.256863 0.397 170 170 127
3.073577 -18.113644 0.437 170 170 127
3.151787 -18.120947 0.423 170 170 127
3.147641 -18.254637 0.417 170 170 127
3.152923 -18.206823 0.418 170 170 127
3.179985 -18.058996 0.421 170 170 127
3.123342 -18.097473 0.429 170 170 127
3.082627 -18.276503 0.427 170 170 127
3.204772 -18.210794 0.409 170 170 127
3.152109 -18.078463 0.425 170 170 127
3.051209 -18.232437 0.434 170 170 127
3.130602 -18.1427 0.425 170 170 127
3.277669 -18.210899 0.397 170 170 127
3.084028 -18.209877 0.43 170 170 127
3.204835 -18.261332 0.407 170 170 127
3.233912 -18.14259 0.408 170 170 127
3.084953 -18.205858 0.43 170 170 127
3.077795 -18.147219 0.434 170 170 127
3.210283 -18.250639 0.407 170 170 127
3.16183 -18.270844 0.414 170 170 127
3.164727 -18.183657 0.418 170 170 127
3.063496 -18.263388 0.431 170 170 127
3.099451 -18.122337 0.432 170 170 127
3.191615 -18.117672 0.416 170 170 127
3.199443 -18.205833 0.411 170 170 127
3.206982 -18.096321 0.415 170 170 127
3.235287 -18.197161 0.405 170 170 127
3.159916 -18.228342 0.416 170 170 127
3.203809 -18.278765 0.406 170 170 127
3.179802 -18.2598 0.411 170 170 127
3.146127 -18.041744 0.428 170 170 127
3.119312 -18.274992 0.421 170 170 127
3.197928 -18.22863 0.41 170 170 127
3.157129 -18.183151 0.419 170 170 127
3.120704 -18.09164 0.43 170 170 127
3.218875 -18.23818 0.406 170 170 127
3.037925 -18.273928 0.435 170 170 127
3.116897 -18.180611 0.426 170 170 127
3.115718 -18.218168 0.424 170 170 127
3.162331 -18.087038 0.423 170 170 127
3.202837 -18.230009 0.409 170 170 127
3.199986 -18.134281 0.414 170 170 127
3.210101 -18.215754 0.408 170 170 127
3.132049 -18.128847 0.426 170 170 127
3.075928 -18.15749 0.434 170 170 127
3.266977 -18.205452 0.399 170 170 127
3.240544 -18.270546 0.4 170 170 127
3.086251 -18.152649 0.432 170 170 127
3.114806 -18.27943 0.421 170 170 127
3.171805 -18.193996 0.416 170 170 127
3.251172 -18.225456 0.401 170 170 127
3.116656 -18.035706 0.433 170 170 127
3.129036 -18.172205 0.424 170 170 127
3.203893 -18.267584 0.407 170 170 127
3.028373 -18.294874 0.435 170 170 127
3.286846 -18.239145 0.394 170 170 127
3.101623 -18.307507 0.422 170 170 127
3.24645 -18.199482 0.403 170 170 127
3.192536 -18.173134 0.413 170 170 127
3.14513 -18.114187 0.424 170 170 127
3.037937 -18.331173 0.432 170 170 127
3.016939 -18.328331 0.436 170 170 127
3.128926 -18.068893 0.429 170 170 127
3.166132 -18.293238 0.412 170 170 127
3.147293 -18.182631 0.421 170 170 127
3.140747 -18.279181 0.417 170 170 127
3.344092 -18.239132 0.384 170 170 127
3.124391 -18.254011 0.421 170 170 127
3.060713 -18.158716 0.436 170 170 127
3.043033 -18.307955 0.432 170 170 127
3.194148 -18.196402 0.412 170 170 127
3.067799 -18.285782 0.429 170 170 127
3.191911 -18.196384 0.412 170 170 127
3.066912 -18.225847 0.432 170 170 127
3.203817 -18.159803 0.412 170 170 127
3.25844 -18.15172 0.403 170 170 127
3.183838 -18.258488 0.411 170 170 127
3.13456 -18.033606 0.43 170 170 127
3.125413 -18.060371 0.43 170 170 127
3.057628 -18.2705 0.432 170 170 127
3.03977 -18.325373 0.432 170 170 127
3.063955 -18.203016 0.434 170 170 127
3.178156 -18.241003 0.413 170 170 127
3.25225 -18.201315 0.402 170 170 127
3.168368 -18.057566 0.423 170 170 127
3.283095 -18.261925 0.394 170 170 127
3.105314 -18.174707 0.428 170 170 127
3.110775 -17.985573 0.436 170 170 127
3.316975 -18.217459 0.39 170 170 127
3.026626 -18.289495 0.436 170 170 127
3.1741 -18.068342 0.422 170 170 127
3.073891 -18.190123 0.433 170 170 127
3.248758 -18.131075 0.406 170 170 127
3.125129 -18.038902 0.431 170 170 127
3.052151 -18.226183 0.434 170 170 127
3.327078 -18.241686 0.387 170 170 127
3.193444 -18.171352 0.413 170 170 127
3.186532 -18.198132 0.413 170 170 127
3.10419 -18.146076 0.43 170 170 127
3.164502 -18.272205 0.413 170 170 127
3.056686 -18.276754 0.431 170 170 127
3.321515 -18.208549 0.39 170 170 127
3.285871 -18.24987 0.394 170 170 127
3.299626 -18.205252 0.394 170 170 127
3.118789 -18.284828 0.42 170 170 127
3.115777 -18.092497 0.43 170 170 127
3.138765 -18.245623 0.419 170 170 127
3.098491 -18.130827 0.431 170 170 127
3.139092 -18.14366 0.424 170 170 127
3.087066 -18.28101 0.426 170 170 127
3.220899 -18.148304 0.41 170 170 127
3.138205 -18.083723 0.427 170 170 127
3.12938 -18.303692 0.418 170 170 127
3.193431 -18.114107 0.416 170 170 127
3.253463 -18.159285 0.404 170 170 127
3.132863 -18.021519 0.431 170 170 127
3.135401 -18.040768 0.43 170 170 127
3.130216 -18.134647 0.426 170 170 127
3.159996 -18.040955 0.425 170 170 127
3.105175 -18.252077 0.424 170 170 127
3.147964 -18.212152 0.419 170 170 127
3.116011 -18.120674 0.429 170 170 127
3.133152 -18.219194 0.421 170 170 127
3.279804 -18.224333 0.396 170 170 127
3.221731 -18.274427 0.403 170 170 127
3.119783 -18.036179 0.433 170 170 127
3.199375 -18.214779 0.41 170 170 127
3.245512 -18.146255 0.406 170 170 127
3.204123 -18.119555 0.414 170 170 127
3.123585 -18.006689 0.433 170 170 127
3.182773 -18.104187 0.419 170 170 127
3.098246 -18.281094 0.424 170 170 127
3.103015 -18.124153 0.431 170 170 127
3.098819 -18.028862 0.436 170 170 127
3.167889 -18.179655 0.417 170 170 127
3.06157 -18.163643 0.436 170 170 127
3.04092 -18.232805 0.436 170 170 127
3.224137 -18.252085 0.404 170 170 127
3.215507 -18.092808 0.414 170 170 127
3.19335 -18.065805 0.418 170 170 127
3.16351 -18.049479 0.424 170 170 127
3.251427 -18.191917 0.403 170 170 127
3.102794 -18.153221 0.43 170 170 127
3.210598 -18.091429 0.414 170 170 127
3.120449 -18.125181 0.428 170 170 127
3.129588 -18.217379 0.422 170 170 127
3.083913 -18.166048 0.432 170 170 127
3.168206 -18.196651 0.416 170 170 127
3.144557 -18.13073 0.424 170 170 127
3.237982 -18.136806 0.407 170 170 127
3.052986 -18.292826 0.431 170 170 127
3.174443 -18.199829 0.415 170 170 127
3.15611 -18.081623 0.424 170 170 127
3.167002 -18.11972 0.42 170 170 127
3.052011 -18.303553 0.431 170 170 127
3.080001 -18.092226 0.436 170 170 127
3.110185 -18.004351 0.436 170 170 127
3.09354 -18.252884 0.426 170 170 127
3.218943 -18.229239 0.406 170 170 127
3.082263 -18.206734 0.43 170 170 127
3.222427 -18.182753 0.408 170 170 127
3.104135 -18.212265 0.426 170 170 127
3.09626 -18.071329 0.435 170 170 127
3.140853 -18.206284 0.421 170 170 127
3.080112 -18.195536 0.431 170 170 127
3.326271 -18.230053 0.388 170 170 127
3.083264 -18.310497 0.425 170 170 127
3.114802 -18.103224 0.43 170 170 127
3.209579 -18.225588 0.408 170 170 127
3.146967 -18.048906 0.427 170 170 127
3.124607 -18.284426 0.419 170 170 127
3.254185 -18.182098 0.402 170 170 127
3.171805 -18.193996 0.416 170 170 127
3.128065 -18.123449 0.427 170 170 127
3.170226 -18.166256 0.418 170 170 127
3.353926 -18.239655 0.383 170 170 127
3.166374 -18.202452 0.416 170 170 127
3.109477 -18.274471 0.422 170 170 127
3.081049 -18.248764 0.429 170 170 127
3.130802 -18.175348 0.424 170 170 127
3.166199 -18.284294 0.412 170 170 127
3.092798 -18.056097 0.436 170 170 127
3.13409 -18.272421 0.418 170 170 127
3.243879 -18.184704 0.404 170 170 127
3.356651 -18.234308 0.383 170 170 127
3.187049 -18.24778 0.411 170 170 127
3.090213 -18.219763 0.428 170 170 127
3.148745 -18.109295 0.424 170 170 127
3.068707 -18.284 0.429 170 170 127
3.181576 -18.14398 0.417 170 170 127
3.113465 -17.984699 0.436 170 170 127
3.072623 -18.298342 0.428 170 170 127
3.142847 -18.061398 0.427 170 170 127
3.154934 -18.295389 0.414 170 170 127
3.127522 -18.195002 0.423 170 170 127
3.189943 -18.220074 0.412 170 170 127
3.279115 -18.197046 0.397 170 170 127
3.164693 -18.188128 0.417 170 170 127
3.287305 -18.178772 0.397 170 170 127
3.139657 -18.246077 0.419 170 170 127
3.081584 -18.296173 0.426 170 170 127
3.093575 -18.248411 0.426 170 170 127
3.315244 -18.209843 0.391 170 170 127
3.164655 -18.252081 0.414 170 170 127
3.201187 -18.270695 0.407 170 170 127
3.158826 -18.195238 0.418 170 170 127
3.126507 -18.26968 0.42 170 170 127
3.084758 -18.113729 0.435 170 170 127
3.121263 -18.25354 0.422 170 170 127
3.053662 -18.262867 0.432 170 170 127
3.048702 -18.268196 0.433 170 170 127
3.099391 -18.01232 0.437 170 170 127
3.191805 -18.269281 0.409 170 170 127
3.330642 -18.243502 0.387 170 170 127
3.324137 -18.216619 0.389 170 170 127
3.087189 -18.205875 0.43 170 170 127
3.189298 -18.069353 0.419 170 170 127
3.22165 -18.226128 0.406 170 170 127
3.226912 -18.240032 0.404 170 170 127
3.150327 -18.077555 0.425 170 170 127
3.135553 -18.256332 0.419 170 170 127
3.253659 -18.251415 0.399 170 170 127
3.131006 -18.148516 0.425 170 170 127
3.271114 -18.190725 0.399 170 170 127
3.127399 -18.270136 0.42 170 170 127
3.195573 -18.244267 0.409 170 170 127
3.21274 -18.221588 0.408 170 170 127
3.053195 -18.206512 0.435 170 170 127
3.325732 -18.242125 0.387 170 170 127
3.133317 -18.020626 0.431 170 170 127
3.117814 -18.295553 0.42 170 170 127
3.297606 -18.235649 0.392 170 170 127
3.066249 -18.313051 0.428 170 170 127
3.285205 -18.160868 0.398 170 170 127
3.194343 -18.288532 0.407 170 170 127
3.197232 -18.084618 0.417 170 170 127
3.102845 -18.146515 0.43 170 170 127
3.215104 -18.08699 0.414 170 170 127
3.072597 -18.183851 0.433 170 170 127
3.118315 -18.111748 0.429 170 170 127
3.267982 -18.249735 0.397 170 170 127
3.131718 -18.290293 0.418 170 170 127
3.225214 -18.227943 0.405 170 170 127
3.092782 -18.058334 0.436 170 170 127
3.288718 -18.169392 0.397 170 170 127
3.12851 -18.005833 0.433 170 170 127
3.216707 -18.229219 0.407 170 170 127
3.160748 -18.118778 0.421 170 170 127
3.115752 -18.213696 0.424 170 170 127
3.264559 -18.170549 0.401 170 170 127
3.113559 -18.090244 0.431 170 170 127
3.060857 -18.257555 0.431 170 170 127
3.140374 -18.092684 0.426 170 170 127
3.229589 -18.181913 0.407 170 170 127
3.275892 -18.150511 0.4 170 170 127
3.168873 -18.049967 0.424 170 170 127
3.182166 -18.125202 0.418 170 170 127
3.126558 -18.262972 0.42 170 170 127
3.094189 -18.108433 0.433 170 170 127
3.054794 -18.172535 0.437 170 170 127
3.137077 -18.114573 0.426 170 170 127
3.088912 -18.096766 0.435 170 170 127
3.184215 -18.149815 0.416 170 170 127
3.119935 -18.251741 0.422 170 170 127
3.183774 -18.207951 0.413 170 170 127
3.296278 -18.23385 0.393 170 170 127
3.098106 -18.122774 0.432 170 170 127
3.125256 -18.139977 0.427 170 170 127
3.052936 -18.299534 0.431 170 170 127
3.15995 -18.223871 0.416 170 170 127
3.05656 -18.17568 0.436 170 170 127
3.223665 -18.255213 0.404 170 170 127
3.082229 -18.211205 0.43 170 170 127
3.093256 -18.231415 0.427 170 170 127
3.03103 -18.298473 0.435 170 170 127
3.141536 -18.293051 0.416 170 170 127
3.125379 -18.064842 0.43 170 170 127
3.26424 -18.153553 0.402 170 170 127
3.146848 -18.300247 0.415 170 170 127
3.116265 -18.087135 0.431 170 170 127
3.094478 -18.30611 0.423 170 170 127
3.152538 -18.198771 0.419 170 170 127
3.209028 -18.180414 0.41 170 170 127
3.048973 -18.23242 0.435 170 170 127
3.120424 -18.246378 0.422 170 170 127
3.214544 -18.160778 0.41 170 170 127
3.218374 -18.1863 0.408 170 170 127
3.137704 -18.26753 0.418 170 170 127
3.240989 -18.152929 0.406 170 170 127
3.160998 -18.14472 0.42 170 170 127
3.136882 -18.022444 0.43 170 170 127
3.093116 -18.073095 0.435 170 170 127
3.195128 -18.126194 0.415 170 170 127
3.044531 -18.287395 0.433 170 170 127
3.168529 -18.154169 0.418 170 170 127
3.185339 -18.178446 0.414 170 170 127
3.098513 -18.069111 0.435 170 170 127
3.112234 -18.264652 0.422 170 170 127
3.217081 -18.180029 0.409 170 170 127
3.218506 -18.227892 0.406 170 170 127
3.257647 -18.19733 0.401 170 170 127
3.172942 -18.044184 0.423 170 170 127
3.201339 -18.25057 0.408 170 170 127
3.242284 -18.159201 0.406 170 170 127
3.153904 -18.136614 0.422 170 170 127
3.124322 -18.262957 0.421 170 170 127
3.26197 -18.158009 0.402 170 170 127
3.06412 -18.240137 0.432 170 170 127
3.157141 -18.240396 0.416 170 170 127
3.194597 -18.254992 0.409 170 170 127
3.108 -17.997625 0.436 170 170 127
3.274542 -18.21043 0.398 170 170 127
3.131204 -18.181166 0.423 170 170 127
3.240955 -18.1574 0.406 170 170 127
3.159955 -18.164389 0.419 170 170 127
3.136016 -18.136478 0.425 170 170 127
3.218035 -18.23102 0.406 170 170 127
3.117059 -18.277212 0.421 170 170 127
3.156064 -18.028849 0.427 170 170 127
3.291692 -18.189987 0.396 170 170 127
3.269192 -18.267185 0.396 170 170 127
3.332827 -18.250227 0.386 170 170 127
3.18542 -18.226748 0.412 170 170 127
3.18979 -18.240196 0.411 170 170 127
3.205023 -18.236734 0.408 170 170 127
3.277385 -18.18943 0.398 170 170 127
3.10136 -18.224319 0.426 170 170 127
3.139652 -18.06987 0.427 170 170 127
3.336895 -18.244444 0.385 170 170 127
3.136109 -18.242025 0.419 170 170 127
3.117975 -18.156467 0.427 170 170 127
3.09284 -18.168352 0.431 170 170 127
3.306971 -18.239298 0.391 170 170 127
3.090311 -18.265827 0.426 170 170 127
3.069007 -18.303234 0.428 170 170 127
3.168474 -18.220356 0.415 170 170 127
3.134022 -18.281366 0.418 170 170 127
3.094724 -18.155844 0.431 170 170 127
3.073981 -18.119461 0.436 170 170 127
3.14933 -18.149996 0.422 170 170 127
3.269315 -18.192053 0.399 170 170 127
3.142554 -18.15889 0.423 170 170 127
3.225724 -18.160864 0.408 170 170 127
3.123928 -18.138176 0.427 170 170 127
3.124666 -18.158754 0.426 170 170 127
3.132422 -18.079655 0.428 170 170 127
3.140336 -18.156637 0.423 170 170 127
3.076237 -18.293449 0.427 170 170 127
3.173438 -18.155546 0.418 170 170 127
3.195336 -18.27557 0.408 170 170 127
3.180528 -18.223133 0.413 170 170 127
3.281148 -18.223896 0.396 170 170 127
3.117309 -18.067465 0.431 170 170 127
3.224263 -18.117472 0.411 170 170 127
3.147514 -18.153561 0.422 170 170 127
3.125197 -18.029957 0.432 170 170 127
3.1938 -18.124395 0.416 170 170 127
3.254668 -18.236217 0.4 170 170 127
3.198097 -18.20627 0.411 170 170 127
