ply
format ascii 1.0
element vertex 1304
property double x
property double y
property double z
property uchar red
property uchar green
property uchar blue
element face 0
property list uchar int vertex_indices
end_header
0.767299 -15.100166 2.642 76 189 237
0.741438 -15.148718 2.59 76 189 237
0.73103 -15.164739 2.39 76 189 237
0.731013 -15.166975 2.504 76 189 237
0.741455 -15.146482 2.43 76 189 237
0.691533 -15.242256 2.465 76 189 237
0.702412 -15.223107 2.538 76 189 237
0.745053 -15.143825 2.62 76 189 237
0.729634 -15.171884 2.54 76 189 237
0.723766 -15.178994 2.367 76 189 237
0.724186 -15.182576 2.558 76 189 237
0.669759 -15.282788 2.418 76 189 237
0.696527 -15.232454 2.47 76 189 237
0.695182 -15.232892 2.342 76 189 237
0.709222 -15.209743 2.496 76 189 237
0.735537 -15.1603 2.579 76 189 237
0.6802 -15.262295 2.335 76 189 237
0.679729 -15.265422 2.488 76 189 237
0.690171 -15.244929 2.417 76 189 237
0.704716 -15.214181 2.374 76 189 237
0.714687 -15.196815 2.46 76 189 237
0.751426 -15.129115 2.528 76 189 237
0.701958 -15.223999 2.523 76 189 237
0.748702 -15.134461 2.485 76 189 237
0.679764 -15.26095 2.326 76 189 237
0.716048 -15.194141 2.418 76 189 237
0.732376 -15.164301 2.51 76 189 237
0.736916 -15.155391 2.501 76 189 237
0.68474 -15.253385 2.326 76 189 237
0.759127 -15.116203 2.574 76 189 237
0.727398 -15.171866 2.334 76 189 237
0.7333 -15.160283 2.373 76 189 237
0.73826 -15.154955 2.574 76 189 237
0.694274 -15.234674 2.316 76 189 237
0.745978 -15.139808 2.549 76 189 237
0.722388 -15.183904 2.513 76 189 237
0.68928 -15.244475 2.399 76 189 237
0.738731 -15.151827 2.5 76 189 237
0.728743 -15.17143 2.451 76 189 237
0.735554 -15.158064 2.478 76 189 237
0.680654 -15.261404 2.415 76 189 237
0.684286 -15.254276 2.394 76 189 237
0.729668 -15.167411 2.35 76 189 237
0.716503 -15.193251 2.354 76 189 237
0.741909 -15.145591 2.431 76 189 237
0.7256 -15.173194 2.319 76 189 237
0.744616 -15.142481 2.586 76 189 237
0.707422 -15.211071 2.452 76 189 237
0.68928 -15.244475 2.373 76 189 237
0.735537 -15.1603 2.622 76 189 237
0.739639 -15.150045 2.412 76 189 237
0.708768 -15.210633 2.542 76 189 237
0.762759 -15.109076 2.568 76 189 237
0.683361 -15.258294 2.456 76 189 237
0.716065 -15.191906 2.341 76 189 237
0.677477 -15.267641 2.421 76 189 237
0.687464 -15.248039 2.355 76 189 237
0.697435 -15.230673 2.458 76 189 237
0.714233 -15.197705 2.382 76 189 237
0.688809 -15.247602 2.508 76 189 237
0.753679 -15.126896 2.628 76 189 237
0.681999 -15.260967 2.482 76 189 237
0.746903 -15.13579 2.468 76 189 237
0.742817 -15.143808 2.494 76 189 237
0.70332 -15.221326 2.554 76 189 237
0.763213 -15.108185 2.623 76 189 237
0.760035 -15.114422 2.614 76 189 237
0.703774 -15.220434 2.591 76 189 237
0.721463 -15.187922 2.574 76 189 237
0.738748 -15.149591 2.39 76 189 237
0.727364 -15.176339 2.57 76 189 237
0.702866 -15.222218 2.502 76 189 237
0.734646 -15.159846 2.426 76 189 237
0.749173 -15.131334 2.457 76 189 237
0.703337 -15.21909 2.395 76 189 237
0.731921 -15.165193 2.452 76 189 237
0.684269 -15.256512 2.447 76 189 237
0.733738 -15.161628 2.48 76 189 237
0.684303 -15.25204 2.319 76 189 237
0.688809 -15.247602 2.42 76 189 237
0.699251 -15.227109 2.414 76 189 237
0.737823 -15.153609 2.447 76 189 237
0.678838 -15.264968 2.443 76 189 237
0.684286 -15.254276 2.385 76 189 237
0.725549 -15.179903 2.55 76 189 237
0.751426 -15.129115 2.568 76 189 237
0.716503 -15.193251 2.431 76 189 237
0.71879 -15.18656 2.325 76 189 237
0.715595 -15.195032 2.385 76 189 237
0.744616 -15.142481 2.567 76 189 237
0.714687 -15.196815 2.412 76 189 237
0.739639 -15.150045 2.429 76 189 237
0.689717 -15.24582 2.517 76 189 237
0.722825 -15.185248 2.582 76 189 237
0.705153 -15.215526 2.434 76 189 237
0.71741 -15.191468 2.391 76 189 237
0.725566 -15.177667 2.529 76 189 237
0.728743 -15.17143 2.452 76 189 237
0.730122 -15.16652 2.419 76 189 237
0.739186 -15.150936 2.478 76 189 237
0.684723 -15.255621 2.482 76 189 237
0.715124 -15.19816 2.566 76 189 237
0.689717 -15.24582 2.503 76 189 237
0.695165 -15.235127 2.445 76 189 237
0.751426 -15.129115 2.55 76 189 237
0.710584 -15.20707 2.566 76 189 237
0.760035 -15.114422 2.6 76 189 237
0.716503 -15.193251 2.387 76 189 237
0.67112 -15.280115 2.413 76 189 237
0.732376 -15.164301 2.485 76 189 237
0.670667 -15.281006 2.459 76 189 237
0.758673 -15.117095 2.579 76 189 237
0.691533 -15.242256 2.495 76 189 237
0.708768 -15.210633 2.545 76 189 237
0.738277 -15.152719 2.404 76 189 237
0.69609 -15.23111 2.347 76 189 237
0.725582 -15.17543 2.336 76 189 237
0.727398 -15.171866 2.388 76 189 237
0.683378 -15.256058 2.386 76 189 237
0.697452 -15.228436 2.343 76 189 237
0.725095 -15.180793 2.613 76 189 237
0.683361 -15.258294 2.489 76 189 237
0.71741 -15.191468 2.358 76 189 237
0.743691 -15.146499 2.611 76 189 237
0.72829 -15.17232 2.531 76 189 237
0.72195 -15.182558 2.385 76 189 237
0.738294 -15.150482 2.381 76 189 237
0.691079 -15.243147 2.495 76 189 237
0.753696 -15.12466 2.577 76 189 237
0.67566 -15.271205 2.449 76 189 237
0.715124 -15.19816 2.485 76 189 237
0.721934 -15.184794 2.549 76 189 237
0.692004 -15.239129 2.347 76 189 237
0.7333 -15.160283 2.379 76 189 237
0.678838 -15.264968 2.417 76 189 237
0.730122 -15.16652 2.326 76 189 237
0.71921 -15.190141 2.546 76 189 237
0.679746 -15.263186 2.418 76 189 237
0.702866 -15.222218 2.581 76 189 237
0.743725 -15.142027 2.456 76 189 237
0.697452 -15.228436 2.333 76 189 237
0.770477 -15.093929 2.636 76 189 237
0.683832 -15.255167 2.387 76 189 237
0.769115 -15.096602 2.631 76 189 237
0.71652 -15.191014 2.333 76 189 237
0.683361 -15.258294 2.461 76 189 237
0.72876 -15.169193 2.398 76 189 237
0.714653 -15.201287 2.58 76 189 237
0.723733 -15.183466 2.609 76 189 237
0.682033 -15.256495 2.322 76 189 237
0.718773 -15.188795 2.359 76 189 237
0.701504 -15.22489 2.525 76 189 237
0.711509 -15.203052 2.387 76 189 237
0.728727 -15.173666 2.599 76 189 237
0.685177 -15.25473 2.435 76 189 237
0.679275 -15.266313 2.461 76 189 237
0.699722 -15.223982 2.367 76 189 237
0.686085 -15.252948 2.516 76 189 237
0.731921 -15.165193 2.511 76 189 237
0.694728 -15.233783 2.365 76 189 237
0.762305 -15.109966 2.571 76 189 237
0.718773 -15.188795 2.44 76 189 237
0.701958 -15.223999 2.568 76 189 237
0.686993 -15.251166 2.44 76 189 237
0.735554 -15.158064 2.475 76 189 237
0.701538 -15.220418 2.37 76 189 237
0.706969 -15.211962 2.449 76 189 237
0.726457 -15.178121 2.61 76 189 237
0.731921 -15.165193 2.508 76 189 237
0.753225 -15.127788 2.613 76 189 237
0.73056 -15.167865 2.478 76 189 237
0.750972 -15.130007 2.541 76 189 237
0.697889 -15.229782 2.487 76 189 237
0.752334 -15.127334 2.516 76 189 237
0.713778 -15.198597 2.378 76 189 237
0.691987 -15.241364 2.438 76 189 237
0.691096 -15.240911 2.331 76 189 237
0.722404 -15.181667 2.354 76 189 237
0.711509 -15.203052 2.364 76 189 237
0.75188 -15.128223 2.484 76 189 237
0.730122 -15.16652 2.332 76 189 237
0.750047 -15.134025 2.601 76 189 237
0.716048 -15.194141 2.393 76 189 237
0.677913 -15.268986 2.466 76 189 237
0.703808 -15.215962 2.375 76 189 237
0.696073 -15.233346 2.461 76 189 237
0.699268 -15.224873 2.368 76 189 237
0.718318 -15.189687 2.445 76 189 237
0.71287 -15.200378 2.439 76 189 237
0.69651 -15.234692 2.54 76 189 237
0.685631 -15.253839 2.451 76 189 237
0.733284 -15.162519 2.521 76 189 237
0.761414 -15.109512 2.55 76 189 237
0.737823 -15.153609 2.454 76 189 237
0.702883 -15.21998 2.428 76 189 237
0.692004 -15.239129 2.346 76 189 237
0.705624 -15.212399 2.342 76 189 237
0.723733 -15.183466 2.612 76 189 237
0.701521 -15.222653 2.461 76 189 237
0.73557 -15.155828 2.388 76 189 237
0.699251 -15.227109 2.486 76 189 237
0.699251 -15.227109 2.485 76 189 237
0.704699 -15.216416 2.389 76 189 237
0.695636 -15.232 2.359 76 189 237
0.727819 -15.175447 2.575 76 189 237
0.71198 -15.199924 2.339 76 189 237
0.766391 -15.101948 2.566 76 189 237
0.72876 -15.169193 2.334 76 189 237
0.692458 -15.238237 2.4 76 189 237
0.708331 -15.209289 2.455 76 189 237
0.701067 -15.223545 2.45 76 189 237
0.718739 -15.193268 2.573 76 189 237
0.685648 -15.251603 2.36 76 189 237
0.74734 -15.137134 2.559 76 189 237
0.736008 -15.157173 2.434 76 189 237
0.68928 -15.244475 2.368 76 189 237
0.681125 -15.258277 2.316 76 189 237
0.732342 -15.168773 2.986 76 189 237
0.753679 -15.126896 2.887 76 189 237
0.857677 -14.918384 2.969 76 189 237
0.7959 -15.044033 2.795 76 189 237
0.790923 -15.051598 3.021 76 189 237
0.865378 -14.905472 2.849 76 189 237
0.736881 -15.159863 2.98 76 189 237
0.740513 -15.152736 2.873 76 189 237
0.64198 -15.348319 3.022 76 189 237
0.720992 -15.191049 2.921 76 189 237
0.802727 -15.028432 3.02 76 189 237
0.91535 -14.80299 2.998 76 189 237
0.750938 -15.134479 2.767 76 189 237
0.801802 -15.032449 2.742 76 189 237
0.737335 -15.158973 2.985 76 189 237
0.851775 -14.929967 2.979 76 189 237
0.916712 -14.800317 2.919 76 189 237
0.782297 -15.068527 2.939 76 189 237
0.810428 -15.01552 2.749 76 189 237
0.813623 -15.007047 3.003 76 189 237
0.68057 -15.272584 2.958 76 189 237
0.668312 -15.296641 2.958 76 189 237
0.702378 -15.227579 3.013 76 189 237
0.852666 -14.930421 2.882 76 189 237
0.843603 -14.946005 3.017 76 189 237
0.936688 -14.761112 3.003 76 189 237
0.804089 -15.025758 3.011 76 189 237
0.773638 -15.089928 2.695 76 189 237
0.839954 -14.955369 2.842 76 189 237
0.693735 -15.246745 2.966 76 189 237
0.796371 -15.040906 2.928 76 189 237
0.749576 -15.137152 2.771 76 189 237
0.780918 -15.073436 2.845 76 189 237
0.774562 -15.08591 2.795 76 189 237
0.691465 -15.2512 2.937 76 189 237
0.907179 -14.819028 2.963 76 189 237
0.855407 -14.922838 2.969 76 189 237
0.799078 -15.037796 2.86 76 189 237
0.846764 -14.942003 2.812 76 189 237
0.797262 -15.04136 2.796 76 189 237
0.731416 -15.172791 2.858 76 189 237
0.786366 -15.062744 2.765 76 189 237
0.686925 -15.26011 2.96 76 189 237
0.749593 -15.134915 2.818 76 189 237
0.781373 -15.072544 2.895 76 189 237
0.720992 -15.191049 2.935 76 189 237
0.766845 -15.101057 2.932 76 189 237
0.922614 -14.788733 2.96 76 189 237
0.794101 -15.045361 2.897 76 189 237
0.799532 -15.036904 2.851 76 189 237
0.771839 -15.091255 2.844 76 189 237
0.904454 -14.824374 3.021 76 189 237
0.740059 -15.153626 2.903 76 189 237
0.817255 -14.99992 2.838 76 189 237
0.910357 -14.812791 3.026 76 189 237
0.885825 -14.863141 2.954 76 189 237
0.842695 -14.947786 3.016 76 189 237
0.810445 -15.013284 2.921 76 189 237
0.78909 -15.057397 2.767 76 189 237
0.898099 -14.836848 3.03 76 189 237
0.898536 -14.838193 2.891 76 189 237
0.718722 -15.195504 2.93 76 189 237
0.725515 -15.184374 2.788 76 189 237
0.651968 -15.328718 2.999 76 189 237
0.715073 -15.204867 2.873 76 189 237
0.81406 -15.008392 2.723 76 189 237
0.868119 -14.897891 2.908 76 189 237
0.679208 -15.275257 3.023 76 189 237
0.766845 -15.101057 2.965 76 189 237
0.829041 -14.97899 2.756 76 189 237
0.745944 -15.144279 2.8 76 189 237
0.919436 -14.794971 2.998 76 189 237
0.702361 -15.229816 2.883 76 189 237
0.755495 -15.123332 2.933 76 189 237
0.645158 -15.342082 3.01 76 189 237
0.886732 -14.861359 2.987 76 189 237
0.895358 -14.84443 2.953 76 189 237
0.819525 -14.995464 2.824 76 189 237
0.881738 -14.871161 3.021 76 189 237
0.640618 -15.350993 3.009 76 189 237
0.748231 -15.137588 2.864 76 189 237
0.91989 -14.79408 2.934 76 189 237
0.739151 -15.155409 2.915 76 189 237
0.822685 -14.991464 2.758 76 189 237
0.787291 -15.058726 3.018 76 189 237
0.776833 -15.081455 2.835 76 189 237
0.798624 -15.038686 2.733 76 189 237
0.88083 -14.872943 2.859 76 189 237
0.758219 -15.117987 2.833 76 189 237
0.925792 -14.782496 3.031 76 189 237
0.757311 -15.119768 2.793 76 189 237
0.727347 -15.178575 3.006 76 189 237
0.795463 -15.042687 2.957 76 189 237
0.885825 -14.863141 2.946 76 189 237
0.749139 -15.135806 3.023 76 189 237
0.661956 -15.309115 3.018 76 189 237
0.765029 -15.104621 2.911 76 189 237
0.710096 -15.212433 2.978 76 189 237
0.821795 -14.99101 2.95 76 189 237
0.781373 -15.072544 2.811 76 189 237
0.735065 -15.163427 2.899 76 189 237
0.825898 -14.980754 3.009 76 189 237
0.83496 -14.96517 2.967 76 189 237
0.773655 -15.087692 2.898 76 189 237
0.700562 -15.231144 2.999 76 189 237
0.696005 -15.24229 2.877 76 189 237
0.784096 -15.067199 2.836 76 189 237
0.800457 -15.032887 2.93 76 189 237
0.761851 -15.110858 2.981 76 189 237
0.727802 -15.177683 2.915 76 189 237
0.83269 -14.969625 2.819 76 189 237
0.696913 -15.240507 2.873 76 189 237
0.716452 -15.199959 2.936 76 189 237
0.792722 -15.05027 2.756 76 189 237
0.771402 -15.089911 2.986 76 189 237
0.785458 -15.064526 2.699 76 189 237
0.729617 -15.17412 2.94 76 189 237
0.720975 -15.193285 2.889 76 189 237
0.89218 -14.850667 2.976 76 189 237
0.658324 -15.316243 2.953 76 189 237
0.700999 -15.232489 2.899 76 189 237
0.724607 -15.186156 2.87 76 189 237
0.766862 -15.098821 2.979 76 189 237
0.797279 -15.039124 2.933 76 189 237
0.775925 -15.083237 2.839 76 189 237
0.744599 -15.144716 2.931 76 189 237
0.877652 -14.87918 2.898 76 189 237
0.789561 -15.054271 2.989 76 189 237
0.876745 -14.880961 2.976 76 189 237
0.740513 -15.152736 2.847 76 189 237
0.91261 -14.810572 2.915 76 189 237
0.879014 -14.876506 2.897 76 189 237
0.937596 -14.759331 2.983 76 189 237
0.819979 -14.994573 2.986 76 189 237
0.838138 -14.958933 2.77 76 189 237
0.8186 -14.999482 2.731 76 189 237
0.786383 -15.060508 2.968 76 189 237
0.862671 -14.908583 2.901 76 189 237
0.90353 -14.828392 2.963 76 189 237
0.91261 -14.810572 2.906 76 189 237
0.741858 -15.152298 2.802 76 189 237
0.662864 -15.307334 2.992 76 189 237
0.688741 -15.256546 2.898 76 189 237
0.867194 -14.901908 2.862 76 189 237
0.763667 -15.107294 2.793 76 189 237
0.829058 -14.976753 2.87 76 189 237
0.929424 -14.775369 2.99 76 189 237
0.755495 -15.123332 2.987 76 189 237
0.706918 -15.21867 2.992 76 189 237
0.746852 -15.142497 2.745 76 189 237
0.669674 -15.293968 2.983 76 189 237
0.634717 -15.362576 3.019 76 189 237
0.809991 -15.014175 2.828 76 189 237
0.898082 -14.839085 2.908 76 189 237
0.824519 -14.985662 2.829 76 189 237
0.862671 -14.908583 2.884 76 189 237
0.822249 -14.990118 2.811 76 189 237
0.836776 -14.961606 2.768 76 189 237
0.833598 -14.967843 2.957 76 189 237
0.771402 -15.089911 3.003 76 189 237
0.840862 -14.953588 2.891 76 189 237
0.708734 -15.215105 2.995 76 189 237
0.721883 -15.191503 2.826 76 189 237
0.683293 -15.267239 2.929 76 189 237
0.773183 -15.090819 2.685 76 189 237
0.870389 -14.893435 2.884 76 189 237
0.884462 -14.865814 2.951 76 189 237
0.805434 -15.025322 2.737 76 189 237
0.84631 -14.942895 2.93 76 189 237
0.749139 -15.135806 2.872 76 189 237
0.752771 -15.128677 2.927 76 189 237
0.689195 -15.255654 2.883 76 189 237
0.765483 -15.103729 2.845 76 189 237
0.686471 -15.261002 2.898 76 189 237
0.890818 -14.85334 3.001 76 189 237
0.74322 -15.149626 2.812 76 189 237
0.740059 -15.153626 2.985 76 189 237
0.799549 -15.034669 2.955 76 189 237
0.775017 -15.085018 2.943 76 189 237
0.787728 -15.06007 2.726 76 189 237
0.648336 -15.335846 3.001 76 189 237
0.92443 -14.78517 2.974 76 189 237
0.873567 -14.887198 2.858 76 189 237
0.813169 -15.007938 2.96 76 189 237
0.715998 -15.20085 2.976 76 189 237
0.903076 -14.829284 2.934 76 189 237
0.77046 -15.096165 2.694 76 189 237
0.785913 -15.063634 2.709 76 189 237
0.863579 -14.906801 2.994 76 189 237
0.686471 -15.261002 2.97 76 189 237
0.715998 -15.20085 2.993 76 189 237
0.812698 -15.011065 2.781 76 189 237
0.902184 -14.828829 2.969 76 189 237
0.77547 -15.084128 2.907 76 189 237
0.734157 -15.165209 2.909 76 189 237
0.795463 -15.042687 2.906 76 189 237
0.779574 -15.073873 2.966 76 189 237
0.77774 -15.079673 2.762 76 189 237
0.802256 -15.031559 2.848 76 189 237
0.828605 -14.977644 2.924 76 189 237
0.917604 -14.800771 2.909 76 189 237
0.838155 -14.956697 2.969 76 189 237
0.84177 -14.951804 2.894 76 189 237
0.804089 -15.025758 2.854 76 189 237
0.766391 -15.101948 2.815 76 189 237
0.860401 -14.913038 2.928 76 189 237
0.867665 -14.898781 3.004 76 189 237
0.894904 -14.845322 2.901 76 189 237
0.787745 -15.057835 2.929 76 189 237
0.781809 -15.07389 2.671 76 189 237
0.818617 -14.997247 2.986 76 189 237
0.838592 -14.958041 2.896 76 189 237
0.756857 -15.120659 2.805 76 189 237
0.798187 -15.037342 2.985 76 189 237
0.789527 -15.058743 2.673 76 189 237
0.706901 -15.220906 2.876 76 189 237
0.860855 -14.912147 2.981 76 189 237
0.735973 -15.161646 2.943 76 189 237
0.740496 -15.154971 2.832 76 189 237
0.820887 -14.992791 2.948 76 189 237
0.722337 -15.190611 2.872 76 189 237
0.781373 -15.072544 2.753 76 189 237
0.731433 -15.170556 2.93 76 189 237
0.777269 -15.0828 2.686 76 189 237
0.802256 -15.031559 2.804 76 189 237
0.791831 -15.049816 2.942 76 189 237
0.714619 -15.205759 2.924 76 189 237
0.74322 -15.149626 2.799 76 189 237
0.826806 -14.978971 3.002 76 189 237
0.746869 -15.140262 2.927 76 189 237
0.695097 -15.244072 2.944 76 189 237
0.841316 -14.952696 2.818 76 189 237
0.779103 -15.077 2.899 76 189 237
0.665134 -15.302878 2.995 76 189 237
0.645158 -15.342082 3.013 76 189 237
0.852229 -14.929075 2.994 76 189 237
0.794101 -15.045361 2.988 76 189 237
0.730525 -15.172338 2.9 76 189 237
0.925792 -14.782496 2.957 76 189 237
0.798187 -15.037342 3.029 76 189 237
0.725532 -15.182138 2.962 76 189 237
0.839954 -14.955369 2.934 76 189 237
0.685563 -15.262783 2.913 76 189 237
0.874474 -14.885417 3.007 76 189 237
0.724153 -15.187048 2.847 76 189 237
0.913988 -14.805663 2.962 76 189 237
0.809537 -15.015066 2.95 76 189 237
0.856298 -14.923293 2.895 76 189 237
0.810445 -15.013284 2.843 76 189 237
0.714165 -15.20665 2.905 76 189 237
0.865832 -14.904582 2.86 76 189 237
0.732324 -15.17101 2.859 76 189 237
0.845856 -14.943786 2.787 76 189 237
0.710096 -15.212433 2.991 76 189 237
0.807267 -15.019521 2.838 76 189 237
0.707809 -15.219124 2.934 76 189 237
0.866757 -14.900564 2.925 76 189 237
0.829512 -14.975863 2.983 76 189 237
0.763213 -15.108185 2.839 76 189 237
0.863125 -14.907691 2.939 76 189 237
0.745944 -15.144279 2.781 76 189 237
0.819508 -14.997701 2.754 76 189 237
0.916242 -14.803444 2.916 76 189 237
0.806813 -15.020412 2.935 76 189 237
0.704194 -15.224015 3.029 76 189 237
0.742329 -15.149172 2.844 76 189 237
0.679208 -15.275257 3.03 76 189 237
0.846764 -14.942003 2.882 76 189 237
0.815439 -15.003484 2.83 76 189 237
0.891272 -14.852449 2.917 76 189 237
0.819979 -14.994573 2.925 76 189 237
0.684655 -15.264565 2.933 76 189 237
0.65333 -15.326045 2.983 76 189 237
0.807267 -15.019521 2.881 76 189 237
0.689666 -15.252528 3.01 76 189 237
0.784567 -15.064072 2.94 76 189 237
0.849488 -14.936658 2.812 76 189 237
0.659232 -15.314461 2.958 76 189 237
0.943498 -14.747747 3.0 76 189 237
0.751392 -15.133587 2.804 76 189 237
0.740513 -15.152736 2.988 76 189 237
0.778648 -15.077891 2.882 76 189 237
0.810882 -15.014629 2.821 76 189 237
0.856752 -14.922401 2.803 76 189 237
0.7732 -15.088583 2.882 76 189 237
0.767282 -15.102402 2.688 76 189 237
0.904909 -14.823483 3.027 76 189 237
0.690557 -15.252982 2.906 76 189 237
0.771822 -15.093492 2.672 76 189 237
0.774109 -15.086801 2.87 76 189 237
0.737772 -15.160317 2.808 76 189 237
0.832673 -14.971861 2.753 76 189 237
0.660594 -15.311789 2.95 76 189 237
0.72506 -15.185266 2.824 76 189 237
0.92443 -14.78517 2.921 76 189 237
0.781844 -15.069417 2.938 76 189 237
0.78455 -15.066307 2.692 76 189 237
0.839954 -14.955369 2.89 76 189 237
0.73325 -15.166991 2.953 76 189 237
0.674667 -15.284167 2.998 76 189 237
0.803181 -15.02754 3.012 76 189 237
0.773655 -15.087692 2.822 76 189 237
0.695551 -15.24318 2.92 76 189 237
0.719613 -15.195958 2.808 76 189 237
0.892634 -14.849776 2.965 76 189 237
0.840862 -14.953588 2.892 76 189 237
0.754133 -15.126005 2.8 76 189 237
0.716435 -15.202195 2.886 76 189 237
0.752771 -15.128677 2.907 76 189 237
0.812244 -15.011956 2.794 76 189 237
0.829529 -14.973626 2.999 76 189 237
0.687397 -15.256983 3.027 76 189 237
0.796371 -15.040906 3.016 76 189 237
0.713274 -15.206196 3.006 76 189 237
0.874021 -14.886307 2.947 76 189 237
0.818163 -14.998137 2.83 76 189 237
0.785475 -15.06229 3.029 76 189 237
0.800003 -15.033777 2.973 76 189 237
0.72052 -15.194176 2.898 76 189 237
0.898536 -14.838193 2.905 76 189 237
0.723716 -15.185702 2.903 76 189 237
0.738697 -15.156299 2.883 76 189 237
0.698275 -15.237835 2.944 76 189 237
0.920344 -14.793188 2.92 76 189 237
0.821341 -14.991899 2.857 76 189 237
0.866303 -14.901454 2.917 76 189 237
0.837684 -14.959825 2.906 76 189 237
0.64198 -15.348319 2.995 76 189 237
0.815893 -15.002592 2.869 76 189 237
0.730072 -15.173228 2.9 76 189 237
0.726894 -15.179465 2.925 76 189 237
0.73552 -15.162536 2.951 76 189 237
0.854482 -14.926856 2.861 76 189 237
0.892634 -14.849776 2.904 76 189 237
0.91081 -14.8119 2.974 76 189 237
0.800894 -15.034231 2.74 76 189 237
0.829949 -14.977207 2.76 76 189 237
0.777723 -15.081909 2.708 76 189 237
0.861309 -14.911256 3.024 76 189 237
0.872642 -14.891216 2.84 76 189 237
0.810882 -15.014629 2.749 76 189 237
0.91308 -14.807445 2.987 76 189 237
0.820887 -14.992791 2.955 76 189 237
0.676484 -15.280602 2.922 76 189 237
0.914896 -14.803881 2.991 76 189 237
0.725986 -15.181247 2.909 76 189 237
0.85766 -14.920619 2.846 76 189 237
0.768207 -15.098384 2.931 76 189 237
0.838138 -14.958933 2.911 76 189 237
0.726894 -15.179465 2.904 76 189 237
0.747323 -15.13937 2.88 76 189 237
0.763667 -15.107294 2.872 76 189 237
0.813606 -15.009283 2.777 76 189 237
0.843586 -14.94824 2.783 76 189 237
0.821341 -14.991899 2.965 76 189 237
0.782735 -15.069871 2.756 76 189 237
0.890818 -14.85334 2.913 76 189 237
0.735048 -15.165664 2.851 76 189 237
0.787274 -15.060962 2.897 76 189 237
0.770931 -15.093038 2.814 76 189 237
0.799095 -15.03556 2.94 76 189 237
0.69693 -15.238272 3.007 76 189 237
0.84858 -14.93844 2.854 76 189 237
0.912627 -14.808335 2.993 76 189 237
0.80498 -15.026212 2.767 76 189 237
0.782735 -15.069871 2.872 76 189 237
0.830875 -14.973188 2.81 76 189 237
0.911719 -14.810118 2.989 76 189 237
0.918528 -14.796753 2.993 76 189 237
0.804997 -15.023976 2.909 76 189 237
0.746398 -15.143389 2.767 76 189 237
0.859039 -14.91571 2.96 76 189 237
0.733233 -15.169227 2.81 76 189 237
0.711458 -15.20976 2.945 76 189 237
0.769115 -15.096602 2.847 76 189 237
0.736864 -15.1621 2.803 76 189 237
0.824972 -14.984773 2.979 76 189 237
0.781826 -15.071654 2.855 76 189 237
0.927154 -14.779823 3.029 76 189 237
0.76777 -15.097038 2.989 76 189 237
0.918982 -14.795861 3.008 76 189 237
0.718705 -15.19774 2.854 76 189 237
0.71055 -15.211542 2.991 76 189 237
0.847689 -14.937986 2.926 76 189 237
0.839954 -14.955369 2.793 76 189 237
0.804543 -15.024868 3.005 76 189 237
0.675575 -15.282386 2.993 76 189 237
0.804089 -15.025758 2.908 76 189 237
0.681477 -15.270802 2.955 76 189 237
0.858585 -14.916602 2.904 76 189 237
0.80498 -15.026212 2.779 76 189 237
0.752771 -15.128677 2.902 76 189 237
0.802727 -15.028432 2.943 76 189 237
0.735502 -15.164773 2.844 76 189 237
0.792739 -15.048034 2.993 76 189 237
0.903093 -14.827046 2.981 76 189 237
0.91034 -14.815026 2.923 76 189 237
0.770023 -15.09482 2.767 76 189 237
0.717814 -15.197286 3.027 76 189 237
0.733686 -15.168337 2.819 76 189 237
0.786383 -15.060508 2.959 76 189 237
0.667858 -15.297532 3.02 76 189 237
0.803181 -15.02754 2.966 76 189 237
0.794101 -15.045361 2.996 76 189 237
0.795917 -15.041797 3.026 76 189 237
0.6556 -15.321589 3.016 76 189 237
0.729617 -15.17412 3.012 76 189 237
0.829512 -14.975863 2.915 76 189 237
0.729164 -15.17501 2.995 76 189 237
0.715998 -15.20085 2.984 76 189 237
0.638348 -15.355448 3.03 76 189 237
0.844948 -14.945567 2.935 76 189 237
0.856298 -14.923293 2.877 76 189 237
0.702378 -15.227579 2.99 76 189 237
0.782297 -15.068527 2.936 76 189 237
0.735048 -15.165664 2.794 76 189 237
0.725515 -15.184374 2.867 76 189 237
0.795446 -15.044923 2.85 76 189 237
0.753679 -15.126896 2.909 76 189 237
0.745961 -15.142043 2.986 76 189 237
0.704631 -15.225361 2.89 76 189 237
0.764121 -15.106402 2.818 76 189 237
0.764121 -15.106402 2.897 76 189 237
0.833145 -14.968734 2.858 76 189 237
0.741858 -15.152298 2.813 76 189 237
0.718268 -15.196394 2.99 76 189 237
0.870825 -14.894781 2.846 76 189 237
0.781826 -15.071654 2.862 76 189 237
0.842224 -14.950914 2.857 76 189 237
0.891726 -14.851559 2.952 76 189 237
0.753662 -15.129131 2.767 76 189 237
0.693281 -15.247636 2.935 76 189 237
0.78682 -15.061852 2.861 76 189 237
0.932602 -14.769132 2.943 76 189 237
0.760943 -15.112639 2.825 76 189 237
0.774562 -15.08591 2.94 76 189 237
0.763213 -15.108185 2.871 76 189 237
0.775034 -15.082783 2.986 76 189 237
0.794992 -15.045815 2.72 76 189 237
0.690103 -15.253873 2.885 76 189 237
0.886278 -14.86225 2.861 76 189 237
0.709642 -15.213324 2.973 76 189 237
0.863125 -14.907691 2.934 76 189 237
0.900352 -14.834629 2.938 76 189 237
0.81633 -15.003938 2.774 76 189 237
0.788182 -15.05918 2.729 76 189 237
0.676484 -15.280602 2.987 76 189 237
0.68511 -15.263674 2.984 76 189 237
0.861763 -14.910365 2.958 76 189 237
0.874474 -14.885417 3.006 76 189 237
0.695568 -15.240945 3.016 76 189 237
0.842224 -14.950914 2.775 76 189 237
0.681477 -15.270802 2.899 76 189 237
0.711441 -15.211996 2.894 76 189 237
0.740059 -15.153626 2.903 76 189 237
0.911702 -14.812354 2.932 76 189 237
0.755495 -15.123332 2.842 76 189 237
0.773655 -15.087692 2.826 76 189 237
0.903093 -14.827046 2.966 76 189 237
0.855844 -14.924184 2.882 76 189 237
0.711895 -15.211104 2.825 76 189 237
0.770931 -15.093038 2.739 76 189 237
0.785913 -15.063634 2.783 76 189 237
0.748231 -15.137588 2.853 76 189 237
0.712366 -15.207978 2.959 76 189 237
0.782735 -15.069871 2.724 76 189 237
0.882192 -14.870269 2.917 76 189 237
0.794555 -15.044469 2.977 76 189 237
0.781809 -15.07389 2.665 76 189 237
0.770948 -15.090801 2.988 76 189 237
0.726423 -15.182592 2.793 76 189 237
0.666496 -15.300205 2.989 76 189 237
0.725986 -15.181247 3.017 76 189 237
0.845856 -14.943786 2.857 76 189 237
0.935326 -14.763785 2.962 76 189 237
0.719159 -15.196848 2.806 76 189 237
0.805905 -15.022195 2.998 76 189 237
0.896283 -14.840412 3.017 76 189 237
0.755041 -15.124224 2.944 76 189 237
0.7732 -15.088583 2.854 76 189 237
0.768207 -15.098384 2.873 76 189 237
0.871297 -14.891654 2.966 76 189 237
0.74549 -15.14517 2.801 76 189 237
0.846327 -14.94066 2.971 76 189 237
0.744582 -15.146953 2.795 76 189 237
0.671036 -15.291295 3.002 76 189 237
0.941682 -14.751311 2.973 76 189 237
0.868573 -14.896999 2.857 76 189 237
0.860384 -14.915274 2.845 76 189 237
0.889456 -14.856013 2.914 76 189 237
0.890381 -14.851995 3.013 76 189 237
0.732778 -15.170118 2.774 76 189 237
0.698292 -15.2356 3.025 76 189 237
0.72871 -15.175901 2.989 76 189 237
0.767753 -15.099275 2.777 76 189 237
0.826318 -14.984335 2.741 76 189 237
0.811336 -15.013738 2.726 76 189 237
0.773638 -15.089928 2.704 76 189 237
0.764592 -15.103275 3.003 76 189 237
0.840425 -14.952242 2.973 76 189 237
0.88991 -14.855122 3.004 76 189 237
0.730525 -15.172338 2.941 76 189 237
0.668312 -15.296641 2.979 76 189 237
0.929424 -14.775369 3.007 76 189 237
0.73552 -15.162536 2.971 76 189 237
0.787274 -15.060962 2.833 76 189 237
0.858131 -14.917493 2.955 76 189 237
0.787728 -15.06007 2.86 76 189 237
0.742783 -15.14828 3.017 76 189 237
0.848126 -14.93933 2.81 76 189 237
0.878107 -14.878288 2.869 76 189 237
0.801819 -15.030213 3.011 76 189 237
0.740042 -15.155863 2.778 76 189 237
0.85312 -14.929529 2.879 76 189 237
0.692827 -15.248528 2.898 76 189 237
0.701453 -15.231598 2.957 76 189 237
0.855407 -14.922838 2.962 76 189 237
0.682385 -15.26902 3.019 76 189 237
0.7296 -15.176355 2.855 76 189 237
0.797279 -15.039124 2.94 76 189 237
0.78001 -15.075218 2.832 76 189 237
0.791831 -15.049816 2.977 76 189 237
0.872659 -14.88898 2.992 76 189 237
0.699183 -15.236053 2.871 76 189 237
0.68057 -15.272584 2.95 76 189 237
0.82768 -14.981662 2.75 76 189 237
0.900369 -14.832393 3.016 76 189 237
0.757765 -15.118876 2.947 76 189 237
0.736864 -15.1621 2.786 76 189 237
0.850396 -14.934875 2.848 76 189 237
0.800003 -15.033777 2.959 76 189 237
0.821341 -14.991899 2.997 76 189 237
0.746869 -15.140262 2.822 76 189 237
0.66922 -15.29486 3.011 76 189 237
0.902168 -14.831065 2.9 76 189 237
0.795009 -15.043579 2.885 76 189 237
0.788182 -15.05918 2.767 76 189 237
0.654692 -15.323372 3.024 76 189 237
0.738697 -15.156299 2.951 76 189 237
0.794992 -15.045815 2.808 76 189 237
0.748685 -15.136698 2.844 76 189 237
0.910357 -14.812791 2.951 76 189 237
0.787728 -15.06007 2.762 76 189 237
0.819525 -14.995464 2.865 76 189 237
0.869027 -14.896109 2.907 76 189 237
0.899915 -14.833283 2.974 76 189 237
0.760035 -15.114422 2.912 76 189 237
0.895812 -14.843539 2.894 76 189 237
0.923068 -14.787843 2.976 76 189 237
0.845419 -14.942441 3.0 76 189 237
0.870843 -14.892544 2.882 76 189 237
0.849488 -14.936658 2.901 76 189 237
0.774109 -15.086801 2.811 76 189 237
0.908994 -14.815464 2.972 76 189 237
0.757765 -15.118876 2.991 76 189 237
0.816801 -15.00081 2.851 76 189 237
0.751863 -15.130461 2.879 76 189 237
0.848143 -14.937095 2.951 76 189 237
0.73868 -15.158535 2.754 76 189 237
0.672397 -15.288623 2.998 76 189 237
0.767753 -15.099275 2.829 76 189 237
0.692844 -15.246291 3.028 76 189 237
0.82815 -14.978536 2.899 76 189 237
0.815893 -15.002592 2.978 76 189 237
0.761414 -15.109512 3.004 76 189 237
0.817709 -14.999028 2.96 76 189 237
0.739134 -15.157644 2.799 76 189 237
0.797716 -15.040468 2.782 76 189 237
0.835868 -14.963388 2.807 76 189 237
0.65333 -15.326045 2.973 76 189 237
0.727331 -15.180811 2.874 76 189 237
0.765029 -15.104621 2.818 76 189 237
0.761397 -15.11175 2.926 76 189 237
0.829058 -14.976753 2.936 76 189 237
0.918528 -14.796753 2.945 76 189 237
0.831328 -14.972299 2.781 76 189 237
0.807721 -15.018631 2.973 76 189 237
0.71055 -15.211542 2.951 76 189 237
0.844948 -14.945567 2.848 76 189 237
0.935326 -14.763785 2.978 76 189 237
0.802273 -15.029323 2.901 76 189 237
0.765465 -15.105967 2.742 76 189 237
0.829967 -14.974971 2.846 76 189 237
0.732324 -15.17101 2.783 76 189 237
0.813623 -15.007047 2.946 76 189 237
0.85312 -14.929529 2.82 76 189 237
0.687379 -15.259219 3.011 76 189 237
0.66014 -15.312679 2.972 76 189 237
0.81179 -15.012848 2.748 76 189 237
0.875382 -14.883635 2.87 76 189 237
0.753662 -15.129131 2.777 76 189 237
0.858585 -14.916602 3.001 76 189 237
0.915804 -14.802098 2.975 76 189 237
0.672397 -15.288623 2.934 76 189 237
0.89218 -14.850667 2.904 76 189 237
0.757765 -15.118876 2.877 76 189 237
0.828588 -14.979879 2.755 76 189 237
0.735065 -15.163427 2.972 76 189 237
0.797733 -15.038232 2.89 76 189 237
0.798187 -15.037342 3.018 76 189 237
0.76777 -15.097038 2.981 76 189 237
0.778212 -15.076546 2.958 76 189 237
0.885825 -14.863141 2.916 76 189 237
0.779556 -15.076109 2.821 76 189 237
0.814077 -15.006157 2.842 76 189 237
0.707809 -15.219124 2.95 76 189 237
0.866303 -14.901454 2.869 76 189 237
0.848126 -14.93933 2.893 76 189 237
0.699183 -15.236053 2.924 76 189 237
0.918528 -14.796753 2.987 76 189 237
0.780901 -15.075672 2.675 76 189 237
0.769569 -15.095711 2.794 76 189 237
0.77046 -15.096165 2.696 76 189 237
0.839046 -14.957151 2.94 76 189 237
0.855861 -14.921947 2.961 76 189 237
0.771856 -15.08902 3.006 76 189 237
0.778195 -15.078781 2.922 76 189 237
0.669674 -15.293968 2.93 76 189 237
0.799078 -15.037796 2.749 76 189 237
0.71282 -15.207087 3.0 76 189 237
0.826789 -14.981208 2.886 76 189 237
0.7523 -15.131804 2.797 76 189 237
0.779993 -15.077454 2.686 76 189 237
0.819508 -14.997701 2.79 76 189 237
0.778665 -15.075655 2.982 76 189 237
0.706464 -15.219561 2.972 76 189 237
0.757782 -15.116641 3.025 76 189 237
0.911702 -14.812354 2.918 76 189 237
0.733703 -15.166101 2.896 76 189 237
0.656508 -15.319808 3.014 76 189 237
0.91762 -14.798534 2.989 76 189 237
0.747323 -15.13937 2.898 76 189 237
0.68511 -15.263674 2.943 76 189 237
0.767736 -15.101511 2.691 76 189 237
0.845856 -14.943786 2.858 76 189 237
0.760489 -15.113531 2.822 76 189 237
0.9267 -14.780714 2.999 76 189 237
0.754587 -15.125113 2.832 76 189 237
0.865849 -14.902346 3.01 76 189 237
0.726894 -15.179465 2.937 76 189 237
0.814531 -15.005265 2.846 76 189 237
0.854499 -14.924621 3.007 76 189 237
0.682385 -15.26902 2.903 76 189 237
0.79363 -15.048488 2.798 76 189 237
0.850413 -14.932639 3.01 76 189 237
0.756857 -15.120659 2.794 76 189 237
0.673306 -15.286839 2.97 76 189 237
0.740513 -15.152736 2.979 76 189 237
0.786366 -15.062744 2.776 76 189 237
0.916712 -14.800317 2.972 76 189 237
0.75457 -15.12735 2.788 76 189 237
0.686471 -15.261002 2.998 76 189 237
0.755478 -15.125567 2.728 76 189 237
0.790469 -15.052489 2.941 76 189 237
0.906708 -14.822155 2.933 76 189 237
0.760052 -15.112185 3.005 76 189 237
0.890835 -14.851104 3.025 76 189 237
0.868102 -14.900126 2.828 76 189 237
0.790469 -15.052489 2.996 76 189 237
0.732795 -15.167883 3.009 76 189 237
0.767753 -15.099275 2.969 76 189 237
0.718722 -15.195504 3.025 76 189 237
0.764575 -15.105513 2.943 76 189 237
0.70147 -15.229362 2.995 76 189 237
0.822249 -14.990118 2.841 76 189 237
0.87856 -14.877398 2.877 76 189 237
0.834506 -14.966062 2.798 76 189 237
0.764575 -15.105513 2.763 76 189 237
0.873567 -14.887198 2.977 76 189 237
0.920344 -14.793188 2.933 76 189 237
0.7219 -15.189267 2.984 76 189 237
0.713728 -15.205305 2.943 76 189 237
0.733703 -15.166101 3.016 76 189 237
0.880377 -14.873833 3.01 76 189 237
0.776833 -15.081455 2.858 76 189 237
0.745961 -15.142043 3.025 76 189 237
0.713728 -15.205305 2.935 76 189 237
0.686018 -15.261891 2.992 76 189 237
0.923522 -14.786951 2.925 76 189 237
0.708717 -15.217342 2.878 76 189 237
0.83042 -14.97408 2.786 76 189 237
0.82588 -14.98299 2.876 76 189 237
0.798187 -15.037342 2.959 76 189 237
0.873112 -14.88809 3.004 76 189 237
0.778195 -15.078781 2.804 76 189 237
0.871297 -14.891654 2.915 76 189 237
0.874021 -14.886307 3.004 76 189 237
0.852683 -14.928185 2.963 76 189 237
0.761397 -15.11175 2.926 76 189 237
0.797262 -15.04136 2.794 76 189 237
0.752754 -15.130915 2.79 76 189 237
0.794538 -15.046705 2.877 76 189 237
0.783643 -15.068089 2.756 76 189 237
0.804089 -15.025758 2.909 76 189 237
0.773655 -15.087692 2.829 76 189 237
0.800457 -15.032887 2.952 76 189 237
0.752754 -15.130915 2.774 76 189 237
0.697821 -15.238726 2.895 76 189 237
0.716452 -15.199959 2.976 76 189 237
0.697367 -15.239617 2.98 76 189 237
0.918982 -14.795861 2.963 76 189 237
0.844494 -14.946459 2.82 76 189 237
0.848143 -14.937095 2.924 76 189 237
0.796371 -15.040906 2.963 76 189 237
0.926246 -14.781606 2.928 76 189 237
0.677845 -15.27793 2.992 76 189 237
0.6556 -15.321589 2.979 76 189 237
0.738243 -15.15719 2.845 76 189 237
0.686942 -15.257874 3.02 76 189 237
0.750955 -15.132242 2.919 76 189 237
0.728238 -15.179029 2.822 76 189 237
0.787745 -15.057835 2.943 76 189 237
0.835885 -14.961152 2.982 76 189 237
0.712349 -15.210214 2.849 76 189 237
0.89899 -14.837302 2.892 76 189 237
0.762305 -15.109966 2.964 76 189 237
0.824502 -14.987899 2.736 76 189 237
0.831328 -14.972299 2.785 76 189 237
0.734157 -15.165209 3.002 76 189 237
0.753225 -15.127788 2.934 76 189 237
0.761397 -15.11175 2.801 76 189 237
0.820887 -14.992791 2.915 76 189 237
0.895812 -14.843539 2.957 76 189 237
0.7959 -15.044033 2.838 76 189 237
0.845402 -14.944677 2.834 76 189 237
0.791814 -15.052052 2.76 76 189 237
0.74549 -15.14517 2.763 76 189 237
0.776378 -15.082346 2.774 76 189 237
0.854499 -14.924621 2.955 76 189 237
0.807704 -15.020866 2.825 76 189 237
0.924884 -14.784279 2.927 76 189 237
0.757294 -15.122005 2.716 76 189 237
0.80952 -15.017302 2.711 76 189 237
0.746398 -15.143389 2.753 76 189 237
0.665134 -15.302878 2.984 76 189 237
0.869918 -14.896563 2.832 76 189 237
0.724153 -15.187048 2.877 76 189 237
0.885825 -14.863141 2.895 76 189 237
0.736881 -15.159863 2.874 76 189 237
0.805905 -15.022195 2.877 76 189 237
0.778648 -15.077891 2.864 76 189 237
0.739605 -15.154517 2.973 76 189 237
0.839954 -14.955369 2.825 76 189 237
0.816347 -15.001701 2.825 76 189 237
0.779574 -15.073873 2.947 76 189 237
0.707372 -15.217779 3.023 76 189 237
0.88764 -14.859577 2.916 76 189 237
0.767753 -15.099275 2.784 76 189 237
0.869481 -14.895217 2.907 76 189 237
0.768224 -15.096148 2.995 76 189 237
0.686471 -15.261002 2.994 76 189 237
0.793176 -15.049378 2.809 76 189 237
0.777287 -15.080564 2.769 76 189 237
0.794084 -15.047596 2.792 76 189 237
0.887186 -14.860469 2.966 76 189 237
0.815439 -15.003484 2.898 76 189 237
0.817692 -15.001264 2.795 76 189 237
0.6783 -15.27704 2.923 76 189 237
0.795917 -15.041797 2.913 76 189 237
0.836776 -14.961606 2.96 76 189 237
0.759581 -15.115314 2.914 76 189 237
0.870843 -14.892544 2.99 76 189 237
0.909449 -14.814572 2.951 76 189 237
0.847218 -14.941113 2.852 76 189 237
0.790469 -15.052489 2.987 76 189 237
0.79363 -15.048488 2.769 76 189 237
0.796371 -15.040906 2.965 76 189 237
0.749139 -15.135806 3.029 76 189 237
0.882192 -14.870269 2.898 76 189 237
0.723245 -15.188829 2.828 76 189 237
0.779556 -15.076109 2.867 76 189 237
0.868119 -14.897891 2.856 76 189 237
0.760472 -15.115767 2.757 76 189 237
0.761397 -15.11175 2.832 76 189 237
0.784567 -15.064072 3.009 76 189 237
0.884462 -14.865814 2.877 76 189 237
0.897174 -14.840866 2.963 76 189 237
0.692373 -15.249417 2.99 76 189 237
0.872659 -14.88898 3.0 76 189 237
0.793176 -15.049378 2.809 76 189 237
0.781373 -15.072544 2.813 76 189 237
0.780447 -15.076563 2.676 76 189 237
0.808175 -15.017739 2.836 76 189 237
0.74322 -15.149626 2.752 76 189 237
0.759581 -15.115314 2.839 76 189 237
0.803618 -15.028886 2.809 76 189 237
0.847672 -14.940222 2.91 76 189 237
0.749593 -15.134915 2.997 76 189 237
0.704194 -15.224015 3.024 76 189 237
0.890818 -14.85334 2.877 76 189 237
0.9058 -14.823936 2.929 76 189 237
0.691482 -15.248963 3.011 76 189 237
0.755024 -15.126459 2.773 76 189 237
0.868119 -14.897891 2.99 76 189 237
0.792268 -15.05116 2.876 76 189 237
0.733703 -15.166101 2.925 76 189 237
0.826771 -14.983444 2.75 76 189 237
0.774546 -15.088146 2.724 76 189 237
0.87128 -14.893889 2.836 76 189 237
0.849488 -14.936658 2.871 76 189 237
0.831328 -14.972299 2.932 76 189 237
0.817255 -14.99992 2.963 76 189 237
0.740059 -15.153626 2.845 76 189 237
0.679662 -15.274365 3.023 76 189 237
0.916712 -14.800317 2.971 76 189 237
0.809083 -15.015958 2.924 76 189 237
0.829512 -14.975863 2.862 76 189 237
0.905363 -14.822592 2.972 76 189 237
0.860838 -14.914382 2.82 76 189 237
0.789544 -15.056507 2.681 76 189 237
0.746869 -15.140262 3.027 76 189 237
0.824519 -14.985662 2.965 76 189 237
0.686018 -15.261891 3.017 76 189 237
0.711441 -15.211996 2.914 76 189 237
0.765483 -15.103729 2.828 76 189 237
0.824972 -14.984773 2.937 76 189 237
0.788636 -15.058289 2.821 76 189 237
0.750047 -15.134025 3.031 76 189 237
0.768644 -15.099729 2.711 76 189 237
0.68057 -15.272584 3.01 76 189 237
0.87629 -14.881853 2.87 76 189 237
0.761397 -15.11175 2.944 76 189 237
0.804526 -15.027103 2.754 76 189 237
0.71736 -15.198176 2.984 76 189 237
0.650606 -15.33139 3.024 76 189 237
0.799095 -15.03556 3.024 76 189 237
0.849488 -14.936658 2.79 76 189 237
0.720975 -15.193285 2.848 76 189 237
0.865832 -14.904582 2.84 76 189 237
0.871297 -14.891654 2.959 76 189 237
0.886278 -14.86225 2.924 76 189 237
0.702361 -15.229816 2.918 76 189 237
0.801802 -15.032449 2.742 76 189 237
0.734157 -15.165209 3.029 76 189 237
0.732342 -15.168773 2.866 76 189 237
0.841787 -14.949569 2.972 76 189 237
0.778195 -15.078781 2.793 76 189 237
0.754587 -15.125113 2.841 76 189 237
0.806796 -15.022649 2.824 76 189 237
0.805451 -15.023086 3.031 76 189 237
0.728255 -15.176793 2.893 76 189 237
0.920798 -14.792297 3.025 76 189 237
0.892634 -14.849776 2.991 76 189 237
0.744599 -15.144716 3.024 76 189 237
0.896737 -14.83952 3.027 76 189 237
0.66695 -15.299314 2.988 76 189 237
0.769115 -15.096602 2.886 76 189 237
0.858131 -14.917493 2.965 76 189 237
0.779574 -15.073873 3.014 76 189 237
0.943044 -14.748638 2.998 76 189 237
0.870389 -14.893435 2.917 76 189 237
0.91535 -14.80299 2.936 76 189 237
0.92443 -14.78517 2.93 76 189 237
0.776378 -15.082346 2.858 76 189 237
0.78001 -15.075218 2.914 76 189 237
0.893088 -14.848885 2.995 76 189 237
0.705993 -15.222688 2.897 76 189 237
0.717814 -15.197286 2.961 76 189 237
0.900806 -14.833737 2.899 76 189 237
0.901276 -14.830611 2.989 76 189 237
0.77774 -15.079673 2.724 76 189 237
0.679208 -15.275257 2.984 76 189 237
0.881738 -14.871161 2.874 76 189 237
0.861292 -14.913492 2.804 76 189 237
0.883555 -14.867596 2.887 76 189 237
0.803181 -15.02754 2.967 76 189 237
0.70147 -15.229362 2.972 76 189 237
0.843586 -14.94824 2.93 76 189 237
0.664226 -15.304661 2.984 76 189 237
0.82588 -14.98299 2.971 76 189 237
0.789998 -15.055615 2.864 76 189 237
0.816784 -15.003046 2.725 76 189 237
0.962582 -14.708089 3.007 76 189 237
0.703286 -15.225798 2.98 76 189 237
0.79363 -15.048488 2.731 76 189 237
0.737335 -15.158973 2.968 76 189 237
0.769586 -15.093475 3.001 76 189 237
0.823611 -14.987445 2.811 76 189 237
0.790906 -15.053833 2.738 76 189 237
0.800894 -15.034231 2.751 76 189 237
0.956664 -14.721908 2.993 76 189 237
0.881738 -14.871161 2.956 76 189 237
0.731887 -15.169664 2.956 76 189 237
0.897191 -14.83863 2.99 76 189 237
0.82588 -14.98299 2.798 76 189 237
0.679208 -15.275257 2.995 76 189 237
0.691465 -15.2512 2.943 76 189 237
0.73098 -15.171446 2.902 76 189 237
0.757765 -15.118876 2.841 76 189 237
0.90353 -14.828392 2.912 76 189 237
0.904454 -14.824374 3.017 76 189 237
0.911702 -14.812354 2.918 76 189 237
0.777269 -15.0828 2.691 76 189 237
0.811353 -15.011502 2.85 76 189 237
0.709171 -15.216451 2.896 76 189 237
0.746852 -15.142497 2.772 76 189 237
0.735973 -15.161646 2.891 76 189 237
0.756857 -15.120659 2.871 76 189 237
0.754587 -15.125113 2.855 76 189 237
0.760018 -15.116657 2.757 76 189 237
0.800457 -15.032887 2.978 76 189 237
0.756386 -15.123786 2.755 76 189 237
0.863562 -14.909037 2.827 76 189 237
0.864487 -14.905018 2.933 76 189 237
0.725968 -15.183484 2.824 76 189 237
0.801819 -15.030213 3.02 76 189 237
0.769569 -15.095711 2.929 76 189 237
0.652876 -15.326935 3.029 76 189 237
0.705085 -15.224469 2.922 76 189 237
0.766828 -15.103293 2.746 76 189 237
0.796825 -15.040014 2.972 76 189 237
0.756386 -15.123786 2.759 76 189 237
0.72871 -15.175901 2.944 76 189 237
0.868119 -14.897891 2.901 76 189 237
0.740967 -15.151844 2.836 76 189 237
0.773655 -15.087692 2.877 76 189 237
0.828167 -14.976299 3.025 76 189 237
0.794101 -15.045361 3.005 76 189 237
0.795446 -15.044923 2.689 76 189 237
0.710079 -15.214669 2.824 76 189 237
0.809991 -15.014175 2.936 76 189 237
0.714636 -15.203523 2.996 76 189 237
0.925338 -14.783387 3.017 76 189 237
0.826318 -14.984335 2.743 76 189 237
0.776833 -15.081455 2.892 76 189 237
0.826771 -14.983444 2.753 76 189 237
0.820432 -14.993683 2.975 76 189 237
0.823611 -14.987445 2.964 76 189 237
0.711441 -15.211996 2.93 76 189 237
0.834506 -14.966062 2.798 76 189 237
0.80725 -15.021757 2.773 76 189 237
0.741404 -15.15319 2.753 76 189 237
0.678753 -15.276149 3.028 76 189 237
0.800003 -15.033777 2.908 76 189 237
0.800457 -15.032887 2.877 76 189 237
0.846781 -14.939768 2.966 76 189 237
0.856769 -14.920165 2.963 76 189 237
0.686925 -15.26011 2.93 76 189 237
0.819542 -14.993229 3.027 76 189 237
0.719613 -15.195958 2.81 76 189 237
0.773672 -15.085456 2.966 76 189 237
0.918982 -14.795861 3.003 76 189 237
0.809083 -15.015958 2.943 76 189 237
0.829967 -14.974971 2.937 76 189 237
0.928062 -14.778042 2.968 76 189 237
0.800457 -15.032887 2.885 76 189 237
0.853574 -14.928638 2.857 76 189 237
0.907632 -14.818137 2.978 76 189 237
0.732342 -15.168773 2.916 76 189 237
0.804089 -15.025758 2.923 76 189 237
0.745961 -15.142043 2.96 76 189 237
0.670582 -15.292187 3.024 76 189 237
0.858568 -14.918838 2.826 76 189 237
0.896266 -14.842648 2.882 76 189 237
0.798624 -15.038686 2.761 76 189 237
0.866757 -14.900564 3.002 76 189 237
0.80271 -15.030667 2.72 76 189 237
0.744599 -15.144716 2.948 76 189 237
0.91308 -14.807445 2.952 76 189 237
0.799532 -15.036904 2.756 76 189 237
0.704177 -15.226252 2.944 76 189 237
0.803164 -15.029777 2.814 76 189 237
0.844965 -14.943332 3.03 76 189 237
0.78682 -15.061852 2.862 76 189 237
0.884916 -14.864923 2.892 76 189 237
0.634262 -15.363467 3.023 76 189 237
0.703286 -15.225798 3.02 76 189 237
0.653784 -15.325153 2.982 76 189 237
0.805905 -15.022195 3.019 76 189 237
0.717343 -15.200413 2.86 76 189 237
0.732324 -15.17101 2.829 76 189 237
0.806813 -15.020412 2.965 76 189 237
0.756403 -15.121551 2.845 76 189 237
0.809991 -15.014175 2.86 76 189 237
0.743691 -15.146499 2.905 76 189 237
0.849505 -14.934422 3.027 76 189 237
0.795463 -15.042687 2.977 76 189 237
0.753225 -15.127788 2.863 76 189 237
0.802273 -15.029323 2.859 76 189 237
0.77547 -15.084128 2.882 76 189 237
0.758673 -15.117095 2.841 76 189 237
0.780918 -15.073436 2.724 76 189 237
0.83269 -14.969625 2.821 76 189 237
0.870389 -14.893435 2.889 76 189 237
0.658778 -15.315352 3.03 76 189 237
0.750047 -15.134025 2.865 76 189 237
0.793647 -15.046251 2.884 76 189 237
0.766391 -15.101948 2.83 76 189 237
0.873095 -14.890326 2.827 76 189 237
0.780465 -15.074327 2.908 76 189 237
0.716889 -15.201303 2.896 76 189 237
0.738226 -15.159427 2.771 76 189 237
0.690103 -15.253873 3.004 76 189 237
0.739151 -15.155409 2.844 76 189 237
0.869934 -14.894327 2.92 76 189 237
0.854482 -14.926856 2.815 76 189 237
0.798624 -15.038686 2.853 76 189 237
0.730072 -15.173228 2.939 76 189 237
0.797716 -15.040468 2.778 76 189 237
0.779103 -15.077 2.748 76 189 237
0.870843 -14.892544 2.919 76 189 237
0.643796 -15.344756 3.022 76 189 237
0.799078 -15.037796 2.739 76 189 237
0.888548 -14.857796 2.944 76 189 237
0.830875 -14.973188 2.942 76 189 237
0.845873 -14.941549 2.948 76 189 237
0.88537 -14.864032 2.98 76 189 237
0.783643 -15.068089 2.907 76 189 237
0.796808 -15.042251 2.852 76 189 237
0.849942 -14.935766 2.804 76 189 237
0.739605 -15.154517 2.926 76 189 237
0.657416 -15.318026 2.987 76 189 237
0.874929 -14.884525 2.978 76 189 237
0.802256 -15.031559 2.71 76 189 237
0.799549 -15.034669 2.897 76 189 237
0.896283 -14.840412 3.0 76 189 237
0.844511 -14.944223 3.028 76 189 237
0.929424 -14.775369 2.993 76 189 237
0.798187 -15.037342 2.894 76 189 237
0.816801 -15.00081 2.886 76 189 237
0.795463 -15.042687 2.95 76 189 237
0.801365 -15.031105 3.003 76 189 237
0.853137 -14.927294 2.919 76 189 237
0.754587 -15.125113 2.957 76 189 237
0.772309 -15.088129 3.005 76 189 237
0.723245 -15.188829 2.81 76 189 237
0.639256 -15.353666 3.009 76 189 237
0.760035 -15.114422 2.896 76 189 237
0.746415 -15.141152 2.972 76 189 237
0.653784 -15.325153 3.018 76 189 237
0.730072 -15.173228 2.949 76 189 237
0.854045 -14.925512 3.015 76 189 237
0.661048 -15.310898 3.026 76 189 237
0.925338 -14.783387 3.026 76 189 237
0.872642 -14.891216 2.826 76 189 237
0.755478 -15.125567 2.713 76 189 237
0.917166 -14.799426 2.923 76 189 237
0.712803 -15.209322 2.848 76 189 237
0.847689 -14.937986 2.934 76 189 237
0.846781 -14.939768 2.948 76 189 237
0.879014 -14.876506 2.924 76 189 237
0.8831 -14.868487 2.98 76 189 237
0.776833 -15.081455 2.875 76 189 237
0.686942 -15.257874 3.028 76 189 237
0.724624 -15.18392 2.962 76 189 237
0.691011 -15.252091 2.879 76 189 237
0.685563 -15.262783 3.011 76 189 237
0.760035 -15.114422 2.772 76 189 237
0.77774 -15.079673 2.843 76 189 237
0.85312 -14.929529 2.88 76 189 237
0.778195 -15.078781 2.884 76 189 237
0.727802 -15.177683 2.939 76 189 237
0.829058 -14.976753 2.958 76 189 237
0.74549 -15.14517 2.759 76 189 237
0.736427 -15.160754 2.987 76 189 237
0.652876 -15.326935 3.024 76 189 237
0.744582 -15.146953 2.786 76 189 237
0.770006 -15.097056 2.73 76 189 237
0.767316 -15.09793 3.028 76 189 237
0.80498 -15.026212 2.811 76 189 237
0.745053 -15.143825 3.01 76 189 237
0.766391 -15.101948 2.882 76 189 237
0.770477 -15.093929 2.804 76 189 237
0.839954 -14.955369 2.8 76 189 237
0.918074 -14.797644 3.007 76 189 237
0.869934 -14.894327 2.909 76 189 237
0.677392 -15.278821 3.024 76 189 237
0.859947 -14.913928 2.906 76 189 237
0.803164 -15.029777 2.743 76 189 237
0.753208 -15.130023 2.732 76 189 237
0.79363 -15.048488 2.755 76 189 237
0.679662 -15.274365 2.976 76 189 237
0.895358 -14.84443 2.911 76 189 237
0.914426 -14.807008 2.911 76 189 237
0.811353 -15.011502 2.994 76 189 237
0.805451 -15.023086 2.939 76 189 237
0.850396 -14.934875 2.842 76 189 237
0.789998 -15.055615 2.678 76 189 237
0.88083 -14.872943 2.924 76 189 237
0.879922 -14.874724 2.951 76 189 237
0.820415 -14.995918 2.773 76 189 237
0.831782 -14.971407 2.793 76 189 237
0.715527 -15.203977 2.887 76 189 237
0.819508 -14.997701 2.756 76 189 237
0.833598 -14.967843 2.939 76 189 237
0.712349 -15.210214 2.818 76 189 237
0.847218 -14.941113 2.866 76 189 237
