ply
format ascii 1.0
element vertex 1378
property double x
property double y
property double z
property uchar red
property uchar green
property uchar blue
element face 0
property list uchar int vertex_indices
end_header
-4.543023 -11.795099 2.063 0 0 255
-4.693603 -11.718375 2.217 0 0 255
-4.533222 -11.800093 2.237 0 0 255
-4.438775 -11.848216 2.312 0 0 255
-4.652617 -11.739259 2.287 0 0 255
-4.68202 -11.724277 2.222 0 0 255
-4.502037 -11.815983 2.267 0 0 255
-4.499363 -11.817345 2.141 0 0 255
-4.615194 -11.758326 2.178 0 0 255
-4.606284 -11.762866 2.074 0 0 255
-4.366603 -11.88499 2.25 0 0 255
-4.432538 -11.851394 2.27 0 0 255
-4.603611 -11.764228 2.051 0 0 255
-4.433429 -11.85094 2.195 0 0 255
-4.54926 -11.791922 2.11 0 0 255
-4.458377 -11.838228 2.227 0 0 255
-4.499363 -11.817345 2.185 0 0 255
-4.62054 -11.755602 2.098 0 0 255
-4.559061 -11.786927 2.056 0 0 255
-4.518966 -11.807357 2.085 0 0 255
-4.548369 -11.792376 2.164 0 0 255
-4.499363 -11.817345 2.215 0 0 255
-4.390661 -11.872731 2.223 0 0 255
-4.653508 -11.738805 2.232 0 0 255
-4.615194 -11.758326 2.307 0 0 255
-4.417391 -11.859112 2.193 0 0 255
-4.347002 -11.894977 2.301 0 0 255
-4.601829 -11.765136 2.08 0 0 255
-4.459268 -11.837774 2.189 0 0 255
-4.615194 -11.758326 2.108 0 0 255
-4.494018 -11.820068 2.208 0 0 255
-4.660636 -11.735172 2.15 0 0 255
-4.648161 -11.741529 2.29 0 0 255
-4.316707 -11.910413 2.286 0 0 255
-4.511837 -11.810988 2.31 0 0 255
-4.45214 -11.841406 2.286 0 0 255
-4.46105 -11.836866 2.19 0 0 255
-4.344328 -11.896339 2.313 0 0 255
-4.600047 -11.766044 2.202 0 0 255
-4.678456 -11.726092 2.29 0 0 255
-4.590246 -11.771038 2.08 0 0 255
-4.496691 -11.818707 2.228 0 0 255
-4.42541 -11.855026 2.214 0 0 255
-4.38086 -11.877726 2.23 0 0 255
-4.619649 -11.756056 2.086 0 0 255
-4.404917 -11.865468 2.31 0 0 255
-4.538568 -11.797369 2.156 0 0 255
-4.412045 -11.861835 2.237 0 0 255
-4.498473 -11.817799 2.218 0 0 255
-4.755973 -11.686596 2.301 0 0 255
-4.355021 -11.890891 2.303 0 0 255
-4.671328 -11.729725 2.187 0 0 255
-4.450358 -11.842314 2.277 0 0 255
-4.716769 -11.706571 2.291 0 0 255
-4.642816 -11.744252 2.181 0 0 255
-4.436993 -11.849124 2.246 0 0 255
-4.47887 -11.827786 2.183 0 0 255
-4.671328 -11.729725 2.276 0 0 255
-4.633905 -11.748793 2.111 0 0 255
-4.538568 -11.797369 2.303 0 0 255
-4.619649 -11.756056 2.139 0 0 255
-4.61163 -11.760142 2.208 0 0 255
-4.538568 -11.797369 2.132 0 0 255
-4.419173 -11.858204 2.266 0 0 255
-4.636579 -11.74743 2.292 0 0 255
-4.46105 -11.836866 2.288 0 0 255
-4.596483 -11.767859 2.154 0 0 255
-4.379969 -11.87818 2.288 0 0 255
-4.547478 -11.79283 2.23 0 0 255
-4.429865 -11.852756 2.234 0 0 255
-4.468178 -11.833235 2.177 0 0 255
-4.422737 -11.856388 2.311 0 0 255
-4.709641 -11.710203 2.263 0 0 255
-4.444121 -11.845492 2.297 0 0 255
-4.56708 -11.782842 2.234 0 0 255
-4.57599 -11.778301 2.172 0 0 255
-4.484216 -11.825063 2.237 0 0 255
-4.565298 -11.78375 2.096 0 0 255
-4.342546 -11.897247 2.303 0 0 255
-4.684693 -11.722915 2.281 0 0 255
-4.532331 -11.800547 2.285 0 0 255
-4.459268 -11.837774 2.295 0 0 255
-4.535004 -11.799185 2.161 0 0 255
-4.682911 -11.723823 2.227 0 0 255
-4.577772 -11.777393 2.201 0 0 255
-4.519857 -11.806903 2.115 0 0 255
-4.705186 -11.712473 2.236 0 0 255
-4.547478 -11.79283 2.313 0 0 255
-4.560843 -11.786019 2.05 0 0 255
-4.433429 -11.85094 2.179 0 0 255
-4.439666 -11.847762 2.184 0 0 255
-4.560843 -11.786019 2.298 0 0 255
-4.627668 -11.75197 2.307 0 0 255
-4.601829 -11.765136 2.265 0 0 255
-4.662418 -11.734264 2.169 0 0 255
-4.624104 -11.753786 2.301 0 0 255
-4.533222 -11.800093 2.259 0 0 255
-4.624104 -11.753786 2.266 0 0 255
-4.578663 -11.776939 2.168 0 0 255
-4.500255 -11.816891 2.191 0 0 255
-4.485998 -11.824155 2.164 0 0 255
-4.608957 -11.761504 2.154 0 0 255
-4.516293 -11.808719 2.246 0 0 255
-4.409372 -11.863197 2.251 0 0 255
-4.687366 -11.721553 2.273 0 0 255
-4.482434 -11.825971 2.176 0 0 255
-4.674001 -11.728363 2.297 0 0 255
-4.566189 -11.783296 2.303 0 0 255
-4.622323 -11.754694 2.114 0 0 255
-4.631233 -11.750154 2.141 0 0 255
-4.453922 -11.840498 2.217 0 0 255
-4.423628 -11.855934 2.206 0 0 255
-4.616086 -11.757872 2.175 0 0 255
-4.658854 -11.73608 2.186 0 0 255
-4.506492 -11.813713 2.173 0 0 255
-4.560843 -11.786019 2.122 0 0 255
-4.541241 -11.796007 2.263 0 0 255
-4.565298 -11.78375 2.108 0 0 255
-4.613412 -11.759234 2.136 0 0 255
-4.481544 -11.826425 2.185 0 0 255
-4.412045 -11.861835 2.25 0 0 255
-4.526985 -11.803271 2.298 0 0 255
-4.595592 -11.768313 2.238 0 0 255
-4.552824 -11.790105 2.125 0 0 255
-4.487781 -11.823247 2.195 0 0 255
-4.420955 -11.857296 2.229 0 0 255
-4.436993 -11.849124 2.274 0 0 255
-4.369277 -11.883627 2.262 0 0 255
-4.557279 -11.787835 2.311 0 0 255
-4.642816 -11.744252 2.133 0 0 255
-4.747063 -11.691135 2.309 0 0 255
-4.541241 -11.796007 2.242 0 0 255
-4.596483 -11.767859 2.088 0 0 255
-4.50471 -11.814621 2.2 0 0 255
-4.451249 -11.84186 2.277 0 0 255
-4.456595 -11.839136 2.151 0 0 255
-4.640142 -11.745614 2.129 0 0 255
-4.682911 -11.723823 2.26 0 0 255
-4.489563 -11.822339 2.15 0 0 255
-4.670437 -11.730179 2.229 0 0 255
-4.543023 -11.795099 2.26 0 0 255
-4.624995 -11.753332 2.287 0 0 255
-4.551042 -11.791014 2.061 0 0 255
-4.520748 -11.806449 2.28 0 0 255
-4.387988 -11.874093 2.304 0 0 255
-4.576881 -11.777847 2.276 0 0 255
-4.374622 -11.880903 2.265 0 0 255
-4.556388 -11.788289 2.234 0 0 255
-4.585791 -11.773308 2.305 0 0 255
-4.642816 -11.744252 2.22 0 0 255
-4.560843 -11.786019 2.266 0 0 255
-4.658854 -11.73608 2.24 0 0 255
-4.307797 -11.914952 2.301 0 0 255
-4.517184 -11.808265 2.255 0 0 255
-4.476197 -11.829148 2.202 0 0 255
-4.551933 -11.79056 2.251 0 0 255
-4.507382 -11.813259 2.309 0 0 255
-4.417391 -11.859112 2.252 0 0 255
-4.576881 -11.777847 2.29 0 0 255
-4.390661 -11.872731 2.243 0 0 255
-4.400462 -11.867738 2.214 0 0 255
-4.539459 -11.796915 2.308 0 0 255
-4.437884 -11.84867 2.26 0 0 255
-4.388879 -11.873639 2.277 0 0 255
-4.472633 -11.830964 2.15 0 0 255
-4.747954 -11.690681 2.293 0 0 255
-4.571535 -11.780572 2.033 0 0 255
-4.518075 -11.807811 2.222 0 0 255
-4.440557 -11.847308 2.235 0 0 255
-4.581336 -11.775578 2.243 0 0 255
-4.626777 -11.752424 2.144 0 0 255
-4.608067 -11.761958 2.136 0 0 255
-4.571535 -11.780572 2.264 0 0 255
-4.556388 -11.788289 2.191 0 0 255
-4.510947 -11.811443 2.282 0 0 255
-4.745281 -11.692043 2.298 0 0 255
-4.479761 -11.827332 2.254 0 0 255
-4.572426 -11.780118 2.148 0 0 255
-4.466396 -11.834143 2.139 0 0 255
-4.552824 -11.790105 2.056 0 0 255
-4.564407 -11.784204 2.231 0 0 255
-4.436102 -11.849578 2.302 0 0 255
-4.330963 -11.903149 2.311 0 0 255
-4.684693 -11.722915 2.237 0 0 255
-4.665091 -11.732903 2.182 0 0 255
-4.630342 -11.750608 2.174 0 0 255
-4.355021 -11.890891 2.309 0 0 255
-4.364821 -11.885898 2.254 0 0 255
-4.612521 -11.759688 2.171 0 0 255
-4.56708 -11.782842 2.112 0 0 255
-4.580445 -11.776031 2.046 0 0 255
-4.460159 -11.83732 2.191 0 0 255
-4.657963 -11.736534 2.286 0 0 255
-4.358584 -11.889075 2.249 0 0 255
-4.327399 -11.904964 2.288 0 0 255
-4.580445 -11.776031 2.26 0 0 255
-4.550151 -11.791468 2.257 0 0 255
-4.323835 -11.906781 2.291 0 0 255
-4.296214 -11.920855 2.302 0 0 255
-4.485998 -11.824155 2.289 0 0 255
-4.60272 -11.764682 2.089 0 0 255
-4.488671 -11.822793 2.17 0 0 255
-4.633015 -11.749247 2.107 0 0 255
-4.715878 -11.707026 2.276 0 0 255
-4.484216 -11.825063 2.255 0 0 255
-4.583118 -11.77467 2.032 0 0 255
-4.62856 -11.751516 2.232 0 0 255
-4.583118 -11.77467 2.214 0 0 255
-4.625886 -11.752878 2.28 0 0 255
-4.696276 -11.717012 2.271 0 0 255
-4.52253 -11.805541 2.093 0 0 255
-4.500255 -11.816891 2.175 0 0 255
-4.579554 -11.776485 2.171 0 0 255
-4.486889 -11.823701 2.276 0 0 255
-4.538568 -11.797369 2.229 0 0 255
-4.62856 -11.751516 2.191 0 0 255
-4.5056 -11.814167 2.274 0 0 255
-4.577772 -11.777393 2.085 0 0 255
-4.431647 -11.851848 2.273 0 0 255
-4.667764 -11.731541 2.171 0 0 255
-4.624995 -11.753332 2.267 0 0 255
-4.67311 -11.728817 2.19 0 0 255
-4.430756 -11.852302 2.178 0 0 255
-4.739044 -11.695221 2.308 0 0 255
-4.356802 -11.889983 2.306 0 0 255
-4.420955 -11.857296 2.237 0 0 255
-4.551933 -11.79056 2.067 0 0 255
-4.536786 -11.798277 2.235 0 0 255
-4.442339 -11.8464 2.306 0 0 255
-4.566189 -11.783296 2.113 0 0 255
-4.706968 -11.711565 2.297 0 0 255
-4.557279 -11.787835 2.313 0 0 255
-4.476197 -11.829148 2.156 0 0 255
-4.571535 -11.780572 2.148 0 0 255
-4.621431 -11.755148 2.094 0 0 255
-4.450358 -11.842314 2.235 0 0 255
-4.60272 -11.764682 2.286 0 0 255
-4.492236 -11.820976 2.147 0 0 255
-4.523421 -11.805087 2.307 0 0 255
-4.70522 -11.716946 1.369 0 0 255
-4.440591 -11.851781 1.571 0 0 255
-4.534584 -11.802767 1.64 0 0 255
-4.523018 -11.810905 1.352 0 0 255
-4.66958 -11.735106 1.413 0 0 255
-4.754679 -11.692866 1.23 0 0 255
-4.555951 -11.789635 1.845 0 0 255
-4.590263 -11.773274 1.687 0 0 255
-4.743096 -11.698769 1.249 0 0 255
-4.400496 -11.872211 1.541 0 0 255
-4.520765 -11.808685 1.753 0 0 255
-4.535038 -11.803658 1.453 0 0 255
-4.641942 -11.746943 1.684 0 0 255
-4.523001 -11.808668 1.585 0 0 255
-4.592062 -11.774602 1.547 0 0 255
-4.54615 -11.794628 1.848 0 0 255
-4.750679 -11.696028 1.116 0 0 255
-4.608554 -11.767321 1.306 0 0 255
-4.584934 -11.778234 1.545 0 0 255
-4.549294 -11.796394 1.446 0 0 255
-4.417879 -11.864475 1.456 0 0 255
-4.657089 -11.739225 1.668 0 0 255
-4.596971 -11.773223 1.4 0 0 255
-4.576899 -11.780085 1.802 0 0 255
-4.72884 -11.706032 1.254 0 0 255
-4.545276 -11.797318 1.609 0 0 255
-4.581807 -11.778705 1.587 0 0 255
-4.440591 -11.851781 1.506 0 0 255
-4.688291 -11.725572 1.472 0 0 255
-4.549714 -11.792812 1.895 0 0 255
-4.511872 -11.815461 1.577 0 0 255
-4.6874 -11.726026 1.469 0 0 255
-4.584026 -11.776452 1.704 0 0 255
-4.496287 -11.824524 1.412 0 0 255
-4.656669 -11.742805 1.28 0 0 255
-4.571552 -11.782808 1.704 0 0 255
-4.444609 -11.850855 1.47 0 0 255
-4.535038 -11.803658 1.482 0 0 255
-4.600535 -11.771407 1.373 0 0 255
-4.667361 -11.737358 1.353 0 0 255
-4.497179 -11.82407 1.447 0 0 255
-4.64596 -11.746017 1.571 0 0 255
-4.467758 -11.836816 1.613 0 0 255
-4.685618 -11.726933 1.442 0 0 255
-4.630829 -11.755971 1.308 0 0 255
-4.667815 -11.738249 1.209 0 0 255
-4.507854 -11.816386 1.69 0 0 255
-4.441919 -11.849981 1.667 0 0 255
-4.606302 -11.765102 1.699 0 0 255
-4.486032 -11.828628 1.546 0 0 255
-4.572897 -11.783245 1.676 0 0 255
-4.516327 -11.813191 1.504 0 0 255
-4.618776 -11.758747 1.775 0 0 255
-4.573771 -11.780555 1.923 0 0 255
-4.493598 -11.82365 1.652 0 0 255
-4.681617 -11.730094 1.356 0 0 255
-4.565315 -11.785986 1.725 0 0 255
-4.559078 -11.789165 1.784 0 0 255
-4.639722 -11.749195 1.561 0 0 255
-4.437481 -11.854487 1.456 0 0 255
-4.617431 -11.758309 1.832 0 0 255
-4.558187 -11.789618 1.722 0 0 255
-4.606755 -11.765993 1.553 0 0 255
-4.523018 -11.810905 1.39 0 0 255
-4.583152 -11.779142 1.52 0 0 255
-4.735077 -11.702854 1.32 0 0 255
-4.594718 -11.771005 1.768 0 0 255
-4.756024 -11.693304 1.106 0 0 255
-4.576025 -11.782774 1.519 0 0 255
-4.66067 -11.739645 1.518 0 0 255
-4.598282 -11.769189 1.693 0 0 255
-4.666453 -11.735576 1.648 0 0 255
-4.632141 -11.751937 1.682 0 0 255
-4.567534 -11.783732 1.875 0 0 255
-4.664688 -11.73872 1.257 0 0 255
-4.420098 -11.862223 1.598 0 0 255
-4.731967 -11.705562 1.138 0 0 255
-4.518109 -11.812284 1.455 0 0 255
-4.498943 -11.820926 1.691 0 0 255
-4.555968 -11.79187 1.596 0 0 255
-4.635722 -11.752357 1.435 0 0 255
-4.677162 -11.732364 1.252 0 0 255
-4.497599 -11.82049 1.758 0 0 255
-4.508745 -11.815932 1.633 0 0 255
-4.502071 -11.820456 1.483 0 0 255
-4.596971 -11.773223 1.378 0 0 255
-4.562222 -11.790929 1.429 0 0 255
-4.694091 -11.723738 1.241 0 0 255
-4.5248 -11.809997 1.433 0 0 255
-4.670034 -11.735995 1.322 0 0 255
-4.5132 -11.813663 1.663 0 0 255
-4.456629 -11.843609 1.511 0 0 255
-4.481561 -11.828661 1.741 0 0 255
-4.659325 -11.739207 1.533 0 0 255
-4.700328 -11.72056 1.342 0 0 255
-4.564878 -11.787331 1.572 0 0 255
-4.650869 -11.744639 1.466 0 0 255
-4.5248 -11.809997 1.332 0 0 255
-4.408969 -11.869015 1.477 0 0 255
-4.674489 -11.733726 1.297 0 0 255
-4.579571 -11.778723 1.774 0 0 255
-4.564441 -11.788676 1.455 0 0 255
-4.714147 -11.714642 1.147 0 0 255
-4.56086 -11.788256 1.759 0 0 255
-4.474903 -11.83542 1.403 0 0 255
-4.527002 -11.805508 1.841 0 0 255
-4.57246 -11.78459 1.549 0 0 255
-4.540804 -11.797353 1.842 0 0 255
-4.506509 -11.815949 1.8 0 0 255
-4.545259 -11.795082 1.876 0 0 255
-4.43079 -11.856774 1.553 0 0 255
-4.601847 -11.767372 1.719 0 0 255
-4.547058 -11.796411 1.685 0 0 255
-4.521235 -11.811812 1.4 0 0 255
-4.44772 -11.848148 1.553 0 0 255
-4.513637 -11.812318 1.823 0 0 255
-4.646868 -11.7478 1.322 0 0 255
-4.626374 -11.758242 1.32 0 0 255
-4.514108 -11.815444 1.446 0 0 255
-4.753352 -11.694666 1.146 0 0 255
-4.488252 -11.826374 1.681 0 0 255
-4.662014 -11.740082 1.384 0 0 255
-4.513654 -11.814553 1.524 0 0 255
-4.371547 -11.888083 1.487 0 0 255
-4.405405 -11.870831 1.494 0 0 255
-4.5849 -11.773762 1.998 0 0 255
-4.6874 -11.726026 1.456 0 0 255
-4.749787 -11.696482 1.136 0 0 255
-4.753352 -11.694666 1.158 0 0 255
-4.425898 -11.860389 1.424 0 0 255
-4.510981 -11.815915 1.513 0 0 255
-4.658888 -11.740553 1.439 0 0 255
-4.480249 -11.832696 1.46 0 0 255
-4.450846 -11.847677 1.41 0 0 255
-4.641942 -11.746943 1.681 0 0 255
-4.62234 -11.75693 1.715 0 0 255
-4.627719 -11.758678 1.228 0 0 255
-4.642395 -11.747833 1.656 0 0 255
-4.656669 -11.742805 1.381 0 0 255
-4.429008 -11.857682 1.598 0 0 255
-4.710583 -11.716457 1.218 0 0 255
-4.461976 -11.840885 1.534 0 0 255
-4.442827 -11.851764 1.421 0 0 255
-4.674926 -11.732381 1.386 0 0 255
-4.547075 -11.798646 1.433 0 0 255
-4.645523 -11.747363 1.461 0 0 255
-4.685635 -11.729169 1.188 0 0 255
-4.685618 -11.726933 1.414 0 0 255
-4.479795 -11.831805 1.511 0 0 255
-4.721712 -11.709664 1.264 0 0 255
-4.682508 -11.72964 1.323 0 0 255
-4.56086 -11.788256 1.733 0 0 255
-4.540804 -11.797353 1.906 0 0 255
-4.528801 -11.806836 1.48 0 0 255
-4.674926 -11.732381 1.453 0 0 255
-4.469995 -11.836799 1.483 0 0 255
-4.618793 -11.760983 1.516 0 0 255
-4.71102 -11.715112 1.314 0 0 255
-4.649524 -11.744202 1.532 0 0 255
-4.711457 -11.713768 1.366 0 0 255
-4.508761 -11.818168 1.431 0 0 255
-4.678927 -11.729219 1.557 0 0 255
-4.572897 -11.783245 1.628 0 0 255
-4.718585 -11.710135 1.376 0 0 255
-4.578697 -11.781412 1.441 0 0 255
-4.640177 -11.750087 1.428 0 0 255
-4.629921 -11.754189 1.596 0 0 255
-4.737313 -11.702838 1.154 0 0 255
-4.588464 -11.771946 1.981 0 0 255
-4.490034 -11.825466 1.654 0 0 255
-4.562659 -11.789584 1.538 0 0 255
-4.700328 -11.72056 1.347 0 0 255
-4.587573 -11.7724 1.97 0 0 255
-4.597828 -11.768297 1.882 0 0 255
-4.576899 -11.780085 1.794 0 0 255
-4.587153 -11.775981 1.581 0 0 255
-4.547041 -11.794174 1.876 0 0 255
-4.561751 -11.787802 1.78 0 0 255
-4.544822 -11.796428 1.828 0 0 255
-4.481123 -11.830006 1.682 0 0 255
-4.692309 -11.724646 1.33 0 0 255
-4.600535 -11.771407 1.35 0 0 255
-4.650415 -11.743748 1.578 0 0 255
-4.453065 -11.845425 1.483 0 0 255
-4.589373 -11.773728 1.737 0 0 255
-4.549294 -11.796394 1.456 0 0 255
-4.562188 -11.786457 1.846 0 0 255
-4.554186 -11.792779 1.591 0 0 255
-4.589809 -11.772383 1.846 0 0 255
-4.513216 -11.815898 1.41 0 0 255
-4.548857 -11.797738 1.391 0 0 255
-4.76939 -11.686494 1.166 0 0 255
-4.587153 -11.775981 1.636 0 0 255
-4.62545 -11.754224 1.803 0 0 255
-4.517655 -11.811392 1.628 0 0 255
-4.551513 -11.794141 1.632 0 0 255
-4.510527 -11.815024 1.679 0 0 255
-4.521235 -11.811812 1.429 0 0 255
-4.443264 -11.850419 1.542 0 0 255
-4.494052 -11.824541 1.577 0 0 255
-4.680289 -11.731894 1.238 0 0 255
-4.617447 -11.760545 1.606 0 0 255
-4.568896 -11.786407 1.47 0 0 255
-4.704329 -11.7174 1.402 0 0 255
-4.599174 -11.768735 1.719 0 0 255
-4.587136 -11.773745 1.931 0 0 255
-4.536366 -11.801858 1.585 0 0 255
-4.47534 -11.834075 1.597 0 0 255
-4.559515 -11.787819 1.878 0 0 255
-4.648633 -11.744656 1.526 0 0 255
-4.563096 -11.788239 1.657 0 0 255
-4.62281 -11.760057 1.329 0 0 255
-4.62192 -11.760511 1.297 0 0 255
-4.55464 -11.79367 1.551 0 0 255
-4.508291 -11.815042 1.764 0 0 255
-4.524346 -11.809106 1.46 0 0 255
-4.710566 -11.714222 1.427 0 0 255
-4.697655 -11.721922 1.247 0 0 255
-4.636176 -11.753247 1.375 0 0 255
-4.502508 -11.81911 1.694 0 0 255
-4.53371 -11.805456 1.429 0 0 255
-4.510981 -11.815915 1.517 0 0 255
-4.476668 -11.832275 1.692 0 0 255
-4.699 -11.72236 1.232 0 0 255
-4.608992 -11.765977 1.539 0 0 255
-4.572897 -11.783245 1.586 0 0 255
-4.583572 -11.775561 1.884 0 0 255
-4.596063 -11.771441 1.636 0 0 255
-4.596937 -11.768751 1.876 0 0 255
-4.493615 -11.825886 1.44 0 0 255
-4.575133 -11.783228 1.507 0 0 255
-4.64285 -11.748725 1.411 0 0 255
-4.731967 -11.705562 1.168 0 0 255
-4.600502 -11.766935 1.846 0 0 255
-4.416097 -11.865383 1.491 0 0 255
-4.592516 -11.775493 1.312 0 0 255
-4.506963 -11.81684 1.636 0 0 255
-4.484234 -11.827299 1.739 0 0 255
-4.636613 -11.751903 1.469 0 0 255
-4.459756 -11.843138 1.457 0 0 255
-4.74266 -11.700114 1.126 0 0 255
-4.432572 -11.855866 1.508 0 0 255
-4.548403 -11.796848 1.439 0 0 255
-4.6139 -11.764597 1.338 0 0 255
-4.724839 -11.709193 1.2 0 0 255
-4.635284 -11.753701 1.362 0 0 255
-4.662452 -11.738737 1.446 0 0 255
-4.628157 -11.757333 1.389 0 0 255
-4.618776 -11.758747 1.701 0 0 255
-4.62234 -11.75693 1.68 0 0 255
-4.557313 -11.792308 1.533 0 0 255
-4.648633 -11.744656 1.562 0 0 255
-4.587136 -11.773745 1.9 0 0 255
-4.617465 -11.762781 1.294 0 0 255
-4.569316 -11.782825 1.859 0 0 255
-4.519874 -11.809139 1.804 0 0 255
-4.53102 -11.804583 1.706 0 0 255
-4.583572 -11.775561 1.835 0 0 255
-4.523892 -11.808214 1.582 0 0 255
-4.548823 -11.793266 1.913 0 0 255
-4.629939 -11.756425 1.307 0 0 255
-4.580042 -11.781849 1.392 0 0 255
-4.634377 -11.75192 1.659 0 0 255
-4.593373 -11.770567 1.896 0 0 255
-4.653559 -11.745513 1.242 0 0 255
-4.613447 -11.763706 1.473 0 0 255
-4.629485 -11.755535 1.405 0 0 255
-4.758698 -11.691942 1.122 0 0 255
-4.588044 -11.775527 1.628 0 0 255
-4.725276 -11.707849 1.355 0 0 255
-4.461538 -11.84223 1.464 0 0 255
-4.559078 -11.789165 1.726 0 0 255
-4.620592 -11.762311 1.245 0 0 255
-4.577335 -11.778739 1.894 0 0 255
-4.627719 -11.758678 1.254 0 0 255
-4.633502 -11.754609 1.37 0 0 255
-4.630359 -11.752845 1.76 0 0 255
-4.466867 -11.83727 1.671 0 0 255
-4.653979 -11.741932 1.654 0 0 255
-4.46954 -11.835908 1.645 0 0 255
-4.646851 -11.745564 1.552 0 0 255
-4.526565 -11.806852 1.632 0 0 255
-4.663343 -11.738283 1.427 0 0 255
-4.687854 -11.726916 1.373 0 0 255
-4.637504 -11.751449 1.414 0 0 255
-4.64954 -11.746437 1.347 0 0 255
-4.370656 -11.888536 1.478 0 0 255
-4.62503 -11.757805 1.423 0 0 255
-4.403623 -11.871738 1.487 0 0 255
-4.686946 -11.725134 1.547 0 0 255
-4.736423 -11.703292 1.143 0 0 255
-4.627265 -11.757788 1.358 0 0 255
-4.624576 -11.756913 1.562 0 0 255
-4.509636 -11.815478 1.643 0 0 255
-4.585354 -11.774653 1.938 0 0 255
-4.739986 -11.701476 1.184 0 0 255
-4.690527 -11.725554 1.351 0 0 255
-4.687417 -11.728261 1.239 0 0 255
-4.543494 -11.798226 1.612 0 0 255
-4.625921 -11.757351 1.442 0 0 255
-4.580025 -11.779613 1.662 0 0 255
-4.47223 -11.836782 1.411 0 0 255
-4.636176 -11.753247 1.386 0 0 255
-4.510981 -11.815915 1.583 0 0 255
-4.682508 -11.72964 1.366 0 0 255
-4.522564 -11.810014 1.549 0 0 255
-4.608521 -11.762849 1.866 0 0 255
-4.527019 -11.807744 1.45 0 0 255
-4.51589 -11.814536 1.336 0 0 255
-4.46954 -11.835908 1.649 0 0 255
-4.585808 -11.775544 1.768 0 0 255
-4.502071 -11.820456 1.503 0 0 255
-4.551496 -11.791904 1.914 0 0 255
-4.474903 -11.83542 1.416 0 0 255
-4.461976 -11.840885 1.578 0 0 255
-4.585354 -11.774653 1.924 0 0 255
-4.687854 -11.726916 1.314 0 0 255
-4.516327 -11.813191 1.532 0 0 255
-4.577789 -11.779631 1.806 0 0 255
-4.704783 -11.71829 1.288 0 0 255
-4.543948 -11.799118 1.522 0 0 255
-4.708784 -11.71513 1.419 0 0 255
-4.663797 -11.739174 1.374 0 0 255
-4.407624 -11.868578 1.523 0 0 255
-4.617465 -11.762781 1.287 0 0 255
-4.656198 -11.739679 1.671 0 0 255
-4.747551 -11.696499 1.233 0 0 255
-4.571989 -11.781463 1.945 0 0 255
-4.523001 -11.808668 1.581 0 0 255
-4.707893 -11.715584 1.444 0 0 255
-4.537257 -11.801404 1.608 0 0 255
-4.585808 -11.775544 1.717 0 0 255
-4.617011 -11.76189 1.531 0 0 255
-4.526111 -11.805962 1.739 0 0 255
-4.466884 -11.839505 1.409 0 0 255
-4.527456 -11.806398 1.619 0 0 255
-4.629047 -11.756879 1.324 0 0 255
-4.665125 -11.737375 1.409 0 0 255
-4.600502 -11.766935 1.875 0 0 255
-4.617902 -11.761436 1.488 0 0 255
-4.615649 -11.759217 1.824 0 0 255
-4.555514 -11.79098 1.802 0 0 255
-4.709675 -11.714676 1.411 0 0 255
-4.723948 -11.709647 1.216 0 0 255
-4.572897 -11.783245 1.562 0 0 255
-4.594752 -11.775476 1.269 0 0 255
-4.696764 -11.722376 1.257 0 0 255
-4.711474 -11.716003 1.162 0 0 255
-4.658014 -11.743243 1.253 0 0 255
-4.725276 -11.707849 1.294 0 0 255
-4.49896 -11.823162 1.375 0 0 255
-4.433463 -11.855412 1.553 0 0 255
-4.584044 -11.778688 1.503 0 0 255
-4.615665 -11.761454 1.562 0 0 255
-4.461976 -11.840885 1.515 0 0 255
-4.660233 -11.74099 1.366 0 0 255
-4.555077 -11.792325 1.67 0 0 255
-4.528364 -11.80818 1.426 0 0 255
-4.671799 -11.732852 1.611 0 0 255
-4.560423 -11.7896 1.623 0 0 255
-4.622794 -11.757821 1.589 0 0 255
-4.610319 -11.764177 1.616 0 0 255
-4.536366 -11.801858 1.706 0 0 255
-4.684727 -11.727387 1.508 0 0 255
-4.5074 -11.815495 1.817 0 0 255
-4.622777 -11.755586 1.808 0 0 255
-4.599174 -11.768735 1.779 0 0 255
-4.506526 -11.818186 1.519 0 0 255
-4.549277 -11.794158 1.764 0 0 255
-4.580025 -11.779613 1.568 0 0 255
-4.538602 -11.801842 1.455 0 0 255
-4.620574 -11.760075 1.414 0 0 255
-4.656652 -11.74057 1.623 0 0 255
-4.576478 -11.783665 1.329 0 0 255
-4.636176 -11.753247 1.339 0 0 255
-4.506979 -11.819076 1.37 0 0 255
-4.564425 -11.78644 1.771 0 0 255
-4.631267 -11.754627 1.494 0 0 255
-4.756916 -11.69285 1.18 0 0 255
-4.512326 -11.816352 1.424 0 0 255
-4.6081 -11.766431 1.439 0 0 255
-4.471339 -11.837235 1.413 0 0 255
-4.502945 -11.817765 1.817 0 0 255
-4.531911 -11.804129 1.695 0 0 255
-4.711457 -11.713768 1.392 0 0 255
-4.506526 -11.818186 1.459 0 0 255
-4.638395 -11.750995 1.422 0 0 255
-4.422771 -11.860861 1.522 0 0 255
-4.373329 -11.887175 1.478 0 0 255
-4.561331 -11.791383 1.336 0 0 255
-4.556422 -11.792762 1.477 0 0 255
-4.694528 -11.722393 1.498 0 0 255
-4.466867 -11.83727 1.648 0 0 255
-4.437918 -11.853143 1.561 0 0 255
-4.508291 -11.815042 1.807 0 0 255
-4.685635 -11.729169 1.175 0 0 255
-4.396041 -11.87448 1.515 0 0 255
-4.477123 -11.833167 1.576 0 0 255
-4.449502 -11.84724 1.483 0 0 255
-4.574662 -11.780101 1.878 0 0 255
-4.442373 -11.850873 1.517 0 0 255
-4.634394 -11.754155 1.354 0 0 255
-4.576881 -11.777847 1.992 0 0 255
-4.689199 -11.727353 1.171 0 0 255
-4.717694 -11.710589 1.413 0 0 255
-4.39515 -11.874934 1.519 0 0 255
-4.739986 -11.701476 1.141 0 0 255
-4.517218 -11.812737 1.524 0 0 255
-4.59339 -11.772803 1.672 0 0 255
-4.52791 -11.80729 1.458 0 0 255
-4.719039 -11.711026 1.273 0 0 255
-4.687854 -11.726916 1.289 0 0 255
-4.589843 -11.776855 1.316 0 0 255
-4.487814 -11.82772 1.566 0 0 255
-4.496287 -11.824524 1.356 0 0 255
-4.617011 -11.76189 1.517 0 0 255
-4.652214 -11.745075 1.306 0 0 255
-4.5132 -11.813663 1.655 0 0 255
-4.621012 -11.758729 1.668 0 0 255
-4.541695 -11.796899 1.88 0 0 255
-4.566206 -11.785532 1.826 0 0 255
-4.596971 -11.773223 1.406 0 0 255
-4.515419 -11.81141 1.811 0 0 255
-4.727058 -11.706941 1.337 0 0 255
-4.649978 -11.745093 1.473 0 0 255
-4.626374 -11.758242 1.385 0 0 255
-4.753352 -11.694666 1.205 0 0 255
-4.653996 -11.744167 1.283 0 0 255
-4.608521 -11.762849 1.892 0 0 255
-4.622374 -11.761402 1.254 0 0 255
-4.761371 -11.69058 1.174 0 0 255
-4.703892 -11.718744 1.303 0 0 255
-4.64865 -11.746891 1.338 0 0 255
-4.534601 -11.805002 1.338 0 0 255
-4.517218 -11.812737 1.561 0 0 255
-4.473121 -11.836328 1.454 0 0 255
-4.612556 -11.76416 1.479 0 0 255
-4.59608 -11.773677 1.414 0 0 255
-4.515419 -11.81141 1.718 0 0 255
-4.510527 -11.815024 1.6 0 0 255
-4.632595 -11.752828 1.612 0 0 255
-4.533693 -11.803221 1.675 0 0 255
-4.458865 -11.843592 1.446 0 0 255
-4.6099 -11.767758 1.259 0 0 255
-4.682054 -11.728749 1.488 0 0 255
-4.627249 -11.755551 1.641 0 0 255
-4.529675 -11.804146 1.744 0 0 255
-4.640614 -11.748741 1.623 0 0 255
-4.673161 -11.735525 1.212 0 0 255
-4.783646 -11.679231 1.089 0 0 255
-4.581354 -11.777814 1.726 0 0 255
-4.626829 -11.759132 1.246 0 0 255
-4.701656 -11.718761 1.455 0 0 255
-4.589826 -11.774619 1.658 0 0 255
-4.67538 -11.733272 1.293 0 0 255
-4.633502 -11.754609 1.379 0 0 255
-4.490034 -11.825466 1.715 0 0 255
-4.433463 -11.855412 1.504 0 0 255
-4.474886 -11.833183 1.659 0 0 255
-4.549731 -11.795049 1.571 0 0 255
-4.458848 -11.841355 1.636 0 0 255
-4.535021 -11.801422 1.715 0 0 255
-4.430353 -11.858119 1.423 0 0 255
-4.529255 -11.807726 1.355 0 0 255
-4.638395 -11.750995 1.484 0 0 255
-4.623248 -11.758713 1.468 0 0 255
-4.632611 -11.755063 1.333 0 0 255
-4.518092 -11.810048 1.807 0 0 255
-4.5132 -11.813663 1.685 0 0 255
-4.623668 -11.755132 1.83 0 0 255
-4.638848 -11.751885 1.271 0 0 255
-4.493615 -11.825886 1.453 0 0 255
-4.544385 -11.797772 1.671 0 0 255
-4.572914 -11.78548 1.368 0 0 255
-4.670908 -11.733306 1.611 0 0 255
-4.509653 -11.817714 1.451 0 0 255
-4.549294 -11.796394 1.566 0 0 255
-4.489597 -11.826811 1.568 0 0 255
-4.562188 -11.786457 1.865 0 0 255
-4.652651 -11.743731 1.4 0 0 255
-4.656669 -11.742805 1.323 0 0 255
-4.629939 -11.756425 1.335 0 0 255
-4.574225 -11.781446 1.748 0 0 255
-4.638832 -11.749649 1.656 0 0 255
-4.701656 -11.718761 1.384 0 0 255
-4.594265 -11.770113 1.928 0 0 255
-4.756461 -11.691958 1.231 0 0 255
-4.711457 -11.713768 1.42 0 0 255
-4.618793 -11.760983 1.476 0 0 255
-4.576899 -11.780085 1.703 0 0 255
-4.584463 -11.775107 1.876 0 0 255
-4.511872 -11.815461 1.482 0 0 255
-4.662014 -11.740082 1.253 0 0 255
-4.666033 -11.739157 1.229 0 0 255
-4.542166 -11.800026 1.568 0 0 255
-4.496271 -11.822288 1.678 0 0 255
-4.387585 -11.87991 1.462 0 0 255
-4.561331 -11.791383 1.421 0 0 255
-4.526111 -11.805962 1.723 0 0 255
-4.716804 -11.711043 1.407 0 0 255
-4.555077 -11.792325 1.624 0 0 255
-4.562205 -11.788692 1.651 0 0 255
-4.74266 -11.700114 1.121 0 0 255
-4.714147 -11.714642 1.16 0 0 255
-4.64954 -11.746437 1.305 0 0 255
-4.532785 -11.801438 1.881 0 0 255
-4.508291 -11.815042 1.8 0 0 255
-4.575133 -11.783228 1.488 0 0 255
-4.504306 -11.820438 1.45 0 0 255
-4.540838 -11.801825 1.341 0 0 255
-4.518983 -11.809594 1.762 0 0 255
-4.604537 -11.768247 1.451 0 0 255
-4.75557 -11.692412 1.228 0 0 255
-4.540384 -11.800934 1.568 0 0 255
-4.549277 -11.794158 1.746 0 0 255
-4.403169 -11.870849 1.526 0 0 255
-4.580933 -11.781395 1.42 0 0 255
-4.626374 -11.758242 1.277 0 0 255
-4.655777 -11.743259 1.363 0 0 255
-4.443264 -11.850419 1.504 0 0 255
-4.680272 -11.729657 1.385 0 0 255
-4.614774 -11.761908 1.58 0 0 255
-4.609428 -11.764631 1.576 0 0 255
-4.695436 -11.724175 1.189 0 0 255
-4.592062 -11.774602 1.439 0 0 255
-4.55464 -11.79367 1.491 0 0 255
-4.653542 -11.743277 1.493 0 0 255
-4.598316 -11.773661 1.278 0 0 255
-4.467321 -11.838161 1.53 0 0 255
-4.42768 -11.859481 1.433 0 0 255
-4.623684 -11.757367 1.662 0 0 255
-4.51009 -11.816369 1.569 0 0 255
-4.54884 -11.795503 1.592 0 0 255
-4.497179 -11.82407 1.384 0 0 255
-4.553312 -11.795468 1.379 0 0 255
-4.506526 -11.818186 1.51 0 0 255
-4.551513 -11.794141 1.599 0 0 255
-4.444609 -11.850855 1.461 0 0 255
-4.653088 -11.742386 1.606 0 0 255
-4.660216 -11.738753 1.624 0 0 255
-4.587136 -11.773745 1.82 0 0 255
-4.571115 -11.784153 1.678 0 0 255
-4.727512 -11.707831 1.177 0 0 255
-4.611228 -11.765959 1.389 0 0 255
-4.626374 -11.758242 1.353 0 0 255
-4.546604 -11.79552 1.8 0 0 255
-4.438809 -11.852689 1.614 0 0 255
-4.684727 -11.727387 1.394 0 0 255
-4.465086 -11.838178 1.633 0 0 255
-4.717694 -11.710589 1.362 0 0 255
-4.592045 -11.772367 1.75 0 0 255
-4.518092 -11.810048 1.835 0 0 255
-4.464211 -11.840867 1.388 0 0 255
-4.620558 -11.757839 1.709 0 0 255
-4.544385 -11.797772 1.697 0 0 255
-4.762261 -11.690126 1.173 0 0 255
-4.629921 -11.754189 1.576 0 0 255
-4.620592 -11.762311 1.238 0 0 255
-4.40095 -11.873101 1.474 0 0 255
-4.619246 -11.761873 1.362 0 0 255
-4.506072 -11.817294 1.589 0 0 255
-4.497616 -11.822725 1.535 0 0 255
-4.479779 -11.829569 1.752 0 0 255
-4.56397 -11.785549 1.921 0 0 255
-4.564895 -11.789567 1.366 0 0 255
-4.5248 -11.809997 1.365 0 0 255
-4.611665 -11.764614 1.5 0 0 255
-4.493615 -11.825886 1.424 0 0 255
-4.568425 -11.783278 1.95 0 0 255
-4.600973 -11.770062 1.432 0 0 255
-4.623248 -11.758713 1.486 0 0 255
-4.465086 -11.838178 1.721 0 0 255
-4.626374 -11.758242 1.362 0 0 255
-4.54262 -11.800917 1.33 0 0 255
-4.615665 -11.761454 1.651 0 0 255
-4.64907 -11.743311 1.672 0 0 255
-4.725276 -11.707849 1.238 0 0 255
-4.630813 -11.753736 1.542 0 0 255
-4.497616 -11.822725 1.462 0 0 255
-4.601847 -11.767372 1.757 0 0 255
-4.579134 -11.780066 1.671 0 0 255
-4.422334 -11.862206 1.448 0 0 255
-4.47534 -11.834075 1.548 0 0 255
-4.543494 -11.798226 1.583 0 0 255
-4.673161 -11.735525 1.206 0 0 255
-4.471776 -11.835891 1.595 0 0 255
-4.573317 -11.779663 1.961 0 0 255
-4.570224 -11.784607 1.601 0 0 255
-4.5248 -11.809997 1.439 0 0 255
-4.582681 -11.776015 1.87 0 0 255
-4.669597 -11.737341 1.24 0 0 255
-4.457083 -11.8445 1.415 0 0 255
-4.524783 -11.80776 1.615 0 0 255
-4.578681 -11.779177 1.743 0 0 255
-4.400059 -11.873555 1.496 0 0 255
-4.602755 -11.769155 1.519 0 0 255
-4.394713 -11.876279 1.468 0 0 255
-4.5965 -11.770097 1.755 0 0 255
-4.48958 -11.824575 1.769 0 0 255
-4.60452 -11.76601 1.808 0 0 255
-4.614321 -11.761017 1.746 0 0 255
-4.638848 -11.751885 1.295 0 0 255
-4.638848 -11.751885 1.289 0 0 255
-4.600518 -11.769171 1.656 0 0 255
-4.58137 -11.78005 1.464 0 0 255
-4.605411 -11.765556 1.757 0 0 255
-4.592483 -11.771021 1.868 0 0 255
-4.63663 -11.754139 1.251 0 0 255
-4.66378 -11.736938 1.527 0 0 255
-4.666016 -11.736921 1.463 0 0 255
-4.442373 -11.850873 1.548 0 0 255
-4.601409 -11.768717 1.678 0 0 255
-4.525691 -11.809542 1.42 0 0 255
-4.558641 -11.790508 1.644 0 0 255
-4.598736 -11.770079 1.617 0 0 255
-4.596046 -11.769205 1.906 0 0 255
-4.467775 -11.839051 1.41 0 0 255
-4.609411 -11.762395 1.831 0 0 255
-4.637958 -11.752339 1.343 0 0 255
-4.485579 -11.827736 1.72 0 0 255
-4.518092 -11.810048 1.767 0 0 255
-4.508745 -11.815932 1.65 0 0 255
-4.572426 -11.780118 1.962 0 0 255
-4.611228 -11.765959 1.288 0 0 255
-4.620995 -11.756494 1.812 0 0 255
-4.618339 -11.760091 1.567 0 0 255
-4.591609 -11.773711 1.612 0 0 255
-4.499398 -11.821817 1.465 0 0 255
-4.574662 -11.780101 1.918 0 0 255
-4.543057 -11.799572 1.468 0 0 255
-4.551496 -11.791904 1.893 0 0 255
-4.740423 -11.70013 1.263 0 0 255
-4.511418 -11.81457 1.587 0 0 255
-4.689636 -11.726007 1.314 0 0 255
-4.464211 -11.840867 1.451 0 0 255
-4.590281 -11.775511 1.524 0 0 255
-4.535021 -11.801422 1.767 0 0 255
-4.594718 -11.771005 1.787 0 0 255
-4.539022 -11.798261 1.869 0 0 255
-4.554623 -11.791434 1.717 0 0 255
-4.541712 -11.799134 1.594 0 0 255
-4.490034 -11.825466 1.689 0 0 255
-4.420989 -11.861769 1.516 0 0 255
-4.453957 -11.844971 1.597 0 0 255
-4.532348 -11.802784 1.84 0 0 255
-4.629031 -11.754643 1.565 0 0 255
-4.5248 -11.809997 1.429 0 0 255
-4.449064 -11.848585 1.431 0 0 255
-4.410297 -11.867216 1.59 0 0 255
-4.467758 -11.836816 1.719 0 0 255
-4.508761 -11.818168 1.453 0 0 255
-4.552404 -11.793687 1.693 0 0 255
-4.541258 -11.798244 1.757 0 0 255
-4.707893 -11.715584 1.403 0 0 255
-4.552841 -11.792342 1.82 0 0 255
-4.653542 -11.743277 1.401 0 0 255
-4.437918 -11.853143 1.572 0 0 255
-4.744442 -11.699205 1.141 0 0 255
-4.67269 -11.732398 1.599 0 0 255
-4.59608 -11.773677 1.314 0 0 255
-4.576461 -11.781428 1.579 0 0 255
-4.560423 -11.7896 1.587 0 0 255
-4.545276 -11.797318 1.646 0 0 255
-4.645506 -11.745127 1.662 0 0 255
-4.757807 -11.692396 1.158 0 0 255
-4.521673 -11.810468 1.489 0 0 255
-4.537274 -11.80364 1.437 0 0 255
-4.576915 -11.78232 1.502 0 0 255
-4.468213 -11.837707 1.474 0 0 255
-4.647322 -11.748691 1.241 0 0 255
-4.573805 -11.785027 1.423 0 0 255
-4.579571 -11.778723 1.776 0 0 255
-4.583589 -11.777797 1.581 0 0 255
-4.546604 -11.79552 1.741 0 0 255
-4.453065 -11.845425 1.549 0 0 255
-4.476668 -11.832275 1.652 0 0 255
-4.699891 -11.721906 1.172 0 0 255
-4.468649 -11.836362 1.624 0 0 255
-4.591171 -11.775056 1.514 0 0 255
-4.710129 -11.715566 1.359 0 0 255
-4.520782 -11.810922 1.483 0 0 255
-4.679835 -11.731002 1.319 0 0 255
-4.588061 -11.777762 1.322 0 0 255
-4.454393 -11.843625 1.668 0 0 255
-4.535929 -11.803204 1.536 0 0 255
-4.495817 -11.821398 1.737 0 0 255
-4.452628 -11.846769 1.433 0 0 255
-4.469995 -11.836799 1.494 0 0 255
-4.638848 -11.751885 1.313 0 0 255
-4.611681 -11.76685 1.263 0 0 255
-4.729731 -11.705578 1.301 0 0 255
-4.377784 -11.884905 1.485 0 0 255
-4.682508 -11.72964 1.371 0 0 255
-4.663343 -11.738283 1.389 0 0 255
-4.445937 -11.849057 1.604 0 0 255
-4.706565 -11.717382 1.25 0 0 255
-4.523018 -11.810905 1.353 0 0 255
-4.736859 -11.701946 1.255 0 0 255
-4.551059 -11.79325 1.811 0 0 255
-4.570678 -11.785498 1.442 0 0 255
-4.723494 -11.708756 1.295 0 0 255
-4.516764 -11.811846 1.613 0 0 255
-4.502524 -11.821346 1.439 0 0 255
-4.753352 -11.694666 1.132 0 0 255
-4.699891 -11.721906 1.182 0 0 255
-4.560423 -11.7896 1.604 0 0 255
-4.458848 -11.841355 1.668 0 0 255
-4.656652 -11.74057 1.62 0 0 255
-4.727058 -11.706941 1.299 0 0 255
-4.496287 -11.824524 1.419 0 0 255
-4.576025 -11.782774 1.543 0 0 255
-4.433026 -11.856757 1.446 0 0 255
-4.502071 -11.820456 1.513 0 0 255
-4.533693 -11.803221 1.668 0 0 255
-4.508761 -11.818168 1.418 0 0 255
-4.464194 -11.838632 1.708 0 0 255
-4.506072 -11.817294 1.683 0 0 255
-4.728404 -11.707377 1.18 0 0 255
-4.612118 -11.765505 1.382 0 0 255
-4.664234 -11.737829 1.398 0 0 255
-4.496287 -11.824524 1.371 0 0 255
-4.538165 -11.803186 1.321 0 0 255
-4.621012 -11.758729 1.574 0 0 255
-4.599207 -11.773207 1.26 0 0 255
-4.608992 -11.765977 1.446 0 0 255
-4.735531 -11.703746 1.19 0 0 255
-4.589373 -11.773728 1.696 0 0 255
-4.692309 -11.724646 1.263 0 0 255
-4.598282 -11.769189 1.8 0 0 255
-4.51589 -11.814536 1.373 0 0 255
-4.659325 -11.739207 1.578 0 0 255
-4.69631 -11.721485 1.464 0 0 255
-4.539493 -11.801388 1.508 0 0 255
-4.683399 -11.729186 1.375 0 0 255
-4.485579 -11.827736 1.655 0 0 255
-4.444155 -11.849965 1.483 0 0 255
-4.618355 -11.762327 1.357 0 0 255
-4.631267 -11.754627 1.442 0 0 255
-4.610302 -11.761941 1.885 0 0 255
-4.630376 -11.755081 1.48 0 0 255
-4.567568 -11.788204 1.409 0 0 255
-4.547058 -11.796411 1.63 0 0 255
-4.567568 -11.788204 1.375 0 0 255
-4.592953 -11.774148 1.541 0 0 255
-4.597374 -11.767406 1.949 0 0 255
-4.617447 -11.760545 1.624 0 0 255
-4.689199 -11.727353 1.194 0 0 255
-4.415206 -11.865837 1.453 0 0 255
-4.644632 -11.747817 1.395 0 0 255
-4.638832 -11.749649 1.615 0 0 255
-4.531037 -11.806818 1.444 0 0 255
-4.622794 -11.757821 1.601 0 0 255
-4.550622 -11.794595 1.638 0 0 255
-4.772063 -11.685132 1.119 0 0 255
-4.554623 -11.791434 1.767 0 0 255
-4.636176 -11.753247 1.291 0 0 255
-4.588481 -11.774182 1.773 0 0 255
-4.656652 -11.74057 1.575 0 0 255
-4.604957 -11.764666 1.86 0 0 255
-4.71682 -11.71328 1.153 0 0 255
-4.525674 -11.807306 1.644 0 0 255
-4.715021 -11.711951 1.385 0 0 255
-4.421443 -11.862659 1.467 0 0 255
-4.535021 -11.801422 1.837 0 0 255
-4.693654 -11.725083 1.233 0 0 255
-4.576899 -11.780085 1.783 0 0 255
-4.691418 -11.7251 1.358 0 0 255
-4.543511 -11.800463 1.31 0 0 255
-4.666016 -11.736921 1.44 0 0 255
-4.379112 -11.883106 1.519 0 0 255
-4.477123 -11.833167 1.539 0 0 255
-4.517218 -11.812737 1.537 0 0 255
-4.390258 -11.878549 1.489 0 0 255
-4.6932 -11.724192 1.252 0 0 255
-4.537257 -11.801404 1.596 0 0 255
-4.589826 -11.774619 1.574 0 0 255
-4.492253 -11.823214 1.733 0 0 255
-4.547058 -11.796411 1.636 0 0 255
-4.661998 -11.737845 1.553 0 0 255
-4.726167 -11.707395 1.254 0 0 255
-4.680726 -11.730548 1.334 0 0 255
-4.598282 -11.769189 1.767 0 0 255
-4.515436 -11.813645 1.517 0 0 255
-4.53413 -11.801876 1.724 0 0 255
-4.573788 -11.782791 1.624 0 0 255
-4.547512 -11.797302 1.566 0 0 255
-4.42188 -11.861315 1.573 0 0 255
-4.659779 -11.740099 1.425 0 0 255
-4.396495 -11.875371 1.485 0 0 255
-4.54304 -11.797336 1.755 0 0 255
-4.637504 -11.751449 1.445 0 0 255
-4.671816 -11.735087 1.259 0 0 255
-4.584934 -11.778234 1.527 0 0 255
-4.570224 -11.784607 1.591 0 0 255
-4.756024 -11.693304 1.174 0 0 255
-4.53413 -11.801876 1.769 0 0 255
-4.656652 -11.74057 1.644 0 0 255
-4.653559 -11.745513 1.25 0 0 255
-4.685181 -11.728278 1.27 0 0 255
-4.65176 -11.744185 1.513 0 0 255
-4.605411 -11.765556 1.81 0 0 255
-4.461521 -11.839993 1.716 0 0 255
-4.758244 -11.691051 1.22 0 0 255
-4.759134 -11.690597 1.219 0 0 255
-4.657997 -11.741007 1.502 0 0 255
-4.425444 -11.859499 1.497 0 0 255
-4.749333 -11.69559 1.265 0 0 255
-4.777409 -11.682408 1.12 0 0 255
-4.653525 -11.741041 1.668 0 0 255
-4.636613 -11.751903 1.447 0 0 255
-4.466867 -11.83727 1.729 0 0 255
-4.672707 -11.734633 1.251 0 0 255
-4.376002 -11.885813 1.502 0 0 255
-4.478014 -11.832713 1.5 0 0 255
-4.592483 -11.771021 1.836 0 0 255
-4.411188 -11.866762 1.533 0 0 255
-4.70522 -11.716946 1.445 0 0 255
-4.662906 -11.739628 1.307 0 0 255
-4.570224 -11.784607 1.646 0 0 255
-4.6081 -11.766431 1.438 0 0 255
-4.538585 -11.799606 1.759 0 0 255
-4.614758 -11.759671 1.825 0 0 255
-4.608992 -11.765977 1.517 0 0 255
-4.672253 -11.733744 1.491 0 0 255
-4.503398 -11.818656 1.695 0 0 255
-4.610336 -11.766413 1.319 0 0 255
-4.684727 -11.727387 1.383 0 0 255
-4.573351 -11.784136 1.533 0 0 255
-4.584044 -11.778688 1.507 0 0 255
-4.520345 -11.812266 1.437 0 0 255
-4.683399 -11.729186 1.307 0 0 255
-4.563987 -11.787785 1.595 0 0 255
-4.457083 -11.8445 1.47 0 0 255
-4.528364 -11.80818 1.393 0 0 255
-4.578243 -11.78052 1.635 0 0 255
-4.620574 -11.760075 1.466 0 0 255
-4.670488 -11.736887 1.235 0 0 255
-4.488706 -11.827265 1.541 0 0 255
-4.620574 -11.760075 1.537 0 0 255
-4.510527 -11.815024 1.616 0 0 255
-4.560423 -11.7896 1.643 0 0 255
-4.660216 -11.738753 1.589 0 0 255
-4.404951 -11.869941 1.58 0 0 255
-4.598282 -11.769189 1.784 0 0 255
-4.586699 -11.77509 1.721 0 0 255
-4.6932 -11.724192 1.245 0 0 255
-4.558658 -11.792745 1.403 0 0 255
-4.545276 -11.797318 1.676 0 0 255
-4.530146 -11.807272 1.36 0 0 255
-4.453065 -11.845425 1.513 0 0 255
-4.64865 -11.746891 1.372 0 0 255
-4.619667 -11.758293 1.752 0 0 255
-4.470431 -11.835454 1.694 0 0 255
-4.643303 -11.749616 1.324 0 0 255
-4.586699 -11.77509 1.717 0 0 255
-4.616119 -11.762344 1.495 0 0 255
-4.571552 -11.782808 1.812 0 0 255
-4.618355 -11.762327 1.307 0 0 255
-4.627686 -11.754207 1.797 0 0 255
-4.677162 -11.732364 1.308 0 0 255
-4.457974 -11.844046 1.424 0 0 255
-4.513216 -11.815898 1.433 0 0 255
-4.535021 -11.801422 1.756 0 0 255
-4.615211 -11.760563 1.765 0 0 255
-4.389804 -11.877658 1.511 0 0 255
-4.479795 -11.831805 1.516 0 0 255
-4.718148 -11.71148 1.229 0 0 255
-4.543931 -11.796882 1.708 0 0 255
-4.555531 -11.793216 1.441 0 0 255
-4.770281 -11.68604 1.114 0 0 255
-4.659779 -11.740099 1.389 0 0 255
-4.592937 -11.771913 1.789 0 0 255
-4.493161 -11.824995 1.57 0 0 255
-4.579151 -11.782303 1.385 0 0 255
-4.473104 -11.834092 1.69 0 0 255
-4.606755 -11.765993 1.642 0 0 255
-4.47534 -11.834075 1.549 0 0 255
-4.523455 -11.80956 1.565 0 0 255
-4.598753 -11.772315 1.397 0 0 255
-4.488268 -11.828609 1.442 0 0 255
-4.759589 -11.691488 1.126 0 0 255
-4.632141 -11.751937 1.67 0 0 255
-4.512309 -11.814116 1.616 0 0 255
-4.536803 -11.800514 1.71 0 0 255
-4.539476 -11.799152 1.755 0 0 255
-4.52791 -11.80729 1.536 0 0 255
-4.658888 -11.740553 1.418 0 0 255
-4.597392 -11.769643 1.805 0 0 255
-4.539039 -11.800496 1.692 0 0 255
-4.63125 -11.752391 1.791 0 0 255
-4.670034 -11.735995 1.322 0 0 255
-4.590263 -11.773274 1.782 0 0 255
-4.416988 -11.864929 1.459 0 0 255
-4.507417 -11.817732 1.549 0 0 255
-4.636158 -11.751012 1.602 0 0 255
-4.561297 -11.786911 1.881 0 0 255
-4.75157 -11.695574 1.167 0 0 255
-4.699437 -11.721014 1.265 0 0 255
-4.437918 -11.853143 1.588 0 0 255
-4.429008 -11.857682 1.52 0 0 255
-4.570678 -11.785498 1.446 0 0 255
-4.617447 -11.760545 1.573 0 0 255
-4.547512 -11.797302 1.537 0 0 255
-4.673598 -11.734179 1.283 0 0 255
-4.679818 -11.728765 1.586 0 0 255
-4.603208 -11.770045 1.371 0 0 255
-4.495397 -11.824978 1.398 0 0 255
-4.628577 -11.753753 1.713 0 0 255
-4.656652 -11.74057 1.529 0 0 255
-4.65487 -11.741478 1.651 0 0 255
-4.555514 -11.79098 1.723 0 0 255
-4.699891 -11.721906 1.215 0 0 255
-4.736423 -11.703292 1.186 0 0 255
-4.630359 -11.752845 1.749 0 0 255
-4.503836 -11.817311 1.761 0 0 255
-4.541712 -11.799134 1.658 0 0 255
-4.473121 -11.836328 1.429 0 0 255
-4.469995 -11.836799 1.585 0 0 255
-4.644177 -11.746925 1.612 0 0 255
-4.657106 -11.741461 1.467 0 0 255
-4.459302 -11.842247 1.552 0 0 255
-4.546184 -11.7991 1.385 0 0 255
-4.559986 -11.790946 1.53 0 0 255
-4.589809 -11.772383 1.831 0 0 255
-4.6816 -11.727858 1.571 0 0 255
-4.422771 -11.860861 1.546 0 0 255
-4.738641 -11.701038 1.221 0 0 255
-4.57288 -11.781009 1.889 0 0 255
-4.507417 -11.817732 1.553 0 0 255
-4.600098 -11.772753 1.27 0 0 255
-4.638848 -11.751885 1.36 0 0 255
-4.644195 -11.749162 1.273 0 0 255
-4.56935 -11.787296 1.374 0 0 255
-4.694528 -11.722393 1.418 0 0 255
-4.66958 -11.735106 1.487 0 0 255
-4.452611 -11.844534 1.613 0 0 255
-4.615211 -11.760563 1.714 0 0 255
-4.65176 -11.744185 1.455 0 0 255
-4.629031 -11.754643 1.602 0 0 255
-4.521673 -11.810468 1.455 0 0 255
-4.517655 -11.811392 1.637 0 0 255
-4.608084 -11.764194 1.703 0 0 255
-4.54615 -11.794628 1.871 0 0 255
-4.530566 -11.803692 1.718 0 0 255
-4.572914 -11.78548 1.389 0 0 255
-4.588935 -11.775073 1.632 0 0 255
-4.496287 -11.824524 1.433 0 0 255
-4.626374 -11.758242 1.36 0 0 255
-4.494505 -11.825432 1.392 0 0 255
-4.575117 -11.780993 1.808 0 0 255
-4.469995 -11.836799 1.508 0 0 255
-4.536366 -11.801858 1.656 0 0 255
-4.773845 -11.684224 1.107 0 0 255
-4.575587 -11.784119 1.352 0 0 255
-4.647758 -11.747345 1.269 0 0 255
-4.675817 -11.731927 1.407 0 0 255
-4.661124 -11.740536 1.281 0 0 255
-4.487814 -11.82772 1.465 0 0 255
-4.506979 -11.819076 1.397 0 0 255
-4.638378 -11.748759 1.691 0 0 255
-4.57246 -11.78459 1.507 0 0 255
-4.660216 -11.738753 1.622 0 0 255
-4.576915 -11.78232 1.514 0 0 255
-4.486032 -11.828628 1.51 0 0 255
-4.566206 -11.785532 1.719 0 0 255
-4.691418 -11.7251 1.309 0 0 255
-4.602737 -11.766918 1.753 0 0 255
-4.430353 -11.858119 1.448 0 0 255
-4.600535 -11.771407 1.37 0 0 255
-4.609883 -11.765523 1.44 0 0 255
-4.691855 -11.723756 1.401 0 0 255
-4.503398 -11.818656 1.687 0 0 255
-4.637521 -11.753685 1.225 0 0 255
-4.486486 -11.829517 1.435 0 0 255
-4.732404 -11.704216 1.262 0 0 255
-4.583572 -11.775561 1.833 0 0 255
-4.591171 -11.775056 1.43 0 0 255
-4.617447 -11.760545 1.617 0 0 255
-4.540804 -11.797353 1.841 0 0 255
-4.622777 -11.755586 1.818 0 0 255
-4.617902 -11.761436 1.489 0 0 255
-4.614321 -11.761017 1.744 0 0 255
-4.644632 -11.747817 1.5 0 0 255
-4.763153 -11.689672 1.132 0 0 255
-4.633957 -11.755501 1.223 0 0 255
-4.455284 -11.843171 1.685 0 0 255
-4.603662 -11.770936 1.276 0 0 255
-4.579151 -11.782303 1.415 0 0 255
-4.413424 -11.866745 1.454 0 0 255
-4.610336 -11.766413 1.343 0 0 255
-4.54262 -11.800917 1.337 0 0 255
-4.487378 -11.829063 1.364 0 0 255
-4.493598 -11.82365 1.64 0 0 255
-4.713693 -11.71375 1.355 0 0 255
-4.53724 -11.799169 1.867 0 0 255
-4.584934 -11.778234 1.444 0 0 255
-4.481123 -11.830006 1.682 0 0 255
-4.537257 -11.801404 1.699 0 0 255
-4.653088 -11.742386 1.622 0 0 255
-4.571569 -11.785044 1.466 0 0 255
-4.705674 -11.717836 1.309 0 0 255
-4.468666 -11.838597 1.417 0 0 255
-4.626812 -11.756897 1.521 0 0 255
-4.498053 -11.82138 1.684 0 0 255
-4.641051 -11.747397 1.691 0 0 255
-4.484251 -11.829535 1.551 0 0 255
-4.551967 -11.795032 1.457 0 0 255
-4.540804 -11.797353 1.856 0 0 255
-4.654416 -11.740587 1.679 0 0 255
-4.519891 -11.811376 1.533 0 0 255
-4.6932 -11.724192 1.246 0 0 255
-4.595626 -11.772786 1.523 0 0 255
-4.502945 -11.817765 1.778 0 0 255
-4.68429 -11.728732 1.355 0 0 255
-4.491832 -11.826794 1.425 0 0 255
-4.635284 -11.753701 1.366 0 0 255
-4.659779 -11.740099 1.412 0 0 255
-4.668252 -11.736903 1.281 0 0 255
-4.555514 -11.79098 1.8 0 0 255
-4.645523 -11.747363 1.422 0 0 255
-4.461084 -11.841339 1.507 0 0 255
-4.407187 -11.869923 1.496 0 0 255
-4.499398 -11.821817 1.488 0 0 255
-4.6139 -11.764597 1.372 0 0 255
-4.384021 -11.881726 1.474 0 0 255
-4.537257 -11.801404 1.637 0 0 255
-4.516764 -11.811846 1.672 0 0 255
-4.47223 -11.836782 1.42 0 0 255
-4.550622 -11.794595 1.601 0 0 255
-4.636613 -11.751903 1.507 0 0 255
-4.408515 -11.868124 1.581 0 0 255
-4.57246 -11.78459 1.51 0 0 255
-4.429445 -11.856338 1.631 0 0 255
-4.540821 -11.799588 1.592 0 0 255
-4.472668 -11.835437 1.474 0 0 255
-4.614774 -11.761908 1.567 0 0 255
-4.663797 -11.739174 1.323 0 0 255
-4.475794 -11.834966 1.462 0 0 255
-4.680272 -11.729657 1.432 0 0 255
-4.545293 -11.799555 1.336 0 0 255
-4.55153 -11.796376 1.335 0 0 255
-4.466431 -11.838615 1.583 0 0 255
-4.577369 -11.783211 1.405 0 0 255
-4.658014 -11.743243 1.216 0 0 255
-4.553749 -11.794124 1.53 0 0 255
-4.586279 -11.778671 1.305 0 0 255
-4.606302 -11.765102 1.712 0 0 255
-4.62503 -11.757805 1.526 0 0 255
-4.722603 -11.70921 1.308 0 0 255
-4.410751 -11.868107 1.469 0 0 255
-4.389367 -11.879003 1.473 0 0 255
-4.563079 -11.786003 1.882 0 0 255
-4.519891 -11.811376 1.559 0 0 255
-4.748005 -11.69739 1.143 0 0 255
-4.668689 -11.735559 1.506 0 0 255
-4.633502 -11.754609 1.29 0 0 255
-4.545259 -11.795082 1.909 0 0 255
-4.518109 -11.812284 1.489 0 0 255
-4.630359 -11.752845 1.774 0 0 255
-4.542603 -11.79868 1.66 0 0 255
-4.476232 -11.833621 1.538 0 0 255
-4.610302 -11.761941 1.828 0 0 255
-4.471323 -11.835 1.73 0 0 255
-4.595592 -11.768313 1.964 0 0 255
-4.567551 -11.785969 1.577 0 0 255
-4.405842 -11.869487 1.512 0 0 255
-4.6023 -11.768263 1.568 0 0 255
-4.592483 -11.771021 1.825 0 0 255
-4.761371 -11.69058 1.104 0 0 255
-4.686055 -11.725588 1.51 0 0 255
-4.56086 -11.788256 1.764 0 0 255
-4.676254 -11.730582 1.597 0 0 255
-4.534601 -11.805002 1.4 0 0 255
-4.634377 -11.75192 1.614 0 0 255
-4.611228 -11.765959 1.315 0 0 255
-4.67849 -11.730565 1.48 0 0 255
-4.614774 -11.761908 1.637 0 0 255
-4.620137 -11.761419 1.338 0 0 255
-4.615682 -11.763689 1.402 0 0 255
-4.564861 -11.785095 1.911 0 0 255
-4.686072 -11.727824 1.266 0 0 255
-4.531928 -11.806364 1.35 0 0 255
-4.45172 -11.844988 1.691 0 0 255
-4.524329 -11.80687 1.715 0 0 255
-4.607629 -11.763303 1.825 0 0 255
-4.589809 -11.772383 1.835 0 0 255
-4.579117 -11.777831 1.89 0 0 255
-4.671799 -11.732852 1.588 0 0 255
-4.691855 -11.723756 1.498 0 0 255
-4.584026 -11.776452 1.75 0 0 255
-4.645977 -11.748254 1.386 0 0 255
-4.44861 -11.847694 1.521 0 0 255
-4.470431 -11.835454 1.624 0 0 255
-4.62281 -11.760057 1.359 0 0 255
-4.549748 -11.797284 1.353 0 0 255
-4.707456 -11.716928 1.238 0 0 255
-4.557313 -11.792308 1.556 0 0 255
-4.589355 -11.771492 1.976 0 0 255
-4.624122 -11.756022 1.732 0 0 255
-4.503836 -11.817311 1.768 0 0 255
-4.653559 -11.745513 1.217 0 0 255
-4.644632 -11.747817 1.414 0 0 255
-4.697201 -11.721031 1.404 0 0 255
-4.577335 -11.778739 1.899 0 0 255
-4.437027 -11.853597 1.506 0 0 255
-4.672253 -11.733744 1.461 0 0 255
-4.713239 -11.71286 1.417 0 0 255
-4.586699 -11.77509 1.763 0 0 255
-4.584497 -11.779579 1.34 0 0 255
-4.564895 -11.789567 1.37 0 0 255
-4.397823 -11.873572 1.516 0 0 255
-4.674926 -11.732381 1.454 0 0 255
-4.628139 -11.755097 1.618 0 0 255
-4.623265 -11.760948 1.246 0 0 255
-4.581354 -11.777814 1.797 0 0 255
-4.629939 -11.756425 1.334 0 0 255
-4.510527 -11.815024 1.666 0 0 255
-4.599644 -11.771861 1.35 0 0 255
-4.549731 -11.795049 1.573 0 0 255
-4.70522 -11.716946 1.463 0 0 255
-4.462866 -11.840431 1.487 0 0 255
-4.717257 -11.711934 1.323 0 0 255
-4.492706 -11.824104 1.639 0 0 255
-4.547495 -11.795066 1.807 0 0 255
-4.462866 -11.840431 1.605 0 0 255
-4.530129 -11.805037 1.653 0 0 255
-4.570662 -11.783262 1.77 0 0 255
-4.401387 -11.871757 1.559 0 0 255
-4.572897 -11.783245 1.669 0 0 255
-4.684727 -11.727387 1.475 0 0 255
-4.691418 -11.7251 1.341 0 0 255
-4.682945 -11.728295 1.509 0 0 255
-4.602737 -11.766918 1.696 0 0 255
-4.581354 -11.777814 1.714 0 0 255
-4.586699 -11.77509 1.714 0 0 255
-4.565769 -11.786877 1.564 0 0 255
-4.750224 -11.695136 1.254 0 0 255
-4.617465 -11.762781 1.292 0 0 255
-4.445483 -11.848166 1.642 0 0 255
