ply
format ascii 1.0
element vertex 1303
property double x
property double y
property double z
property uchar red
property uchar green
property uchar blue
element face 0
property list uchar int vertex_indices
end_header
-4.91459 -14.848178 0.476 255 170 0
-4.903863 -14.849154 0.475 255 170 0
-4.99562 -14.800157 0.471 255 170 0
-4.825383 -14.82068 0.466 255 170 0
-5.048903 -14.867283 0.486 255 170 0
-5.061377 -14.860927 0.486 255 170 0
-4.77177 -14.827795 0.465 255 170 0
-5.060316 -14.839021 0.482 255 170 0
-5.011527 -14.833577 0.478 255 170 0
-4.86533 -14.839606 0.472 255 170 0
-5.006703 -14.846137 0.48 255 170 0
-4.846784 -14.812019 0.466 255 170 0
-4.886379 -14.843472 0.474 255 170 0
-4.975921 -14.85621 0.481 255 170 0
-4.79724 -14.824918 0.466 255 170 0
-5.031129 -14.823589 0.478 255 170 0
-4.730143 -14.823191 0.462 255 170 0
-4.806133 -14.818142 0.465 255 170 0
-5.075264 -14.863953 0.487 255 170 0
-4.913682 -14.846395 0.475 255 170 0
-5.057711 -14.849327 0.484 255 170 0
-4.905646 -14.848245 0.475 255 170 0
-4.713617 -14.826 0.461 255 170 0
-4.822795 -14.833221 0.468 255 170 0
-5.045453 -14.82527 0.479 255 170 0
-4.877469 -14.848012 0.474 255 170 0
-4.841608 -14.837104 0.47 255 170 0
-5.027315 -14.851347 0.482 255 170 0
-5.030981 -14.862947 0.485 255 170 0
-4.760976 -14.819827 0.463 255 170 0
-4.817784 -14.821184 0.466 255 170 0
-4.751663 -14.830184 0.464 255 170 0
-4.860251 -14.818625 0.468 255 170 0
-5.027786 -14.854473 0.483 255 170 0
-5.006045 -14.818414 0.475 255 170 0
-4.989354 -14.858343 0.482 255 170 0
-4.999825 -14.823827 0.476 255 170 0
-4.895522 -14.810755 0.468 255 170 0
-5.019563 -14.831728 0.478 255 170 0
-4.879853 -14.808638 0.467 255 170 0
-4.925061 -14.813662 0.47 255 170 0
-5.070219 -14.847444 0.484 255 170 0
-4.910232 -14.804382 0.468 255 170 0
-4.968856 -14.809304 0.472 255 170 0
-4.927246 -14.806937 0.469 255 170 0
-5.069816 -14.85326 0.485 255 170 0
-4.890613 -14.812135 0.468 255 170 0
-5.072608 -14.867551 0.488 255 170 0
-4.804385 -14.823522 0.466 255 170 0
-5.005473 -14.80187 0.472 255 170 0
-4.760539 -14.821172 0.463 255 170 0
-4.867952 -14.831537 0.47 255 170 0
-5.009007 -14.855063 0.482 255 170 0
-4.988611 -14.81944 0.475 255 170 0
-4.964236 -14.848695 0.479 255 170 0
-4.783858 -14.829493 0.466 255 170 0
-4.960672 -14.850512 0.479 255 170 0
-4.791962 -14.836586 0.467 255 170 0
-4.825468 -14.83186 0.468 255 170 0
-4.830678 -14.811248 0.465 255 170 0
-4.802569 -14.819959 0.465 255 170 0
-5.007072 -14.835847 0.479 255 170 0
-4.922791 -14.809207 0.469 255 170 0
-4.955996 -14.823713 0.474 255 170 0
-4.794618 -14.832988 0.467 255 170 0
-4.796298 -14.818664 0.464 255 170 0
-5.044091 -14.822597 0.478 255 170 0
-4.991335 -14.824786 0.476 255 170 0
-4.753428 -14.82704 0.464 255 170 0
-4.737288 -14.821795 0.462 255 170 0
-4.747963 -14.814111 0.461 255 170 0
-5.00117 -14.824265 0.476 255 170 0
-4.896282 -14.851894 0.475 255 170 0
-4.76017 -14.831461 0.465 255 170 0
-4.983333 -14.831108 0.476 255 170 0
-5.013139 -14.810309 0.474 255 170 0
-4.86289 -14.812792 0.467 255 170 0
-5.019746 -14.796843 0.472 255 170 0
-4.835689 -14.823284 0.467 255 170 0
-5.018235 -14.833527 0.479 255 170 0
-5.012418 -14.833123 0.478 255 170 0
-4.841943 -14.822342 0.467 255 170 0
-4.986307 -14.810513 0.473 255 170 0
-4.887923 -14.81126 0.468 255 170 0
-4.873718 -14.825232 0.469 255 170 0
-4.919986 -14.616473 0.467 255 170 0
-4.851306 -14.583006 0.464 255 170 0
-4.988238 -14.770248 0.47 255 170 0
-4.670628 -14.818724 0.458 255 170 0
-4.989778 -14.678555 0.47 255 170 0
-4.817928 -14.722346 0.463 255 170 0
-4.861727 -14.541781 0.464 255 170 0
-4.937963 -14.686998 0.468 255 170 0
-4.911602 -14.454641 0.465 255 170 0
-4.842558 -14.726631 0.464 255 170 0
-4.934217 -14.488011 0.466 255 170 0
-4.917789 -14.680443 0.467 255 170 0
-4.918375 -14.639742 0.467 255 170 0
-4.888678 -14.557229 0.465 255 170 0
-4.906417 -14.596451 0.466 255 170 0
-4.687522 -14.805626 0.458 255 170 0
-4.941095 -14.746009 0.468 255 170 0
-4.798707 -14.6648 0.462 255 170 0
-4.715593 -14.732962 0.459 255 170 0
-4.874193 -14.652151 0.465 255 170 0
-5.036539 -14.770329 0.472 255 170 0
-4.853925 -14.751143 0.465 255 170 0
-4.727109 -14.718117 0.459 255 170 0
-4.761629 -14.788069 0.461 255 170 0
-5.02734 -14.736856 0.472 255 170 0
-4.892509 -14.767397 0.467 255 170 0
-4.807393 -14.8074 0.463 255 170 0
-4.946908 -14.686931 0.468 255 170 0
-4.931998 -14.490264 0.466 255 170 0
-4.836792 -14.732936 0.464 255 170 0
-4.824606 -14.777305 0.464 255 170 0
-4.913503 -14.469385 0.465 255 170 0
-4.907814 -14.603596 0.466 255 170 0
-4.798135 -14.648256 0.462 255 170 0
-4.856848 -14.72384 0.465 255 170 0
-4.926737 -14.504168 0.466 255 170 0
-4.89797 -14.485156 0.465 255 170 0
-4.821411 -14.768831 0.464 255 170 0
-4.906465 -14.779366 0.467 255 170 0
-4.854561 -14.717149 0.465 255 170 0
-4.82419 -14.604678 0.463 255 170 0
-4.848155 -14.697967 0.464 255 170 0
-4.943959 -14.593035 0.467 255 170 0
-4.914751 -14.515887 0.466 255 170 0
-4.962411 -14.726169 0.469 255 170 0
-4.874587 -14.527372 0.464 255 170 0
-4.960548 -14.775377 0.469 255 170 0
-4.995883 -14.716969 0.47 255 170 0
-4.908658 -14.655915 0.466 255 170 0
-4.932405 -14.543928 0.467 255 170 0
-4.83655 -14.642151 0.463 255 170 0
-4.889701 -14.750871 0.466 255 170 0
-4.858982 -14.710406 0.465 255 170 0
-4.930954 -14.470594 0.466 255 170 0
-4.833766 -14.746823 0.464 255 170 0
-4.767866 -14.784891 0.462 255 170 0
-4.99935 -14.761219 0.471 255 170 0
-4.992969 -14.627547 0.47 255 170 0
-4.911734 -14.648736 0.467 255 170 0
-4.815192 -14.774245 0.463 255 170 0
-5.045198 -14.79173 0.473 255 170 0
-4.945381 -14.721379 0.468 255 170 0
-4.897355 -14.580867 0.465 255 170 0
-4.926886 -14.7005 0.467 255 170 0
-4.741382 -14.713088 0.46 255 170 0
-4.887605 -14.592568 0.465 255 170 0
-4.829358 -14.69632 0.463 255 170 0
-4.812107 -14.662461 0.463 255 170 0
-4.80357 -14.716194 0.463 255 170 0
-5.024701 -14.74269 0.472 255 170 0
-4.902455 -14.663566 0.466 255 170 0
-4.881558 -14.679824 0.465 255 170 0
-4.907835 -14.665313 0.466 255 170 0
-4.899803 -14.726644 0.467 255 170 0
-4.910083 -14.608051 0.466 255 170 0
-4.858515 -14.531073 0.464 255 170 0
-4.760849 -14.685213 0.461 255 170 0
-5.004475 -14.729427 0.471 255 170 0
-4.739842 -14.804782 0.461 255 170 0
-4.940085 -14.495122 0.467 255 170 0
-4.929834 -14.558706 0.467 255 170 0
-4.90789 -14.495814 0.465 255 170 0
-4.865728 -14.538621 0.464 255 170 0
-4.795933 -14.652745 0.462 255 170 0
-4.756737 -14.791683 0.461 255 170 0
-4.846733 -14.805312 0.465 255 170 0
-4.925502 -14.636109 0.467 255 170 0
-4.928192 -14.636984 0.467 255 170 0
-4.940577 -14.559966 0.467 255 170 0
-4.98548 -14.76043 0.47 255 170 0
-4.985917 -14.759085 0.47 255 170 0
-4.872304 -14.580163 0.464 255 170 0
-4.970829 -14.656785 0.469 255 170 0
-4.950578 -14.522324 0.467 255 170 0
-4.969641 -14.735952 0.469 255 170 0
-4.926186 -14.78503 0.468 255 170 0
-4.854786 -14.570009 0.464 255 170 0
-4.912515 -14.751592 0.467 255 170 0
-4.968198 -14.781581 0.47 255 170 0
-4.984619 -14.705875 0.47 255 170 0
-4.96071 -14.678776 0.469 255 170 0
-4.73722 -14.812851 0.46 255 170 0
-4.802781 -14.730064 0.463 255 170 0
-4.940098 -14.673566 0.468 255 170 0
-4.950281 -14.601037 0.468 255 170 0
-4.867964 -14.538603 0.464 255 170 0
-4.800541 -14.6706 0.462 255 170 0
-4.861804 -14.669687 0.465 255 170 0
-4.912154 -14.645155 0.467 255 170 0
-4.862635 -14.543564 0.464 255 170 0
-4.95191 -14.580006 0.468 255 170 0
-4.890646 -14.580917 0.465 255 170 0
-5.028566 -14.721642 0.472 255 170 0
-4.72923 -14.761929 0.46 255 170 0
-4.876438 -14.771097 0.466 255 170 0
-4.835689 -14.587596 0.463 255 170 0
-4.867273 -14.742097 0.465 255 170 0
-4.701558 -14.769294 0.459 255 170 0
-4.709442 -14.74732 0.459 255 170 0
-4.935159 -14.494265 0.466 255 170 0
-4.85731 -14.608005 0.464 255 170 0
-4.977987 -14.598144 0.469 255 170 0
-4.917844 -14.746632 0.467 255 170 0
-4.782941 -14.708748 0.462 255 170 0
-4.929304 -14.665598 0.467 255 170 0
-4.88071 -14.803712 0.466 255 170 0
-4.982319 -14.756429 0.47 255 170 0
-4.865783 -14.60481 0.464 255 170 0
-4.933754 -14.603847 0.467 255 170 0
-4.814504 -14.801531 0.464 255 170 0
-4.817644 -14.743815 0.463 255 170 0
-4.948095 -14.607762 0.468 255 170 0
-4.712216 -14.759374 0.459 255 170 0
-4.983443 -14.727798 0.47 255 170 0
-4.928985 -14.446906 0.466 255 170 0
-4.910275 -14.692128 0.467 255 170 0
-4.977821 -14.635265 0.469 255 170 0
-4.793909 -14.798557 0.463 255 170 0
-4.870684 -14.720157 0.465 255 170 0
-4.928409 -14.60657 0.467 255 170 0
-4.922328 -14.453665 0.466 255 170 0
-4.979013 -14.615578 0.469 255 170 0
-4.950306 -14.722236 0.469 255 170 0
-4.8421 -14.666259 0.464 255 170 0
-4.960752 -14.566522 0.468 255 170 0
-4.977567 -14.601726 0.469 255 170 0
-4.918794 -14.63616 0.467 255 170 0
-4.904322 -14.673837 0.466 255 170 0
-4.853029 -14.692115 0.464 255 170 0
-4.908196 -14.77175 0.467 255 170 0
-4.787294 -14.693062 0.462 255 170 0
-4.934031 -14.699103 0.468 255 170 0
-4.971605 -14.700159 0.469 255 170 0
-4.851434 -14.71762 0.465 255 170 0
-4.877961 -14.677168 0.465 255 170 0
-4.834848 -14.594758 0.463 255 170 0
-4.952229 -14.798697 0.469 255 170 0
-4.964927 -14.645202 0.469 255 170 0
-4.795102 -14.778871 0.463 255 170 0
-4.745086 -14.788642 0.461 255 170 0
-4.965759 -14.754766 0.469 255 170 0
-4.842159 -14.79193 0.465 255 170 0
-4.989421 -14.631599 0.47 255 170 0
-4.890859 -14.726712 0.466 255 170 0
-4.820648 -14.668211 0.463 255 170 0
-4.764179 -14.711574 0.461 255 170 0
-4.833821 -14.577324 0.463 255 170 0
-4.965534 -14.666216 0.469 255 170 0
-4.920301 -14.775683 0.468 255 170 0
-4.973858 -14.702378 0.469 255 170 0
-4.93437 -14.743823 0.468 255 170 0
-4.902722 -14.63986 0.466 255 170 0
-4.865401 -14.672343 0.465 255 170 0
-4.785563 -14.700678 0.462 255 170 0
-4.767875 -14.668164 0.461 255 170 0
-4.997806 -14.793431 0.471 255 170 0
-4.933402 -14.616371 0.467 255 170 0
-4.819812 -14.734855 0.463 255 170 0
-4.898497 -14.79016 0.467 255 170 0
-4.912248 -14.775298 0.467 255 170 0
-4.971877 -14.735936 0.47 255 170 0
-5.045652 -14.792621 0.473 255 170 0
-4.748226 -14.730926 0.46 255 170 0
-4.852045 -14.562428 0.464 255 170 0
-4.809752 -14.646827 0.462 255 170 0
-4.871388 -14.695107 0.465 255 170 0
-4.905035 -14.532061 0.465 255 170 0
-5.015507 -14.7687 0.472 255 170 0
-4.745718 -14.695167 0.46 255 170 0
-4.788678 -14.757452 0.462 255 170 0
-4.75431 -14.707623 0.46 255 170 0
-4.910567 -14.789621 0.467 255 170 0
-4.797363 -14.664363 0.462 255 170 0
-4.9634 -14.67965 0.469 255 170 0
-4.783599 -14.736471 0.462 255 170 0
-4.992103 -14.749199 0.47 255 170 0
-4.811954 -14.642338 0.462 255 170 0
-4.805289 -14.765823 0.463 255 170 0
-4.862555 -14.591865 0.464 255 170 0
-4.922736 -14.507329 0.466 255 170 0
-4.850348 -14.574515 0.464 255 170 0
-4.828404 -14.747311 0.464 255 170 0
-4.843347 -14.712761 0.464 255 170 0
-4.915328 -14.59191 0.466 255 170 0
-4.9182 -14.793588 0.468 255 170 0
-4.731632 -14.72479 0.46 255 170 0
-4.915409 -14.779298 0.468 255 170 0
-4.884032 -14.711111 0.466 255 170 0
-4.812068 -14.598509 0.462 255 170 0
-4.841124 -14.655533 0.464 255 170 0
-4.792645 -14.749819 0.462 255 170 0
-4.905786 -14.689926 0.467 255 170 0
-4.821534 -14.608276 0.463 255 170 0
-4.911106 -14.801693 0.468 255 170 0
-4.915994 -14.738597 0.467 255 170 0
-4.854336 -14.628599 0.464 255 170 0
-4.779984 -14.731578 0.462 255 170 0
-4.844217 -14.650591 0.464 255 170 0
-4.974694 -14.635736 0.469 255 170 0
-4.915977 -14.500672 0.466 255 170 0
-4.842571 -14.669387 0.464 255 170 0
-4.87906 -14.527339 0.464 255 170 0
-4.935685 -14.79927 0.469 255 170 0
-4.809701 -14.640119 0.462 255 170 0
-4.900673 -14.664474 0.466 255 170 0
-4.709781 -14.79204 0.459 255 170 0
-4.943632 -14.726759 0.468 255 170 0
-4.959169 -14.770469 0.469 255 170 0
-4.718169 -14.777665 0.459 255 170 0
-4.86123 -14.653144 0.464 255 170 0
-4.905879 -14.58438 0.466 255 170 0
-4.922583 -14.722893 0.467 255 170 0
-4.923962 -14.492114 0.466 255 170 0
-4.828921 -14.697665 0.463 255 170 0
-4.93734 -14.663748 0.468 255 170 0
-4.850029 -14.591513 0.464 255 170 0
-4.965194 -14.621496 0.469 255 170 0
-4.911747 -14.591491 0.466 255 170 0
-4.814534 -14.746522 0.463 255 170 0
-4.700553 -14.813577 0.459 255 170 0
-4.97679 -14.794038 0.47 255 170 0
-4.879624 -14.660607 0.465 255 170 0
-4.671048 -14.815143 0.458 255 170 0
-4.940339 -14.528662 0.467 255 170 0
-4.69897 -14.781836 0.459 255 170 0
-4.927806 -14.645037 0.467 255 170 0
-4.957324 -14.586226 0.468 255 170 0
-4.827768 -14.781305 0.464 255 170 0
-4.782275 -14.79775 0.462 255 170 0
-5.030098 -14.746675 0.472 255 170 0
-4.707206 -14.747337 0.459 255 170 0
-4.897219 -14.562979 0.465 255 170 0
-4.915086 -14.501126 0.466 255 170 0
-4.997928 -14.632876 0.47 255 170 0
-5.011854 -14.699855 0.471 255 170 0
-4.881648 -14.750485 0.466 255 170 0
-4.918315 -14.74976 0.467 255 170 0
-4.907598 -14.634009 0.466 255 170 0
-4.806307 -14.664295 0.462 255 170 0
-5.009049 -14.742809 0.471 255 170 0
-4.925464 -14.572156 0.467 255 170 0
-4.973901 -14.590125 0.469 255 170 0
-4.929112 -14.58152 0.467 255 170 0
-4.868367 -14.532786 0.464 255 170 0
-5.006911 -14.696761 0.471 255 170 0
-4.896494 -14.762 0.467 255 170 0
-4.866942 -14.58065 0.464 255 170 0
-4.912617 -14.765008 0.467 255 170 0
-4.904186 -14.655949 0.466 255 170 0
-4.919596 -14.800733 0.468 255 170 0
-4.862686 -14.78596 0.465 255 170 0
-4.675469 -14.808401 0.458 255 170 0
-4.907266 -14.708251 0.467 255 170 0
-4.85059 -14.6653 0.464 255 170 0
-4.849732 -14.670226 0.464 255 170 0
-4.995922 -14.780923 0.471 255 170 0
-4.72506 -14.742729 0.46 255 170 0
-4.940577 -14.559966 0.467 255 170 0
-4.860331 -14.534636 0.464 255 170 0
-4.930038 -14.585539 0.467 255 170 0
-4.805692 -14.760006 0.463 255 170 0
-4.917598 -14.596366 0.466 255 170 0
-4.882785 -14.664609 0.465 255 170 0
-4.924212 -14.466173 0.466 255 170 0
-4.862398 -14.747948 0.465 255 170 0
-4.844429 -14.560697 0.463 255 170 0
-4.971763 -14.779764 0.47 255 170 0
-4.748179 -14.783698 0.461 255 170 0
-5.016881 -14.714127 0.471 255 170 0
-4.839974 -14.798655 0.465 255 170 0
-4.740296 -14.805673 0.461 255 170 0
-4.985896 -14.697369 0.47 255 170 0
-4.860332 -14.770325 0.465 255 170 0
-4.812871 -14.763082 0.463 255 170 0
-4.910211 -14.742665 0.467 255 170 0
-4.805165 -14.69069 0.462 255 170 0
-4.84504 -14.641192 0.464 255 170 0
-4.955482 -14.697152 0.469 255 170 0
-4.999982 -14.667744 0.47 255 170 0
-4.881202 -14.632868 0.465 255 170 0
-4.861604 -14.702336 0.465 255 170 0
-4.805089 -14.798471 0.463 255 170 0
-4.893409 -14.650216 0.466 255 170 0
-4.995951 -14.725914 0.47 255 170 0
-4.925192 -14.53638 0.466 255 170 0
-4.865563 -14.575742 0.464 255 170 0
-4.98553 -14.767138 0.47 255 170 0
-4.822035 -14.792083 0.464 255 170 0
-4.692869 -14.802901 0.459 255 170 0
-4.92938 -14.793503 0.468 255 170 0
-4.767111 -14.803233 0.462 255 170 0
-4.816108 -14.659301 0.463 255 170 0
-4.935065 -14.599811 0.467 255 170 0
-4.73394 -14.793199 0.46 255 170 0
-4.964821 -14.572305 0.468 255 170 0
-4.659431 -14.816573 0.457 255 170 0
-4.86631 -14.674126 0.465 255 170 0
-4.896358 -14.744112 0.467 255 170 0
-4.776683 -14.650208 0.461 255 170 0
-4.85745 -14.685373 0.465 255 170 0
-4.929253 -14.658889 0.467 255 170 0
-4.875864 -14.518866 0.464 255 170 0
-4.930454 -14.522476 0.466 255 170 0
-4.927793 -14.466593 0.466 255 170 0
-4.702301 -14.808197 0.459 255 170 0
-4.971181 -14.64426 0.469 255 170 0
-4.806795 -14.669659 0.462 255 170 0
-4.953229 -14.694933 0.469 255 170 0
-4.893871 -14.534382 0.465 255 170 0
-4.78306 -14.724401 0.462 255 170 0
-4.965598 -14.61568 0.468 255 170 0
-4.978195 -14.684457 0.469 255 170 0
-4.895806 -14.553597 0.465 255 170 0
-4.803752 -14.681309 0.462 255 170 0
-4.894245 -14.583573 0.465 255 170 0
-4.894168 -14.691357 0.466 255 170 0
-4.831849 -14.729843 0.464 255 170 0
-4.962004 -14.672505 0.469 255 170 0
-4.687574 -14.812334 0.458 255 170 0
-4.862381 -14.745711 0.465 255 170 0
-4.847671 -14.752085 0.465 255 170 0
-4.762957 -14.786269 0.461 255 170 0
-4.901585 -14.725736 0.467 255 170 0
-4.82523 -14.800555 0.464 255 170 0
-4.856683 -14.760961 0.465 255 170 0
-4.953594 -14.625162 0.468 255 170 0
-4.882382 -14.670425 0.465 255 170 0
-4.918455 -14.59144 0.466 255 170 0
-4.904627 -14.714085 0.467 255 170 0
-4.912298 -14.546317 0.466 255 170 0
-4.908535 -14.580782 0.466 255 170 0
-4.821878 -14.712478 0.463 255 170 0
-4.923597 -14.797572 0.468 255 170 0
-4.879331 -14.798803 0.466 255 170 0
-4.92714 -14.498351 0.466 255 170 0
-4.887363 -14.737473 0.466 255 170 0
-5.024082 -14.778921 0.472 255 170 0
-4.788109 -14.80039 0.463 255 170 0
-4.849915 -14.635341 0.464 255 170 0
-4.7294 -14.784287 0.46 255 170 0
-4.869666 -14.585997 0.464 255 170 0
-4.948783 -14.580477 0.468 255 170 0
-4.871596 -14.78142 0.466 255 170 0
-4.789929 -14.627747 0.461 255 170 0
-4.715462 -14.774555 0.459 255 170 0
-4.892293 -14.797811 0.467 255 170 0
-4.855176 -14.621438 0.464 255 170 0
-4.901636 -14.496756 0.465 255 170 0
-4.994929 -14.767961 0.471 255 170 0
-4.853301 -14.727892 0.465 255 170 0
-4.683538 -14.811023 0.458 255 170 0
-4.983842 -14.662499 0.47 255 170 0
-4.929023 -14.510859 0.466 255 170 0
-4.958228 -14.528526 0.468 255 170 0
-4.845405 -14.80711 0.465 255 170 0
-4.772232 -14.711959 0.461 255 170 0
-4.985425 -14.694241 0.47 255 170 0
-4.820317 -14.742454 0.463 255 170 0
-4.942347 -14.616303 0.468 255 170 0
-4.976209 -14.658532 0.469 255 170 0
-4.82585 -14.764325 0.464 255 170 0
-4.754212 -14.753688 0.461 255 170 0
-4.918624 -14.6138 0.467 255 170 0
-4.861524 -14.750638 0.465 255 170 0
-4.865139 -14.519841 0.464 255 170 0
-4.927496 -14.780995 0.468 255 170 0
-4.899002 -14.797759 0.467 255 170 0
-4.786942 -14.705586 0.462 255 170 0
-5.001866 -14.680252 0.47 255 170 0
-4.829871 -14.587193 0.463 255 170 0
-4.950866 -14.560335 0.468 255 170 0
-4.96872 -14.555728 0.468 255 170 0
-4.865813 -14.549801 0.464 255 170 0
-4.912528 -14.694347 0.467 255 170 0
-4.912621 -14.588801 0.466 255 170 0
-4.861324 -14.783286 0.465 255 170 0
-4.932367 -14.479975 0.466 255 170 0
-4.714974 -14.769192 0.459 255 170 0
-4.983545 -14.741215 0.47 255 170 0
-4.832384 -14.682433 0.463 255 170 0
-4.954332 -14.604585 0.468 255 170 0
-4.732642 -14.739987 0.46 255 170 0
-5.001722 -14.779091 0.471 255 170 0
-4.875461 -14.524682 0.464 255 170 0
-4.736732 -14.807488 0.46 255 170 0
-4.990015 -14.709859 0.47 255 170 0
-4.994339 -14.749183 0.471 255 170 0
-4.977006 -14.763624 0.47 255 170 0
-4.940267 -14.460238 0.466 255 170 0
-4.73464 -14.708668 0.46 255 170 0
-4.82865 -14.661889 0.463 255 170 0
-5.01966 -14.785663 0.472 255 170 0
-4.879386 -14.629304 0.465 255 170 0
-4.916566 -14.51945 0.466 255 170 0
-4.877392 -14.720106 0.466 255 170 0
-4.980817 -14.676387 0.47 255 170 0
-4.745349 -14.705455 0.46 255 170 0
-4.871847 -14.755479 0.466 255 170 0
-5.01532 -14.744103 0.471 255 170 0
-4.856848 -14.72384 0.465 255 170 0
-4.745676 -14.80742 0.461 255 170 0
-5.026318 -14.778903 0.472 255 170 0
-4.945113 -14.745084 0.469 255 170 0
-5.01902 -14.760176 0.472 255 170 0
-4.946611 -14.765645 0.469 255 170 0
-4.885262 -14.755377 0.466 255 170 0
-4.99341 -14.685683 0.47 255 170 0
-4.892578 -14.776341 0.467 255 170 0
-4.894864 -14.547344 0.465 255 170 0
-4.856025 -14.733237 0.465 255 170 0
-4.812913 -14.650828 0.463 255 170 0
-4.839257 -14.645262 0.464 255 170 0
-4.853458 -14.807497 0.465 255 170 0
-4.752346 -14.743416 0.461 255 170 0
-4.960162 -14.547742 0.468 255 170 0
-4.817266 -14.635142 0.463 255 170 0
-4.735552 -14.769931 0.46 255 170 0
-4.963561 -14.583047 0.468 255 170 0
-4.773407 -14.690036 0.461 255 170 0
-4.935672 -14.620826 0.467 255 170 0
-5.000237 -14.701284 0.47 255 170 0
-4.935367 -14.580579 0.467 255 170 0
-4.935239 -14.681652 0.468 255 170 0
-4.798666 -14.777054 0.463 255 170 0
-4.998743 -14.740204 0.471 255 170 0
-4.794855 -14.628604 0.462 255 170 0
-4.798161 -14.769455 0.463 255 170 0
-4.938218 -14.48485 0.467 255 170 0
-4.822001 -14.78761 0.464 255 170 0
-4.949979 -14.620271 0.468 255 170 0
-4.84675 -14.571859 0.463 255 170 0
-4.882034 -14.506743 0.464 255 170 0
-4.876836 -14.705799 0.465 255 170 0
-4.881601 -14.803258 0.466 255 170 0
-5.015536 -14.713691 0.471 255 170 0
-4.878049 -14.512141 0.464 255 170 0
-4.86474 -14.58514 0.464 255 170 0
-4.845855 -14.74852 0.464 255 170 0
-4.706387 -14.816216 0.459 255 170 0
-4.90946 -14.5848 0.466 255 170 0
-5.008981 -14.733866 0.471 255 170 0
-4.894588 -14.687775 0.466 255 170 0
-4.945062 -14.502687 0.467 255 170 0
-4.930416 -14.694212 0.468 255 170 0
-5.024934 -14.714514 0.472 255 170 0
-4.792275 -14.760108 0.462 255 170 0
-5.027713 -14.786049 0.472 255 170 0
-4.96628 -14.764601 0.47 255 170 0
-4.806862 -14.678601 0.462 255 170 0
-4.811712 -14.787241 0.463 255 170 0
-4.919024 -14.548502 0.466 255 170 0
-4.935223 -14.679416 0.468 255 170 0
-4.930547 -14.652618 0.467 255 170 0
-4.920092 -14.68937 0.467 255 170 0
-4.96769 -14.714501 0.469 255 170 0
-4.876416 -14.709379 0.465 255 170 0
-4.898411 -14.543292 0.465 255 170 0
-4.938553 -14.705778 0.468 255 170 0
-4.855618 -14.679574 0.464 255 170 0
-4.687404 -14.789973 0.458 255 170 0
-4.986243 -14.625362 0.469 255 170 0
-4.862389 -14.628985 0.464 255 170 0
-4.993715 -14.725931 0.47 255 170 0
-4.895802 -14.729805 0.466 255 170 0
-4.771052 -14.674401 0.461 255 170 0
-4.980057 -14.635247 0.469 255 170 0
-4.997165 -14.767944 0.471 255 170 0
-4.907487 -14.501631 0.465 255 170 0
-4.707108 -14.793402 0.459 255 170 0
-4.712148 -14.750429 0.459 255 170 0
-4.909481 -14.646518 0.466 255 170 0
-4.861057 -14.571303 0.464 255 170 0
-4.911187 -14.517703 0.466 255 170 0
-4.899192 -14.646148 0.466 255 170 0
-4.866785 -14.736733 0.465 255 170 0
-4.791117 -14.784266 0.463 255 170 0
-4.945736 -14.532646 0.467 255 170 0
-4.859903 -14.654943 0.464 255 170 0
-4.71452 -14.768301 0.459 255 170 0
-4.838947 -14.78122 0.464 255 170 0
-4.937955 -14.568036 0.467 255 170 0
-4.742498 -14.801183 0.461 255 170 0
-4.763191 -14.758093 0.461 255 170 0
-4.78135 -14.793733 0.462 255 170 0
-4.845248 -14.727505 0.464 255 170 0
-4.849716 -14.667991 0.464 255 170 0
-5.036976 -14.768984 0.472 255 170 0
-4.915545 -14.797187 0.468 255 170 0
-5.027442 -14.750273 0.472 255 170 0
-4.806282 -14.778786 0.463 255 170 0
-4.820928 -14.587261 0.462 255 170 0
-4.884788 -14.692769 0.466 255 170 0
-4.926915 -14.645491 0.467 255 170 0
-4.900931 -14.521806 0.465 255 170 0
-4.739808 -14.800309 0.461 255 170 0
-4.980724 -14.781933 0.47 255 170 0
-4.844433 -14.620177 0.464 255 170 0
-4.86891 -14.604339 0.464 255 170 0
-4.905642 -14.788764 0.467 255 170 0
-4.798682 -14.77929 0.463 255 170 0
-4.987474 -14.669628 0.47 255 170 0
-4.68384 -14.791789 0.458 255 170 0
-4.81304 -14.785442 0.463 255 170 0
-4.768668 -14.713776 0.461 255 170 0
-4.924582 -14.455884 0.466 255 170 0
-4.802598 -14.76495 0.463 255 170 0
-4.886922 -14.679337 0.466 255 170 0
-5.003084 -14.781764 0.471 255 170 0
-4.738815 -14.787347 0.46 255 170 0
-4.943059 -14.710216 0.468 255 170 0
-4.984674 -14.772064 0.47 255 170 0
-4.918888 -14.530614 0.466 255 170 0
-4.993113 -14.764397 0.471 255 170 0
-4.997462 -14.689231 0.47 255 170 0
-4.946755 -14.666806 0.468 255 170 0
-4.872907 -14.777385 0.466 255 170 0
-5.004823 -14.657421 0.47 255 170 0
-4.894847 -14.545108 0.465 255 170 0
-4.725484 -14.79863 0.46 255 170 0
-4.748947 -14.708111 0.46 255 170 0
-4.9212 -14.658504 0.467 255 170 0
-4.899731 -14.658218 0.466 255 170 0
-4.757862 -14.763053 0.461 255 170 0
-4.913427 -14.577167 0.466 255 170 0
-4.90621 -14.745827 0.467 255 170 0
-5.017607 -14.750794 0.472 255 170 0
-4.766683 -14.687852 0.461 255 170 0
-4.822145 -14.688772 0.463 255 170 0
-4.898662 -14.753039 0.467 255 170 0
-4.749083 -14.726 0.46 255 170 0
-4.93454 -14.766184 0.468 255 170 0
-4.8113 -14.674096 0.463 255 170 0
-4.843245 -14.699345 0.464 255 170 0
-4.869216 -14.644587 0.465 255 170 0
-5.033463 -14.777508 0.472 255 170 0
-4.85126 -14.635778 0.464 255 170 0
-4.829125 -14.724498 0.464 255 170 0
-4.978051 -14.783296 0.47 255 170 0
-4.8922 -14.667667 0.466 255 170 0
-4.752499 -14.76354 0.461 255 170 0
-4.951435 -14.753085 0.469 255 170 0
-4.763933 -14.796996 0.461 255 170 0
-4.936143 -14.623953 0.467 255 170 0
-4.823605 -14.64538 0.463 255 170 0
-4.960659 -14.672068 0.469 255 170 0
-4.958974 -14.626911 0.468 255 170 0
-4.925128 -14.586917 0.467 255 170 0
-4.968767 -14.738643 0.469 255 170 0
-4.816269 -14.798387 0.464 255 170 0
-4.882055 -14.56846 0.465 255 170 0
-4.945936 -14.735685 0.468 255 170 0
-4.914886 -14.769464 0.467 255 170 0
-4.901474 -14.593358 0.466 255 170 0
-4.911161 -14.632194 0.466 255 170 0
-4.96886 -14.633097 0.469 255 170 0
-4.786391 -14.750761 0.462 255 170 0
-4.861888 -14.680867 0.465 255 170 0
-4.995527 -14.670014 0.47 255 170 0
-4.766572 -14.791162 0.462 255 170 0
-4.948851 -14.58942 0.468 255 170 0
-4.755956 -14.688828 0.46 255 170 0
-4.960396 -14.755254 0.469 255 170 0
-4.90954 -14.536499 0.466 255 170 0
-4.708521 -14.802783 0.459 255 170 0
-4.897927 -14.597409 0.466 255 170 0
-5.009027 -14.681092 0.471 255 170 0
-4.954299 -14.600113 0.468 255 170 0
-4.904284 -14.609884 0.466 255 170 0
-4.96278 -14.715879 0.469 255 170 0
-4.86824 -14.633861 0.465 255 170 0
-4.99271 -14.770214 0.471 255 170 0
-4.764264 -14.722754 0.461 255 170 0
-4.876925 -14.540771 0.464 255 170 0
-4.8957 -14.716389 0.466 255 170 0
-5.005252 -14.772802 0.471 255 170 0
-4.896875 -14.694466 0.466 255 170 0
-4.902934 -14.549966 0.465 255 170 0
-4.868058 -14.668745 0.465 255 170 0
-4.748213 -14.78817 0.461 255 170 0
-4.925625 -14.711243 0.468 255 170 0
-4.832315 -14.673489 0.463 255 170 0
-4.98531 -14.73807 0.47 255 170 0
-4.760687 -14.781815 0.461 255 170 0
-4.829736 -14.804994 0.464 255 170 0
-4.888051 -14.710186 0.466 255 170 0
-4.979761 -14.713963 0.47 255 170 0
-4.971007 -14.798107 0.47 255 170 0
-4.932618 -14.689722 0.468 255 170 0
-4.88326 -14.727217 0.466 255 170 0
-4.863692 -14.741677 0.465 255 170 0
-4.905056 -14.593778 0.466 255 170 0
-4.927106 -14.729568 0.468 255 170 0
-4.91621 -14.472495 0.466 255 170 0
-4.850568 -14.603583 0.464 255 170 0
-4.682597 -14.80477 0.458 255 170 0
-4.898055 -14.732024 0.467 255 170 0
-4.957091 -14.614403 0.468 255 170 0
-4.941668 -14.526863 0.467 255 170 0
-4.965296 -14.634912 0.469 255 170 0
-4.878537 -14.517503 0.464 255 170 0
-4.921883 -14.571736 0.466 255 170 0
-4.848502 -14.62596 0.464 255 170 0
-4.846118 -14.665335 0.464 255 170 0
-4.839083 -14.799109 0.465 255 170 0
-4.7489 -14.760884 0.461 255 170 0
-4.779534 -14.790169 0.462 255 170 0
-4.762261 -14.694593 0.461 255 170 0
-4.861562 -14.578902 0.464 255 170 0
-4.901759 -14.571889 0.466 255 170 0
-4.83445 -14.660056 0.463 255 170 0
-4.820958 -14.767941 0.464 255 170 0
-4.804881 -14.712159 0.463 255 170 0
-4.858202 -14.607551 0.464 255 170 0
-4.802993 -14.64017 0.462 255 170 0
-4.891568 -14.761143 0.466 255 170 0
-4.884766 -14.631051 0.465 255 170 0
-4.986451 -14.711675 0.47 255 170 0
-4.98335 -14.597656 0.469 255 170 0
-4.760564 -14.706682 0.461 255 170 0
-4.951252 -14.552282 0.467 255 170 0
-4.696599 -14.763965 0.459 255 170 0
-4.764166 -14.768818 0.461 255 170 0
-4.93078 -14.624441 0.467 255 170 0
-4.903104 -14.572326 0.466 255 170 0
-4.977384 -14.636609 0.469 255 170 0
-4.971351 -14.666619 0.469 255 170 0
-4.871142 -14.54484 0.464 255 170 0
-4.90705 -14.738664 0.467 255 170 0
-4.70124 -14.786291 0.459 255 170 0
-4.980172 -14.591419 0.469 255 170 0
-4.700417 -14.79569 0.459 255 170 0
-4.748141 -14.719746 0.46 255 170 0
-4.699526 -14.796144 0.459 255 170 0
-4.970799 -14.711794 0.469 255 170 0
-4.76196 -14.713827 0.461 255 170 0
-4.844243 -14.771789 0.465 255 170 0
-4.783514 -14.72529 0.462 255 170 0
-4.979692 -14.705018 0.47 255 170 0
-4.974155 -14.623665 0.469 255 170 0
-4.950425 -14.502199 0.467 255 170 0
-4.913877 -14.518577 0.466 255 170 0
-4.748981 -14.712584 0.46 255 170 0
-4.911929 -14.792295 0.467 255 170 0
-4.932151 -14.510388 0.466 255 170 0
-4.81105 -14.700037 0.463 255 170 0
-4.768927 -14.806796 0.462 255 170 0
-4.744373 -14.694729 0.46 255 170 0
-4.88842 -14.699898 0.466 255 170 0
-4.676326 -14.803474 0.458 255 170 0
-5.044762 -14.793075 0.473 255 170 0
-4.987813 -14.714348 0.47 255 170 0
-4.839202 -14.579072 0.463 255 170 0
-4.961936 -14.663561 0.469 255 170 0
-4.7454 -14.712163 0.46 255 170 0
-4.975454 -14.676875 0.469 255 170 0
-4.785432 -14.74227 0.462 255 170 0
-5.000843 -14.722299 0.471 255 170 0
-4.854858 -14.638434 0.464 255 170 0
-4.746796 -14.719309 0.46 255 170 0
-4.767463 -14.790708 0.462 255 170 0
-4.908123 -14.467637 0.465 255 170 0
-4.887278 -14.490603 0.464 255 170 0
-4.953242 -14.637688 0.468 255 170 0
-4.96892 -14.758767 0.47 255 170 0
-4.746359 -14.720654 0.46 255 170 0
-5.012057 -14.726686 0.471 255 170 0
-4.776963 -14.804947 0.462 255 170 0
-4.939546 -14.483051 0.467 255 170 0
-4.901148 -14.491393 0.465 255 170 0
-4.855312 -14.639325 0.464 255 170 0
-4.872432 -14.714777 0.465 255 170 0
-4.761222 -14.734405 0.461 255 170 0
-4.787485 -14.777139 0.462 255 170 0
-4.914704 -14.56866 0.466 255 170 0
-4.907305 -14.772204 0.467 255 170 0
-4.890219 -14.701225 0.466 255 170 0
-4.783098 -14.788352 0.462 255 170 0
-4.929893 -14.448689 0.466 255 170 0
-5.02709 -14.762797 0.472 255 170 0
-4.997178 -14.7107 0.47 255 170 0
-4.975271 -14.71176 0.47 255 170 0
-4.780387 -14.725762 0.462 255 170 0
-4.791219 -14.797683 0.463 255 170 0
-4.830767 -14.64622 0.463 255 170 0
-4.897652 -14.502153 0.465 255 170 0
-4.862317 -14.796248 0.465 255 170 0
-4.935935 -14.537641 0.467 255 170 0
-4.911636 -14.694801 0.467 255 170 0
-4.901377 -14.639423 0.466 255 170 0
-5.019644 -14.783427 0.472 255 170 0
-4.894317 -14.651999 0.466 255 170 0
-4.991348 -14.767541 0.471 255 170 0
-4.871902 -14.585979 0.464 255 170 0
-4.969781 -14.577634 0.468 255 170 0
-4.902497 -14.551311 0.465 255 170 0
-4.881474 -14.668644 0.465 255 170 0
-4.838378 -14.58847 0.463 255 170 0
-4.839974 -14.562966 0.463 255 170 0
-4.91433 -14.519468 0.466 255 170 0
-4.922125 -14.662521 0.467 255 170 0
-4.761158 -14.784942 0.461 255 170 0
-4.945333 -14.538464 0.467 255 170 0
-4.859177 -14.618277 0.464 255 170 0
-4.736613 -14.791836 0.46 255 170 0
-4.791749 -14.690792 0.462 255 170 0
-4.883583 -14.769701 0.466 255 170 0
-4.764769 -14.730352 0.461 255 170 0
-4.889925 -14.603732 0.465 255 170 0
-4.91744 -14.516761 0.466 255 170 0
-4.994674 -14.734421 0.47 255 170 0
-4.775143 -14.741902 0.462 255 170 0
-4.884817 -14.63776 0.465 255 170 0
-4.914076 -14.485928 0.466 255 170 0
-5.025541 -14.735529 0.472 255 170 0
-4.906188 -14.684109 0.467 255 170 0
-4.761897 -14.764364 0.461 255 170 0
-4.781176 -14.711892 0.462 255 170 0
-4.8683 -14.759531 0.465 255 170 0
-4.94945 -14.727162 0.469 255 170 0
-4.877214 -14.578784 0.465 255 170 0
-4.912218 -14.594618 0.466 255 170 0
-5.005739 -14.778165 0.471 255 170 0
-4.779483 -14.783461 0.462 255 170 0
-4.922265 -14.73989 0.468 255 170 0
-4.799773 -14.746187 0.463 255 170 0
-4.772117 -14.520101 0.394 255 170 0
-4.747037 -14.574405 0.389 255 170 0
-4.801249 -14.469342 0.42 255 170 0
-4.758434 -14.543907 0.384 255 170 0
-4.756248 -14.550632 0.386 255 170 0
-4.795517 -14.48012 0.419 255 170 0
-4.736465 -14.595505 0.385 255 170 0
-4.812679 -14.443316 0.424 255 170 0
-4.805199 -14.459474 0.42 255 170 0
-4.743508 -14.580693 0.387 255 170 0
-4.825051 -14.423545 0.436 255 170 0
-4.788859 -14.486878 0.404 255 170 0
-4.75672 -14.553759 0.391 255 170 0
-4.80609 -14.45902 0.424 255 170 0
-4.754047 -14.555121 0.384 255 170 0
-4.78617 -14.486005 0.396 255 170 0
-4.832985 -14.408278 0.442 255 170 0
-4.768167 -14.529969 0.394 255 170 0
-4.748786 -14.569025 0.387 255 170 0
-4.809149 -14.449604 0.42 255 170 0
-4.788859 -14.486878 0.404 255 170 0
-4.737775 -14.591471 0.382 255 170 0
-4.782219 -14.495873 0.395 255 170 0
-4.786658 -14.491367 0.403 255 170 0
-4.790591 -14.479262 0.398 255 170 0
-4.797248 -14.472504 0.412 255 170 0
-4.79239 -14.480591 0.406 255 170 0
-4.765074 -14.534912 0.393 255 170 0
-4.790641 -14.48597 0.41 255 170 0
-4.761544 -14.541201 0.39 255 170 0
-4.760721 -14.550599 0.4 255 170 0
-4.742634 -14.583384 0.387 255 170 0
-4.776504 -14.508886 0.393 255 170 0
-4.774774 -14.516502 0.398 255 170 0
-4.801652 -14.463526 0.415 255 170 0
-4.784893 -14.494512 0.402 255 170 0
-4.811368 -14.447351 0.423 255 170 0
-4.76151 -14.536729 0.383 255 170 0
-4.749694 -14.570807 0.392 255 170 0
-4.730295 -14.607627 0.381 255 170 0
-4.769007 -14.522807 0.39 255 170 0
-4.794172 -14.479683 0.412 255 170 0
-4.772571 -14.520991 0.397 255 170 0
-4.741305 -14.585182 0.385 255 170 0
-4.757123 -14.547942 0.384 255 170 0
-4.776746 -14.599671 0.457 255 170 0
-4.862427 -14.45725 0.458 255 170 0
-4.776912 -14.562551 0.454 255 170 0
-4.837632 -14.490087 0.457 255 170 0
-4.865104 -14.515369 0.463 255 170 0
-4.800714 -14.516753 0.453 255 170 0
-4.858592 -14.42329 0.454 255 170 0
-4.735106 -14.652313 0.455 255 170 0
-4.895208 -14.415857 0.459 255 170 0
-4.844989 -14.398796 0.45 255 170 0
-4.81472 -14.53543 0.457 255 170 0
-4.866644 -14.423676 0.456 255 170 0
-4.773704 -14.611322 0.457 255 170 0
-4.773199 -14.603724 0.457 255 170 0
-4.885831 -14.47675 0.463 255 170 0
-4.725577 -14.693084 0.457 255 170 0
-4.734822 -14.673782 0.457 255 170 0
-4.788868 -14.605841 0.459 255 170 0
-4.915433 -14.42912 0.464 255 170 0
-4.794261 -14.550344 0.455 255 170 0
-4.881223 -14.458897 0.461 255 170 0
-4.830431 -14.425292 0.45 255 170 0
-4.85518 -14.44523 0.456 255 170 0
-4.680055 -14.764538 0.456 255 170 0
-4.804058 -14.485868 0.451 255 170 0
-4.825289 -14.454848 0.452 255 170 0
-4.806298 -14.545333 0.457 255 170 0
-4.901648 -14.43951 0.462 255 170 0
-4.906171 -14.446185 0.464 255 170 0
-4.770072 -14.604195 0.456 255 170 0
-4.872279 -14.458964 0.46 255 170 0
-4.881002 -14.429829 0.458 255 170 0
-4.695487 -14.735351 0.456 255 170 0
-4.871758 -14.44913 0.459 255 170 0
-4.815565 -14.587749 0.462 255 170 0
-4.839045 -14.499467 0.458 255 170 0
-4.72514 -14.694427 0.457 255 170 0
-4.755401 -14.67452 0.46 255 170 0
-4.743041 -14.637047 0.455 255 170 0
-4.772796 -14.609541 0.457 255 170 0
-4.86518 -14.407587 0.454 255 170 0
-4.764925 -14.574269 0.453 255 170 0
-4.706616 -14.728559 0.457 255 170 0
-4.801571 -14.511827 0.453 255 170 0
-4.870866 -14.449584 0.458 255 170 0
-4.722098 -14.706079 0.458 255 170 0
-4.772139 -14.581818 0.454 255 170 0
-4.764692 -14.602447 0.455 255 170 0
-4.85888 -14.461302 0.458 255 170 0
-4.783017 -14.600965 0.458 255 170 0
-4.818314 -14.478605 0.453 255 170 0
-4.778189 -14.554044 0.453 255 170 0
-4.711253 -14.691402 0.455 255 170 0
-4.831399 -14.552745 0.461 255 170 0
-4.826935 -14.436052 0.45 255 170 0
-4.716315 -14.710148 0.457 255 170 0
-4.786093 -14.593786 0.458 255 170 0
-4.809892 -14.488508 0.452 255 170 0
-4.784867 -14.609002 0.459 255 170 0
-4.849999 -14.410832 0.452 255 170 0
-4.759147 -14.637819 0.457 255 170 0
-4.799267 -14.502899 0.452 255 170 0
-4.820538 -14.535833 0.458 255 170 0
-4.769432 -14.578707 0.454 255 170 0
-4.826129 -14.447687 0.451 255 170 0
-4.876013 -14.479508 0.462 255 170 0
-4.787752 -14.517746 0.451 255 170 0
-4.82349 -14.453521 0.451 255 170 0
-4.796633 -14.568214 0.457 255 170 0
-4.819209 -14.537632 0.458 255 170 0
-4.831314 -14.541565 0.46 255 170 0
-4.839295 -14.473526 0.456 255 170 0
-4.701303 -14.735754 0.457 255 170 0
-4.784142 -14.572334 0.456 255 170 0
-4.854947 -14.473408 0.458 255 170 0
-4.765838 -14.635532 0.458 255 170 0
-4.787438 -14.594224 0.458 255 170 0
-4.755532 -14.632927 0.456 255 170 0
-4.754675 -14.637854 0.457 255 170 0
-4.783255 -14.632269 0.461 255 170 0
-4.745009 -14.660735 0.457 255 170 0
-4.8456 -14.479292 0.457 255 170 0
-4.899226 -14.414931 0.46 255 170 0
-4.778609 -14.550463 0.453 255 170 0
-4.861286 -14.483645 0.46 255 170 0
-4.823023 -14.509875 0.456 255 170 0
-4.811915 -14.578384 0.461 255 170 0
-4.832417 -14.451217 0.452 255 170 0
-4.806145 -14.525208 0.455 255 170 0
-4.81388 -14.542591 0.458 255 170 0
-4.827054 -14.451705 0.452 255 170 0
-4.855549 -14.434941 0.455 255 170 0
-4.763988 -14.627497 0.457 255 170 0
-4.771655 -14.635935 0.459 255 170 0
-4.827241 -14.476301 0.454 255 170 0
-4.878987 -14.458913 0.461 255 170 0
-4.870646 -14.420516 0.456 255 170 0
-4.880566 -14.431173 0.458 255 170 0
-4.692564 -14.762654 0.458 255 170 0
-4.6793 -14.782879 0.458 255 170 0
-4.805173 -14.573963 0.459 255 170 0
-4.733898 -14.669765 0.456 255 170 0
-4.805929 -14.555622 0.458 255 170 0
-4.819481 -14.573408 0.461 255 170 0
-4.829697 -14.505352 0.457 255 170 0
-4.802059 -14.517189 0.454 255 170 0
-4.828255 -14.55098 0.461 255 170 0
-4.780094 -14.628269 0.46 255 170 0
-4.835697 -14.47087 0.455 255 170 0
-4.784159 -14.574571 0.456 255 170 0
-4.709692 -14.721379 0.457 255 170 0
-4.847144 -14.44708 0.454 255 170 0
-4.710935 -14.708401 0.456 255 170 0
-4.82181 -14.467845 0.452 255 170 0
-4.913164 -14.424664 0.463 255 170 0
-4.69468 -14.746984 0.457 255 170 0
-4.822035 -14.556395 0.46 255 170 0
-4.882818 -14.433393 0.459 255 170 0
-4.817746 -14.521544 0.456 255 170 0
-4.802433 -14.566382 0.458 255 170 0
-4.752167 -14.602095 0.453 255 170 0
-4.67888 -14.786461 0.458 255 170 0
-4.892115 -14.420799 0.459 255 170 0
-4.92305 -14.430851 0.465 255 170 0
-4.809807 -14.477327 0.451 255 170 0
-4.867836 -14.403989 0.454 255 170 0
-4.781388 -14.621998 0.46 255 170 0
-4.834415 -14.419896 0.45 255 170 0
-4.811496 -14.581965 0.461 255 170 0
-4.702581 -14.727247 0.457 255 170 0
-4.872818 -14.471035 0.461 255 170 0
-4.684022 -14.756905 0.456 255 170 0
-4.850832 -14.520397 0.462 255 170 0
-4.769283 -14.618064 0.457 255 170 0
-4.789657 -14.59197 0.458 255 170 0
-4.865634 -14.408478 0.454 255 170 0
-4.808551 -14.547552 0.457 255 170 0
-4.834152 -14.503081 0.457 255 170 0
-4.831344 -14.486556 0.456 255 170 0
-4.697638 -14.724154 0.455 255 170 0
-4.761434 -14.64451 0.458 255 170 0
-4.756673 -14.606532 0.454 255 170 0
-4.859202 -14.503786 0.461 255 170 0
-4.834959 -14.491448 0.456 255 170 0
-4.739125 -14.651388 0.456 255 170 0
-4.904287 -14.433677 0.462 255 170 0
-4.879679 -14.491108 0.463 255 170 0
-4.806854 -14.55964 0.458 255 170 0
-4.853606 -14.532452 0.463 255 170 0
-4.77569 -14.637247 0.46 255 170 0
-4.821576 -14.496021 0.455 255 170 0
-4.838442 -14.537932 0.461 255 170 0
-4.720702 -14.698934 0.457 255 170 0
-4.71766 -14.710585 0.457 255 170 0
-4.786781 -14.566501 0.455 255 170 0
-4.790565 -14.593753 0.459 255 170 0
-4.852176 -14.520834 0.462 255 170 0
-4.720418 -14.720403 0.459 255 170 0
-4.897631 -14.440435 0.462 255 170 0
-4.75182 -14.674101 0.46 255 170 0
-4.850708 -14.445264 0.455 255 170 0
-4.732251 -14.68856 0.458 255 170 0
-4.785737 -14.54683 0.453 255 170 0
-4.847967 -14.437681 0.454 255 170 0
-4.778647 -14.614415 0.458 255 170 0
-4.811169 -14.480001 0.452 255 170 0
-4.726803 -14.677868 0.456 255 170 0
-4.84703 -14.49091 0.458 255 170 0
-4.66997 -14.791 0.457 255 170 0
-4.839902 -14.494541 0.458 255 170 0
-4.789607 -14.585262 0.458 255 170 0
-4.68409 -14.765849 0.457 255 170 0
-4.674879 -14.789621 0.458 255 170 0
-4.858846 -14.45683 0.457 255 170 0
-4.833597 -14.488775 0.456 255 170 0
-4.8769 -14.419574 0.457 255 170 0
-4.808967 -14.484489 0.452 255 170 0
-4.906693 -14.456019 0.465 255 170 0
-4.879742 -14.440571 0.459 255 170 0
-4.783726 -14.635397 0.461 255 170 0
-4.873234 -14.407973 0.455 255 170 0
-4.87418 -14.473708 0.461 255 170 0
-4.826303 -14.529528 0.458 255 170 0
-4.813035 -14.490273 0.453 255 170 0
-4.729731 -14.710046 0.459 255 170 0
-4.756639 -14.60206 0.454 255 170 0
-4.788206 -14.518636 0.451 255 170 0
-4.77471 -14.567039 0.454 255 170 0
-4.796718 -14.579395 0.458 255 170 0
-4.743915 -14.634357 0.455 255 170 0
-4.796264 -14.578504 0.458 255 170 0
-4.860577 -14.449215 0.457 255 170 0
-4.707757 -14.702164 0.455 255 170 0
-4.801338 -14.540004 0.455 255 170 0
-4.772377 -14.613122 0.457 255 170 0
-4.722654 -14.720387 0.459 255 170 0
-4.812433 -14.528739 0.456 255 170 0
-4.747614 -14.650429 0.457 255 170 0
-4.713977 -14.696749 0.456 255 170 0
-4.744759 -14.686676 0.46 255 170 0
-4.914174 -14.439863 0.465 255 170 0
-4.874647 -14.417355 0.456 255 170 0
-4.79194 -14.539181 0.454 255 170 0
-4.829731 -14.509824 0.457 255 170 0
-4.858715 -14.498423 0.461 255 170 0
-4.79132 -14.575411 0.457 255 170 0
-4.885996 -14.43963 0.46 255 170 0
-4.857297 -14.429562 0.455 255 170 0
-4.91024 -14.451968 0.465 255 170 0
-4.919014 -14.42954 0.464 255 170 0
-4.825548 -14.54787 0.46 255 170 0
-4.844234 -14.417138 0.451 255 170 0
-4.756457 -14.636946 0.457 255 170 0
-4.737967 -14.675548 0.457 255 170 0
-4.806362 -14.494796 0.452 255 170 0
-4.848714 -14.536066 0.463 255 170 0
-4.680089 -14.76901 0.457 255 170 0
-4.873671 -14.406628 0.455 255 170 0
-4.733278 -14.705994 0.459 255 170 0
-4.897783 -14.46056 0.464 255 170 0
-4.749095 -14.668755 0.459 255 170 0
-4.795856 -14.52484 0.453 255 170 0
-4.826515 -14.439634 0.451 255 170 0
-4.802594 -14.46978 0.426 255 170 0
-4.728127 -14.616588 0.387 255 170 0
-4.725153 -14.637183 0.415 255 170 0
-4.723405 -14.642563 0.418 255 170 0
-4.804881 -14.476471 0.448 255 170 0
-4.758167 -14.567613 0.42 255 170 0
-4.703756 -14.705323 0.447 255 170 0
-4.744971 -14.596782 0.419 255 170 0
-4.783717 -14.516435 0.436 255 170 0
-4.724699 -14.636292 0.41 255 170 0
-4.806124 -14.463491 0.429 255 170 0
-4.75462 -14.571665 0.412 255 170 0
-4.706344 -14.692781 0.437 255 170 0
-4.784222 -14.524034 0.451 255 170 0
-4.726146 -14.650146 0.44 255 170 0
-4.730397 -14.621043 0.405 255 170 0
-4.763076 -14.566233 0.439 255 170 0
-4.737593 -14.626354 0.445 255 170 0
-4.743643 -14.598581 0.417 255 170 0
-4.699369 -14.716538 0.449 255 170 0
-4.79777 -14.482338 0.428 255 170 0
-4.665498 -14.791035 0.447 255 170 0
-4.69804 -14.718336 0.449 255 170 0
-4.70816 -14.696346 0.449 255 170 0
-4.723354 -14.635856 0.404 255 170 0
-4.71727 -14.659157 0.419 255 170 0
-4.680879 -14.75514 0.443 255 170 0
-4.758706 -14.579683 0.444 255 170 0
-4.720431 -14.663158 0.441 255 170 0
-4.704108 -14.692799 0.43 255 170 0
-4.811487 -14.463004 0.449 255 170 0
-4.709051 -14.695892 0.453 255 170 0
-4.702797 -14.696834 0.431 255 170 0
-4.790693 -14.492679 0.42 255 170 0
-4.706395 -14.69949 0.45 255 170 0
-4.784659 -14.522689 0.447 255 170 0
-4.699318 -14.709829 0.439 255 170 0
-4.675197 -14.772624 0.454 255 170 0
-4.707587 -14.679803 0.42 255 170 0
-4.737088 -14.618755 0.425 255 170 0
-4.74576 -14.582911 0.397 255 170 0
-4.68081 -14.746196 0.43 255 170 0
-4.722429 -14.631837 0.395 255 170 0
-4.77059 -14.554548 0.446 255 170 0
-4.759177 -14.58281 0.45 255 170 0
-4.727457 -14.646111 0.44 255 170 0
-4.738013 -14.622774 0.44 255 170 0
-4.759932 -14.564467 0.423 255 170 0
-4.754603 -14.569428 0.41 255 170 0
-4.715419 -14.65112 0.399 255 170 0
-4.757309 -14.572538 0.426 255 170 0
-4.789046 -14.511475 0.444 255 170 0
-4.705453 -14.693235 0.435 255 170 0
-4.761209 -14.555961 0.411 255 170 0
-4.711066 -14.666806 0.412 255 170 0
-4.725221 -14.646127 0.431 255 170 0
-4.805704 -14.467072 0.436 255 170 0
-4.733558 -14.625044 0.429 255 170 0
-4.6756 -14.766808 0.443 255 170 0
-4.756351 -14.564048 0.409 255 170 0
-4.771396 -14.542914 0.432 255 170 0
-4.726362 -14.619732 0.389 255 170 0
-4.839172 -14.398393 0.448 255 170 0
-4.712445 -14.671716 0.423 255 170 0
-4.74899 -14.595858 0.434 255 170 0
-4.687502 -14.743909 0.453 255 170 0
-4.780607 -14.519142 0.428 255 170 0
-4.740062 -14.598162 0.401 255 170 0
-4.701537 -14.707577 0.446 255 170 0
-4.737122 -14.623228 0.44 255 170 0
-4.725908 -14.61884 0.382 255 170 0
-4.759614 -14.581465 0.45 255 170 0
-4.747139 -14.587821 0.412 255 170 0
-4.695368 -14.719699 0.439 255 170 0
-4.728364 -14.647892 0.446 255 170 0
-4.714682 -14.6717 0.434 255 170 0
-4.723808 -14.636745 0.406 255 170 0
-4.74904 -14.602565 0.448 255 170 0
-4.827724 -14.422183 0.444 255 170 0
-4.72416 -14.624221 0.388 255 170 0
-4.666423 -14.795053 0.456 255 170 0
-4.701452 -14.696397 0.425 255 170 0
-4.691838 -14.725987 0.437 255 170 0
-4.710782 -14.688275 0.448 255 170 0
-4.720732 -14.643925 0.41 255 170 0
-4.733138 -14.628625 0.432 255 170 0
-4.695822 -14.72059 0.443 255 170 0
-4.7974 -14.492627 0.447 255 170 0
-4.71458 -14.658283 0.408 255 170 0
-4.756487 -14.581937 0.439 255 170 0
-4.726816 -14.620624 0.39 255 170 0
-4.745743 -14.580676 0.393 255 170 0
-4.752082 -14.590914 0.437 255 170 0
-4.726918 -14.634039 0.415 255 170 0
-4.724364 -14.651053 0.436 255 170 0
-4.671213 -14.778022 0.449 255 170 0
-4.708563 -14.690529 0.442 255 170 0
-4.736516 -14.602213 0.395 255 170 0
-4.693149 -14.721951 0.434 255 170 0
-4.764353 -14.557726 0.43 255 170 0
-4.748047 -14.589602 0.421 255 170 0
-4.803553 -14.47827 0.446 255 170 0
-4.743206 -14.599926 0.418 255 170 0
-4.773547 -14.531717 0.419 255 170 0
-4.685651 -14.735872 0.43 255 170 0
-4.816731 -14.446864 0.443 255 170 0
-4.701537 -14.707577 0.444 255 170 0
-4.71954 -14.663612 0.44 255 170 0
-4.744063 -14.595 0.412 255 170 0
-4.748082 -14.594075 0.427 255 170 0
-4.756504 -14.584172 0.445 255 170 0
-4.68387 -14.73678 0.425 255 170 0
-4.727236 -14.617042 0.387 255 170 0
-4.774523 -14.542443 0.444 255 170 0
-4.730028 -14.631332 0.424 255 170 0
-4.791635 -14.498933 0.437 255 170 0
-4.715471 -14.657829 0.412 255 170 0
-4.678205 -14.756502 0.437 255 170 0
-4.801283 -14.473815 0.428 255 170 0
-4.6932 -14.72866 0.448 255 170 0
-4.714108 -14.655156 0.4 255 170 0
-4.77538 -14.537518 0.44 255 170 0
-4.721725 -14.656887 0.433 255 170 0
-4.727071 -14.654163 0.453 255 170 0
-4.734784 -14.609829 0.404 255 170 0
-4.761714 -14.56356 0.43 255 170 0
-4.726044 -14.636729 0.417 255 170 0
-4.699267 -14.703122 0.425 255 170 0
-4.702899 -14.71025 0.454 255 170 0
-4.740448 -14.590109 0.39 255 170 0
-4.714597 -14.660519 0.412 255 170 0
-4.785482 -14.51329 0.437 255 170 0
-4.754148 -14.568537 0.407 255 170 0
-4.732162 -14.617899 0.408 255 170 0
-4.694528 -14.726861 0.449 255 170 0
-4.677382 -14.7659 0.448 255 170 0
-4.769546 -14.534879 0.406 255 170 0
-4.725272 -14.652835 0.443 255 170 0
-4.790324 -14.502968 0.437 255 170 0
-4.798292 -14.492173 0.45 255 170 0
-4.792945 -14.494897 0.435 255 170 0
-4.74282 -14.607979 0.431 255 170 0
-4.713824 -14.676625 0.436 255 170 0
-4.764438 -14.568907 0.447 255 170 0
-4.826413 -14.426218 0.448 255 170 0
-4.767781 -14.538022 0.406 255 170 0
-4.688257 -14.725566 0.422 255 170 0
-4.696645 -14.711191 0.431 255 170 0
-4.794273 -14.493098 0.438 255 170 0
-4.788508 -14.499404 0.424 255 170 0
-4.691452 -14.73404 0.451 255 170 0
-4.709268 -14.665479 0.4 255 170 0
-4.717287 -14.661393 0.426 255 170 0
-4.745964 -14.609744 0.444 255 170 0
-4.744416 -14.582476 0.392 255 170 0
-4.759898 -14.559996 0.415 255 170 0
-4.772236 -14.535752 0.421 255 170 0
-4.696174 -14.708065 0.425 255 170 0
-4.820698 -14.439231 0.446 255 170 0
-4.718229 -14.667647 0.44 255 170 0
-4.772338 -14.549169 0.446 255 170 0
-4.783751 -14.520906 0.442 255 170 0
-4.680844 -14.750668 0.437 255 170 0
-4.810965 -14.453169 0.434 255 170 0
-4.688813 -14.739874 0.448 255 170 0
-4.688745 -14.730929 0.433 255 170 0
-4.734869 -14.621009 0.425 255 170 0
-4.769279 -14.558583 0.451 255 170 0
-4.723876 -14.64569 0.425 255 170 0
-4.74798 -14.580659 0.401 255 170 0
-4.733893 -14.610283 0.398 255 170 0
-4.701452 -14.696397 0.425 255 170 0
-4.696577 -14.702248 0.413 255 170 0
-4.751611 -14.587787 0.431 255 170 0
-4.717218 -14.652449 0.411 255 170 0
-4.696577 -14.702248 0.414 255 170 0
-4.759058 -14.567159 0.423 255 170 0
-5.255209 -14.943982 0.807 255 170 0
-5.192028 -14.927914 0.823 255 170 0
-5.153299 -15.010497 0.782 255 170 0
-5.194654 -14.979324 0.794 255 170 0
-5.170122 -14.928974 0.826 255 170 0
-5.144338 -15.008329 0.785 255 170 0
-5.135865 -15.011524 0.784 255 170 0
-5.156524 -14.963962 0.808 255 170 0
-5.197527 -14.945313 0.813 255 170 0
-5.164899 -15.006831 0.783 255 170 0
-5.187828 -14.963723 0.804 255 170 0
-5.136353 -15.016887 0.781 255 170 0
-5.146472 -14.994896 0.792 255 170 0
-5.215181 -14.973354 0.796 255 170 0
-5.154271 -14.961742 0.809 255 170 0
-5.151568 -15.018113 0.778 255 170 0
-5.220829 -14.951399 0.807 255 170 0
-5.219331 -14.930838 0.818 255 170 0
-5.163805 -14.980453 0.798 255 170 0
-5.170797 -14.958933 0.809 255 170 0
-5.192117 -14.998574 0.784 255 170 0
-5.223854 -14.93751 0.814 255 170 0
-5.174208 -14.936994 0.821 255 170 0
-5.182914 -14.905622 0.837 255 170 0
-5.185846 -14.997281 0.786 255 170 0
-5.138538 -15.010162 0.784 255 170 0
-5.215721 -14.985426 0.789 255 170 0
-5.201868 -14.986873 0.789 255 170 0
