ply
format ascii 1.0
element vertex 1303
property double x
property double y
property double z
property uchar red
property uchar green
property uchar blue
element face 0
property list uchar int vertex_indices
end_header
-2.223084 -16.543921 1.648 0 255 127
-2.314421 -16.498505 1.604 0 255 127
-2.270761 -16.52075 1.618 0 255 127
-2.219975 -16.546627 1.764 0 255 127
-2.14824 -16.582056 1.74 0 255 127
-2.262743 -16.524836 1.676 0 255 127
-2.254724 -16.528921 1.658 0 255 127
-2.252941 -16.529831 1.682 0 255 127
-2.331804 -16.490768 1.699 0 255 127
-2.297492 -16.50713 1.688 0 255 127
-2.181207 -16.565258 1.631 0 255 127
-2.280563 -16.515757 1.63 0 255 127
-2.257397 -16.527559 1.711 0 255 127
-2.169624 -16.571159 1.639 0 255 127
-2.207937 -16.551638 1.625 0 255 127
-2.18388 -16.563896 1.682 0 255 127
-2.324676 -16.494402 1.702 0 255 127
-2.163387 -16.574337 1.666 0 255 127
-2.176752 -16.567528 1.719 0 255 127
-2.31353 -16.498959 1.666 0 255 127
-2.332695 -16.490314 1.666 0 255 127
-2.16606 -16.572975 1.647 0 255 127
-2.211955 -16.550714 1.755 0 255 127
-2.303292 -16.505297 1.688 0 255 127
-2.265853 -16.522129 1.604 0 255 127
-2.297492 -16.50713 1.577 0 255 127
-2.058248 -16.627909 1.769 0 255 127
-2.218193 -16.547535 1.7 0 255 127
-2.286346 -16.511686 1.529 0 255 127
-2.305948 -16.501699 1.512 0 255 127
-2.103689 -16.604755 1.749 0 255 127
-2.240904 -16.53484 1.602 0 255 127
-2.2075 -16.552984 1.749 0 255 127
-2.175861 -16.567982 1.704 0 255 127
-2.215956 -16.547552 1.613 0 255 127
-2.172297 -16.569798 1.68 0 255 127
-2.270761 -16.52075 1.657 0 255 127
-2.258288 -16.527105 1.659 0 255 127
-2.175861 -16.567982 1.667 0 255 127
-2.273872 -16.518044 1.582 0 255 127
-2.100125 -16.606571 1.756 0 255 127
-2.259633 -16.527542 1.765 0 255 127
-2.203482 -16.553907 1.639 0 255 127
-2.266744 -16.521675 1.561 0 255 127
-2.144676 -16.583872 1.744 0 255 127
-2.168296 -16.57296 1.741 0 255 127
-2.153586 -16.57933 1.654 0 255 127
-2.115273 -16.598852 1.741 0 255 127
-2.106363 -16.603394 1.707 0 255 127
-2.125965 -16.593405 1.684 0 255 127
-2.305965 -16.503935 1.786 0 255 127
-2.327349 -16.49304 1.664 0 255 127
-2.242687 -16.533932 1.617 0 255 127
-2.230212 -16.540289 1.59 0 255 127
-2.330896 -16.488987 1.494 0 255 127
-2.170515 -16.570705 1.678 0 255 127
-2.259616 -16.525307 1.59 0 255 127
-2.290801 -16.509417 1.562 0 255 127
-2.227103 -16.542995 1.725 0 255 127
-2.266761 -16.523911 1.768 0 255 127
-2.173642 -16.570234 1.766 0 255 127
-2.312639 -16.499413 1.559 0 255 127
-2.29571 -16.508038 1.641 0 255 127
-2.221302 -16.544828 1.601 0 255 127
-2.059576 -16.626108 1.742 0 255 127
-2.259179 -16.526651 1.653 0 255 127
-2.306839 -16.501245 1.559 0 255 127
-2.059139 -16.627455 1.778 0 255 127
-2.293037 -16.509401 1.681 0 255 127
-2.300165 -16.505768 1.596 0 255 127
-2.162496 -16.574791 1.71 0 255 127
-2.206155 -16.552546 1.624 0 255 127
-2.26898 -16.521658 1.647 0 255 127
-2.280126 -16.517101 1.773 0 255 127
-2.087651 -16.612926 1.757 0 255 127
-2.142003 -16.585234 1.728 0 255 127
-2.118837 -16.597036 1.716 0 255 127
-2.338932 -16.487137 1.666 0 255 127
-2.287691 -16.512125 1.679 0 255 127
-2.195026 -16.55934 1.76 0 255 127
-2.297946 -16.50802 1.766 0 255 127
-2.344278 -16.484413 1.69 0 255 127
-2.138439 -16.587049 1.712 0 255 127
-2.31353 -16.498959 1.605 0 255 127
-2.150022 -16.581148 1.747 0 255 127
-2.262289 -16.523945 1.571 0 255 127
-2.270308 -16.519859 1.551 0 255 127
-2.341605 -16.485775 1.699 0 255 127
-2.160714 -16.575699 1.682 0 255 127
-2.198136 -16.556631 1.661 0 255 127
-2.216847 -16.547098 1.645 0 255 127
-2.074286 -16.619736 1.752 0 255 127
-2.256052 -16.527122 1.567 0 255 127
-2.264978 -16.524818 1.746 0 255 127
-2.137548 -16.587503 1.758 0 255 127
-2.200809 -16.555269 1.678 0 255 127
-2.163387 -16.574337 1.715 0 255 127
-2.299711 -16.504877 1.542 0 255 127
-2.315766 -16.498941 1.692 0 255 127
-2.132202 -16.590227 1.76 0 255 127
-2.329131 -16.492132 1.661 0 255 127
-2.199918 -16.555723 1.633 0 255 127
-2.315312 -16.498051 1.627 0 255 127
-2.223538 -16.544811 1.732 0 255 127
-2.207046 -16.552092 1.644 0 255 127
-2.240468 -16.536186 1.69 0 255 127
-2.308621 -16.500338 1.506 0 255 127
-2.163387 -16.574337 1.672 0 255 127
-2.289036 -16.51256 1.757 0 255 127
-2.202591 -16.554361 1.675 0 255 127
-2.342496 -16.485321 1.689 0 255 127
-2.304183 -16.504843 1.756 0 255 127
-2.220411 -16.545282 1.599 0 255 127
-2.103689 -16.604755 1.769 0 255 127
-2.21061 -16.550276 1.645 0 255 127
-2.283236 -16.514395 1.691 0 255 127
-2.096561 -16.608387 1.749 0 255 127
-2.272981 -16.518497 1.606 0 255 127
-2.283236 -16.514395 1.656 0 255 127
-2.26318 -16.523491 1.596 0 255 127
-2.199918 -16.555723 1.64 0 255 127
-2.244923 -16.533916 1.726 0 255 127
-2.277436 -16.516226 1.596 0 255 127
-2.016808 -16.647902 1.785 0 255 127
-2.348733 -16.482143 1.667 0 255 127
-2.169187 -16.572506 1.753 0 255 127
-2.10458 -16.604301 1.715 0 255 127
-2.274326 -16.518934 1.698 0 255 127
-2.109926 -16.601578 1.718 0 255 127
-2.310857 -16.50032 1.656 0 255 127
-2.13042 -16.591135 1.735 0 255 127
-2.25785 -16.52845 1.787 0 255 127
-2.309966 -16.500774 1.577 0 255 127
-2.142003 -16.585234 1.687 0 255 127
-2.276108 -16.518026 1.648 0 255 127
-2.252941 -16.529831 1.746 0 255 127
-2.070722 -16.621553 1.759 0 255 127
-2.26587 -16.524364 1.76 0 255 127
-2.146912 -16.583855 1.77 0 255 127
-2.208828 -16.551184 1.653 0 255 127
-2.293474 -16.508055 1.542 0 255 127
-2.267652 -16.523457 1.753 0 255 127
-2.335368 -16.488953 1.69 0 255 127
-2.23112 -16.54207 1.786 0 255 127
-2.21061 -16.550276 1.637 0 255 127
-2.318876 -16.496235 1.638 0 255 127
-2.221302 -16.544828 1.621 0 255 127
-2.231994 -16.539381 1.599 0 255 127
-2.099671 -16.60568 1.71 0 255 127
-2.117054 -16.597944 1.715 0 255 127
-2.280563 -16.515757 1.612 0 255 127
-2.117054 -16.597944 1.764 0 255 127
-2.307747 -16.503027 1.76 0 255 127
-2.261398 -16.524399 1.602 0 255 127
-2.311311 -16.501211 1.746 0 255 127
-2.21061 -16.550276 1.599 0 255 127
-2.249815 -16.5303 1.584 0 255 127
-2.307747 -16.503027 1.708 0 255 127
-2.131311 -16.590681 1.736 0 255 127
-2.30462 -16.503498 1.575 0 255 127
-2.125965 -16.593405 1.692 0 255 127
-2.257833 -16.526215 1.624 0 255 127
-2.249815 -16.5303 1.632 0 255 127
-2.263634 -16.524382 1.639 0 255 127
-2.16606 -16.572975 1.726 0 255 127
-2.338041 -16.487591 1.696 0 255 127
-2.119728 -16.596582 1.712 0 255 127
-2.25116 -16.530739 1.737 0 255 127
-2.314858 -16.49716 1.536 0 255 127
-2.287254 -16.51347 1.778 0 255 127
-2.264071 -16.523037 1.584 0 255 127
-2.120619 -16.596128 1.706 0 255 127
-2.264962 -16.522583 1.547 0 255 127
-2.300619 -16.506659 1.688 0 255 127
-2.221302 -16.544828 1.642 0 255 127
-2.279218 -16.515318 1.561 0 255 127
-2.211501 -16.549822 1.65 0 255 127
-2.221756 -16.545719 1.68 0 255 127
-2.229776 -16.541634 1.709 0 255 127
-2.18388 -16.563896 1.636 0 255 127
-2.252941 -16.529831 1.723 0 255 127
-2.19859 -16.557524 1.731 0 255 127
-2.33715 -16.488045 1.683 0 255 127
-2.290801 -16.509417 1.582 0 255 127
-2.250705 -16.529846 1.613 0 255 127
-2.266307 -16.52302 1.684 0 255 127
-2.227993 -16.542542 1.731 0 255 127
-2.106363 -16.603394 1.786 0 255 127
-2.293037 -16.509401 1.63 0 255 127
-2.256506 -16.528013 1.695 0 255 127
-2.230667 -16.54118 1.751 0 255 127
-2.133093 -16.589773 1.698 0 255 127
-2.188789 -16.562517 1.768 0 255 127
-2.321112 -16.496218 1.718 0 255 127
-2.2868 -16.512579 1.603 0 255 127
-2.333132 -16.488972 1.577 0 255 127
-2.319767 -16.495781 1.57 0 255 127
-2.30462 -16.503498 1.624 0 255 127
-2.333569 -16.487625 1.5 0 255 127
-2.120619 -16.596128 1.694 0 255 127
-2.15715 -16.577515 1.741 0 255 127
-2.155822 -16.579315 1.765 0 255 127
-2.124183 -16.594313 1.745 0 255 127
-2.329131 -16.492132 1.732 0 255 127
-2.127747 -16.592497 1.717 0 255 127
-2.14513 -16.584763 1.778 0 255 127
-2.277436 -16.516226 1.542 0 255 127
-2.161605 -16.575245 1.679 0 255 127
-2.256943 -16.526669 1.572 0 255 127
-2.293491 -16.51029 1.776 0 255 127
-2.246705 -16.533009 1.678 0 255 127
-2.175861 -16.567982 1.673 0 255 127
-2.269871 -16.521204 1.678 0 255 127
-2.260507 -16.524853 1.588 0 255 127
-2.34026 -16.485338 1.634 0 255 127
-2.292583 -16.508509 1.573 0 255 127
-2.278781 -16.516665 1.679 0 255 127
-2.223975 -16.543467 1.641 0 255 127
-2.32824 -16.492586 1.706 0 255 127
-2.175861 -16.567982 1.705 0 255 127
-2.202154 -16.555708 1.715 0 255 127
-2.239577 -16.53664 1.71 0 255 127
-2.273872 -16.518044 1.549 0 255 127
-2.31042 -16.501665 1.695 0 255 127
-2.232011 -16.541616 1.776 0 255 127
-2.224866 -16.543013 1.663 0 255 127
-2.296601 -16.507584 1.682 0 255 127
-2.279235 -16.517555 1.764 0 255 127
-2.282345 -16.514849 1.676 0 255 127
-2.17186 -16.571142 1.75 0 255 127
-2.21952 -16.545736 1.665 0 255 127
-2.264525 -16.523928 1.693 0 255 127
-2.232885 -16.538927 1.623 0 255 127
-2.200372 -16.556616 1.746 0 255 127
-2.066704 -16.622477 1.741 0 255 127
-2.281 -16.51441 1.563 0 255 127
-2.193681 -16.558903 1.654 0 255 127
-2.256052 -16.527122 1.574 0 255 127
-2.13042 -16.591135 1.718 0 255 127
-2.329568 -16.490788 1.628 0 255 127
-2.297492 -16.50713 1.587 0 255 127
-2.144676 -16.583872 1.705 0 255 127
-2.272107 -16.521187 1.754 0 255 127
-2.214174 -16.54846 1.641 0 255 127
-2.326458 -16.493494 1.665 0 255 127
-2.311748 -16.499866 1.577 0 255 127
-2.125965 -16.593405 1.685 0 255 127
-2.203482 -16.553907 1.627 0 255 127
-2.31664 -16.496252 1.518 0 255 127
-2.253833 -16.529375 1.683 0 255 127
-2.22443 -16.544357 1.694 0 255 127
-2.313093 -16.500303 1.735 0 255 127
-2.344278 -16.484413 1.68 0 255 127
-2.34606 -16.483505 1.635 0 255 127
-2.315766 -16.498941 1.704 0 255 127
-2.330913 -16.491222 1.655 0 255 127
-2.21641 -16.548443 1.76 0 255 127
-2.156259 -16.577969 1.751 0 255 127
-2.30462 -16.503498 1.614 0 255 127
-2.293491 -16.51029 1.715 0 255 127
-2.314421 -16.498505 1.596 0 255 127
-2.234231 -16.539364 1.726 0 255 127
-2.166951 -16.572521 1.718 0 255 127
-2.237795 -16.537548 1.686 0 255 127
-2.117054 -16.597944 1.733 0 255 127
-2.135766 -16.588411 1.762 0 255 127
-2.102798 -16.605209 1.725 0 255 127
-2.25116 -16.530739 1.639 0 255 127
-2.33446 -16.487171 1.515 0 255 127
-2.285909 -16.513033 1.608 0 255 127
-2.188789 -16.562517 1.763 0 255 127
-2.0275 -16.642452 1.767 0 255 127
-2.064922 -16.623384 1.751 0 255 127
-2.327349 -16.49304 1.725 0 255 127
-2.255161 -16.527576 1.559 0 255 127
-2.14513 -16.584763 1.779 0 255 127
-2.23334 -16.539818 1.716 0 255 127
-2.267652 -16.523457 1.736 0 255 127
-2.311311 -16.501211 1.674 0 255 127
-2.299274 -16.506222 1.581 0 255 127
-2.23734 -16.536655 1.605 0 255 127
-2.23334 -16.539818 1.687 0 255 127
-2.282782 -16.513502 1.588 0 255 127
-2.254724 -16.528921 1.644 0 255 127
-2.229776 -16.541634 1.695 0 255 127
-2.160714 -16.575699 1.725 0 255 127
-2.272544 -16.519842 1.623 0 255 127
-2.122401 -16.595221 1.736 0 255 127
-2.29882 -16.505331 1.573 0 255 127
-2.153586 -16.57933 1.743 0 255 127
-2.180316 -16.565712 1.679 0 255 127
-2.170515 -16.570705 1.664 0 255 127
-2.278781 -16.516665 1.645 0 255 127
-2.196354 -16.557539 1.646 0 255 127
-2.141112 -16.585688 1.689 0 255 127
-2.062249 -16.624746 1.745 0 255 127
-2.217738 -16.546644 1.646 0 255 127
-2.296601 -16.507584 1.63 0 255 127
-2.182552 -16.565695 1.739 0 255 127
-2.293474 -16.508055 1.538 0 255 127
-2.081414 -16.616104 1.768 0 255 127
-2.31353 -16.498959 1.665 0 255 127
-2.213283 -16.548914 1.624 0 255 127
-2.325567 -16.493948 1.732 0 255 127
-2.223084 -16.543921 1.585 0 255 127
-2.269871 -16.521204 1.696 0 255 127
-2.244485 -16.535261 1.768 0 255 127
-2.075177 -16.619282 1.79 0 255 127
-2.212847 -16.550259 1.731 0 255 127
-2.181207 -16.565258 1.668 0 255 127
-2.143785 -16.584326 1.674 0 255 127
-2.181207 -16.565258 1.679 0 255 127
-2.260507 -16.524853 1.615 0 255 127
-2.041756 -16.635189 1.761 0 255 127
-2.17186 -16.571142 1.776 0 255 127
-2.273435 -16.519388 1.687 0 255 127
-2.324659 -16.492165 1.503 0 255 127
-2.148694 -16.582947 1.775 0 255 127
-2.28369 -16.515285 1.735 0 255 127
-2.269871 -16.521204 1.668 0 255 127
-2.197699 -16.557978 1.707 0 255 127
-2.173188 -16.569344 1.695 0 255 127
-2.259616 -16.525307 1.613 0 255 127
-2.255161 -16.527576 1.573 0 255 127
-2.279235 -16.517555 1.738 0 255 127
-2.133093 -16.589773 1.693 0 255 127
-2.129528 -16.591589 1.763 0 255 127
-2.118837 -16.597036 1.747 0 255 127
-2.301056 -16.505314 1.681 0 255 127
-2.306856 -16.503481 1.77 0 255 127
-2.320658 -16.495327 1.554 0 255 127
-2.149131 -16.581602 1.664 0 255 127
-2.21641 -16.548443 1.715 0 255 127
-2.191008 -16.560265 1.618 0 255 127
-2.316657 -16.498487 1.761 0 255 127
-2.14824 -16.582056 1.693 0 255 127
-2.160714 -16.575699 1.648 0 255 127
-2.230212 -16.540289 1.598 0 255 127
-2.17497 -16.568436 1.655 0 255 127
-2.115273 -16.598852 1.726 0 255 127
-2.058685 -16.626564 1.746 0 255 127
-2.092997 -16.610203 1.753 0 255 127
-2.324222 -16.493511 1.653 0 255 127
-2.291255 -16.510309 1.67 0 255 127
-2.240904 -16.53484 1.641 0 255 127
-2.116163 -16.598398 1.757 0 255 127
-2.278781 -16.516665 1.674 0 255 127
-2.158495 -16.577953 1.77 0 255 127
-2.25116 -16.530739 1.653 0 255 127
-2.126856 -16.592951 1.707 0 255 127
-2.212847 -16.550259 1.705 0 255 127
-2.18968 -16.562063 1.754 0 255 127
-2.15715 -16.577515 1.702 0 255 127
-2.036881 -16.641041 1.275 0 255 127
-2.060047 -16.629236 1.278 0 255 127
-2.009697 -16.653769 1.554 0 255 127
-2.108599 -16.603376 1.416 0 255 127
-2.101907 -16.605663 1.682 0 255 127
-2.094779 -16.609295 1.681 0 255 127
-2.132202 -16.590227 1.52 0 255 127
-2.116163 -16.598398 1.553 0 255 127
-2.125528 -16.594751 1.372 0 255 127
-2.199027 -16.556177 1.524 0 255 127
-2.010134 -16.652424 1.646 0 255 127
-2.244923 -16.533916 1.402 0 255 127
-2.012824 -16.653297 1.378 0 255 127
-2.169187 -16.572506 1.458 0 255 127
-1.985186 -16.665136 1.606 0 255 127
-2.252051 -16.530285 1.354 0 255 127
-2.062703 -16.625639 1.582 0 255 127
-2.0391 -16.638788 1.449 0 255 127
-2.030627 -16.641983 1.619 0 255 127
-1.999896 -16.658764 1.502 0 255 127
-2.302838 -16.504406 1.333 0 255 127
-2.081414 -16.616104 1.57 0 255 127
-2.178534 -16.56662 1.563 0 255 127
-2.026626 -16.645144 1.465 0 255 127
-2.005696 -16.656929 1.38 0 255 127
-2.011916 -16.651516 1.648 0 255 127
-2.125074 -16.593859 1.556 0 255 127
-2.029282 -16.641544 1.727 0 255 127
-2.06272 -16.627874 1.367 0 255 127
-2.118837 -16.597036 1.539 0 255 127
-2.04532 -16.633373 1.725 0 255 127
-2.132202 -16.590227 1.594 0 255 127
-2.052011 -16.631086 1.566 0 255 127
-1.980294 -16.668751 1.521 0 255 127
-2.0333 -16.640619 1.686 0 255 127
-2.158041 -16.577061 1.594 0 255 127
-2.049792 -16.633339 1.396 0 255 127
-2.126419 -16.594297 1.494 0 255 127
-2.180316 -16.565712 1.614 0 255 127
-2.192353 -16.560701 1.453 0 255 127
-2.115273 -16.598852 1.655 0 255 127
-2.001224 -16.656963 1.639 0 255 127
-2.0391 -16.638788 1.445 0 255 127
-2.128183 -16.591152 1.673 0 255 127
-2.064939 -16.625622 1.447 0 255 127
-1.984295 -16.66559 1.668 0 255 127
-2.010134 -16.652424 1.725 0 255 127
-2.069394 -16.623352 1.485 0 255 127
-2.206609 -16.553438 1.332 0 255 127
-2.089888 -16.612909 1.415 0 255 127
-1.996332 -16.66058 1.49 0 255 127
-2.090779 -16.612455 1.384 0 255 127
-2.121964 -16.596567 1.479 0 255 127
-2.023062 -16.646959 1.473 0 255 127
-2.135766 -16.588411 1.532 0 255 127
-2.062703 -16.625639 1.56 0 255 127
-2.070285 -16.622898 1.437 0 255 127
-2.226212 -16.543449 1.432 0 255 127
-2.193244 -16.560247 1.479 0 255 127
-2.134438 -16.59021 1.49 0 255 127
-1.984295 -16.66559 1.618 0 255 127
-2.02439 -16.645161 1.712 0 255 127
-2.249815 -16.5303 1.527 0 255 127
-2.094342 -16.61064 1.513 0 255 127
-2.05692 -16.629707 1.495 0 255 127
-2.123291 -16.594767 1.62 0 255 127
-2.127747 -16.592497 1.566 0 255 127
-2.18077 -16.566603 1.384 0 255 127
-2.08676 -16.61338 1.58 0 255 127
-2.113491 -16.59976 1.612 0 255 127
-2.019061 -16.65012 1.367 0 255 127
-2.048447 -16.632902 1.65 0 255 127
-2.113491 -16.59976 1.53 0 255 127
-2.332241 -16.489426 1.402 0 255 127
-2.102798 -16.605209 1.655 0 255 127
-2.039083 -16.636551 1.749 0 255 127
-2.043101 -16.635626 1.601 0 255 127
-2.073395 -16.62019 1.611 0 255 127
-2.113054 -16.601107 1.433 0 255 127
-2.329568 -16.490788 1.325 0 255 127
-2.039537 -16.637442 1.691 0 255 127
-2.036427 -16.64015 1.431 0 255 127
-2.06583 -16.625168 1.515 0 255 127
-2.269417 -16.520313 1.464 0 255 127
-2.10458 -16.604301 1.663 0 255 127
-2.151821 -16.582476 1.318 0 255 127
-2.195026 -16.55934 1.345 0 255 127
-2.096578 -16.610622 1.354 0 255 127
-2.072958 -16.621536 1.436 0 255 127
-2.253833 -16.529375 1.384 0 255 127
-2.195917 -16.558886 1.382 0 255 127
-1.994112 -16.662832 1.409 0 255 127
-1.999459 -16.660109 1.332 0 255 127
-2.027063 -16.643799 1.626 0 255 127
-1.978949 -16.668314 1.587 0 255 127
-2.109035 -16.602032 1.68 0 255 127
-2.108599 -16.603376 1.478 0 255 127
-2.087197 -16.612036 1.703 0 255 127
-2.136657 -16.587957 1.643 0 255 127
-2.142894 -16.58478 1.64 0 255 127
-2.052902 -16.630632 1.555 0 255 127
-2.040428 -16.636988 1.565 0 255 127
-2.023499 -16.645615 1.568 0 255 127
-2.09167 -16.612001 1.485 0 255 127
-2.217301 -16.547989 1.39 0 255 127
-2.310857 -16.50032 1.419 0 255 127
-2.04221 -16.63608 1.703 0 255 127
-2.297492 -16.50713 1.42 0 255 127
-2.154477 -16.578876 1.549 0 255 127
-2.240904 -16.53484 1.529 0 255 127
-2.013698 -16.650608 1.572 0 255 127
-2.059156 -16.62969 1.323 0 255 127
-2.01237 -16.652407 1.548 0 255 127
-2.207046 -16.552092 1.509 0 255 127
-2.170969 -16.571598 1.373 0 255 127
-2.059156 -16.62969 1.306 0 255 127
-2.055575 -16.629271 1.636 0 255 127
-2.056483 -16.631052 1.375 0 255 127
-2.084542 -16.615635 1.431 0 255 127
-2.03641 -16.637913 1.753 0 255 127
-2.205264 -16.552999 1.588 0 255 127
-2.221756 -16.545719 1.437 0 255 127
-2.1126 -16.600214 1.577 0 255 127
-2.057811 -16.629253 1.493 0 255 127
-2.212847 -16.550259 1.444 0 255 127
-2.297492 -16.50713 1.413 0 255 127
-2.204827 -16.554346 1.422 0 255 127
-2.100125 -16.606571 1.632 0 255 127
-2.332678 -16.488079 1.438 0 255 127
-2.168733 -16.571613 1.548 0 255 127
-2.220865 -16.546173 1.34 0 255 127
-2.160277 -16.577045 1.46 0 255 127
-2.11618 -16.600636 1.327 0 255 127
-2.227103 -16.542995 1.398 0 255 127
-2.114836 -16.600199 1.39 0 255 127
-2.22443 -16.544357 1.337 0 255 127
-2.302838 -16.504406 1.322 0 255 127
-2.244468 -16.533024 1.511 0 255 127
-2.173188 -16.569344 1.495 0 255 127
-2.109943 -16.603813 1.354 0 255 127
-2.040445 -16.639225 1.33 0 255 127
-2.171406 -16.570251 1.551 0 255 127
-2.043992 -16.635172 1.659 0 255 127
-1.995895 -16.661924 1.395 0 255 127
-2.092561 -16.611547 1.488 0 255 127
-1.989641 -16.662867 1.633 0 255 127
-2.324222 -16.493511 1.408 0 255 127
-2.163387 -16.574337 1.514 0 255 127
-2.230212 -16.540289 1.504 0 255 127
-2.034208 -16.642403 1.341 0 255 127
-2.168733 -16.571613 1.558 0 255 127
-2.000332 -16.657417 1.63 0 255 127
-2.184771 -16.563442 1.566 0 255 127
-2.004788 -16.655148 1.632 0 255 127
-2.021263 -16.64563 1.75 0 255 127
-2.09878 -16.606134 1.69 0 255 127
-2.082759 -16.616543 1.521 0 255 127
-2.300602 -16.504423 1.437 0 255 127
-2.117054 -16.597944 1.577 0 255 127
-2.318422 -16.495342 1.455 0 255 127
-2.059593 -16.628345 1.511 0 255 127
-2.082305 -16.61565 1.542 0 255 127
-2.101924 -16.607899 1.325 0 255 127
-2.166514 -16.573868 1.403 0 255 127
-2.200372 -16.556616 1.345 0 255 127
-2.113945 -16.600653 1.507 0 255 127
-2.142894 -16.58478 1.555 0 255 127
-2.015043 -16.651045 1.447 0 255 127
-2.027517 -16.64469 1.526 0 255 127
-2.149131 -16.581602 1.627 0 255 127
-2.170078 -16.572052 1.415 0 255 127
-2.31353 -16.498959 1.363 0 255 127
-2.039537 -16.637442 1.584 0 255 127
-2.125528 -16.594751 1.443 0 255 127
-2.023516 -16.64785 1.393 0 255 127
-2.200809 -16.555269 1.516 0 255 127
-2.052902 -16.630632 1.674 0 255 127
-2.011025 -16.65197 1.667 0 255 127
-2.174079 -16.56889 1.527 0 255 127
-2.207937 -16.551638 1.523 0 255 127
-2.082759 -16.616543 1.381 0 255 127
-2.165169 -16.573429 1.577 0 255 127
-2.161168 -16.576591 1.477 0 255 127
-2.013244 -16.649717 1.767 0 255 127
-2.335805 -16.487608 1.362 0 255 127
-2.227539 -16.541651 1.505 0 255 127
-2.107708 -16.60383 1.496 0 255 127
-2.203045 -16.555254 1.453 0 255 127
-2.120182 -16.597475 1.482 0 255 127
-2.061829 -16.628328 1.314 0 255 127
-2.157604 -16.578407 1.413 0 255 127
-2.031081 -16.642874 1.493 0 255 127
-2.195026 -16.55934 1.341 0 255 127
-2.07205 -16.619753 1.702 0 255 127
-2.041319 -16.636534 1.667 0 255 127
-1.99766 -16.658779 1.575 0 255 127
-2.106363 -16.603394 1.578 0 255 127
-1.984295 -16.66559 1.674 0 255 127
-2.061375 -16.627438 1.388 0 255 127
-2.264962 -16.522583 1.498 0 255 127
-2.236013 -16.538456 1.373 0 255 127
-2.023953 -16.646505 1.43 0 255 127
-2.093905 -16.611984 1.314 0 255 127
-2.075631 -16.620174 1.486 0 255 127
-2.12151 -16.595675 1.611 0 255 127
-2.213283 -16.548914 1.564 0 255 127
-2.255161 -16.527576 1.457 0 255 127
-2.230212 -16.540289 1.555 0 255 127
-2.070285 -16.622898 1.53 0 255 127
-2.145567 -16.583418 1.518 0 255 127
-2.003006 -16.656055 1.64 0 255 127
-1.993659 -16.661942 1.451 0 255 127
-2.068503 -16.623806 1.528 0 255 127
-2.023062 -16.646959 1.51 0 255 127
-2.270308 -16.519859 1.507 0 255 127
-2.151367 -16.581585 1.442 0 255 127
-2.023499 -16.645615 1.579 0 255 127
-2.285455 -16.51214 1.463 0 255 127
-2.142003 -16.585234 1.58 0 255 127
-2.09567 -16.608841 1.53 0 255 127
-2.002569 -16.657402 1.432 0 255 127
-2.163387 -16.574337 1.63 0 255 127
-2.27209 -16.518951 1.458 0 255 127
-2.178988 -16.567511 1.345 0 255 127
-2.000332 -16.657417 1.69 0 255 127
-2.153149 -16.580677 1.456 0 255 127
-2.150022 -16.581148 1.628 0 255 127
-2.220865 -16.546173 1.341 0 255 127
-2.120619 -16.596128 1.533 0 255 127
-1.984295 -16.66559 1.609 0 255 127
-2.060921 -16.626547 1.639 0 255 127
-2.1126 -16.600214 1.553 0 255 127
-2.024827 -16.643814 1.765 0 255 127
-2.111272 -16.602015 1.508 0 255 127
-2.105035 -16.605192 1.372 0 255 127
-2.099689 -16.607916 1.499 0 255 127
-2.248033 -16.531208 1.489 0 255 127
-2.240904 -16.53484 1.511 0 255 127
-2.234667 -16.538019 1.469 0 255 127
-2.132656 -16.591118 1.413 0 255 127
-2.034645 -16.641058 1.409 0 255 127
-2.054684 -16.629725 1.588 0 255 127
-1.995878 -16.659687 1.592 0 255 127
-2.110817 -16.601124 1.646 0 255 127
-2.259616 -16.525307 1.468 0 255 127
-2.313076 -16.498068 1.476 0 255 127
-2.203482 -16.553907 1.589 0 255 127
-2.230667 -16.54118 1.332 0 255 127
-2.153149 -16.580677 1.344 0 255 127
-2.225757 -16.542559 1.525 0 255 127
-2.072067 -16.62199 1.411 0 255 127
-2.007461 -16.653786 1.687 0 255 127
-2.150913 -16.580694 1.582 0 255 127
-1.983858 -16.666935 1.511 0 255 127
-2.057794 -16.627018 1.722 0 255 127
-2.101471 -16.607008 1.444 0 255 127
-2.026172 -16.644253 1.608 0 255 127
-2.149585 -16.582493 1.446 0 255 127
-2.057357 -16.628363 1.65 0 255 127
-2.038646 -16.637896 1.557 0 255 127
-2.133093 -16.589773 1.66 0 255 127
-2.238231 -16.536201 1.526 0 255 127
-2.21952 -16.545736 1.489 0 255 127
-2.031518 -16.641527 1.646 0 255 127
-2.012807 -16.651062 1.678 0 255 127
-2.25427 -16.52803 1.479 0 255 127
-2.108599 -16.603376 1.417 0 255 127
-1.977166 -16.669222 1.596 0 255 127
-2.10458 -16.604301 1.578 0 255 127
-2.003006 -16.656055 1.595 0 255 127
-2.073395 -16.62019 1.624 0 255 127
-2.046211 -16.632919 1.745 0 255 127
-2.016825 -16.650137 1.54 0 255 127
-2.298383 -16.506676 1.35 0 255 127
-2.181207 -16.565258 1.553 0 255 127
-2.172297 -16.569798 1.6 0 255 127
-2.071176 -16.622444 1.511 0 255 127
-2.042647 -16.634735 1.719 0 255 127
-2.03599 -16.641495 1.354 0 255 127
-2.281454 -16.515303 1.345 0 255 127
-2.118837 -16.597036 1.539 0 255 127
-2.160714 -16.575699 1.605 0 255 127
-2.240904 -16.53484 1.5 0 255 127
-2.036427 -16.64015 1.403 0 255 127
-2.009697 -16.653769 1.494 0 255 127
-2.151804 -16.58024 1.517 0 255 127
-1.982058 -16.665606 1.75 0 255 127
-1.990095 -16.663757 1.483 0 255 127
-2.018607 -16.649229 1.505 0 255 127
-2.035519 -16.638367 1.735 0 255 127
-2.17186 -16.571142 1.403 0 255 127
-2.126419 -16.594297 1.421 0 255 127
-2.106363 -16.603394 1.671 0 255 127
-2.265853 -16.522129 1.501 0 255 127
-2.147803 -16.583401 1.447 0 255 127
-2.123745 -16.595659 1.439 0 255 127
-2.157604 -16.578407 1.394 0 255 127
-2.073849 -16.621082 1.485 0 255 127
-2.200372 -16.556616 1.348 0 255 127
-2.115727 -16.599745 1.496 0 255 127
-2.170969 -16.571598 1.47 0 255 127
-2.193681 -16.558903 1.579 0 255 127
-2.154477 -16.578876 1.517 0 255 127
-2.217301 -16.547989 1.453 0 255 127
-2.108145 -16.602486 1.629 0 255 127
-2.050666 -16.63065 1.727 0 255 127
-2.161168 -16.576591 1.391 0 255 127
-2.197245 -16.557085 1.554 0 255 127
-2.004788 -16.655148 1.626 0 255 127
-2.00926 -16.655113 1.357 0 255 127
-2.014589 -16.650154 1.662 0 255 127
-2.012807 -16.651062 1.632 0 255 127
-1.994095 -16.660595 1.724 0 255 127
-2.154477 -16.578876 1.556 0 255 127
-2.2017 -16.554815 1.49 0 255 127
-2.163841 -16.57523 1.464 0 255 127
-2.156259 -16.577969 1.541 0 255 127
-2.048447 -16.632902 1.579 0 255 127
-2.152258 -16.581131 1.398 0 255 127
-1.981185 -16.668297 1.46 0 255 127
-2.172297 -16.569798 1.563 0 255 127
-2.031081 -16.642874 1.431 0 255 127
-2.120619 -16.596128 1.586 0 255 127
-2.05692 -16.629707 1.529 0 255 127
-2.285455 -16.51214 1.499 0 255 127
-2.058248 -16.627909 1.679 0 255 127
-2.084978 -16.614288 1.629 0 255 127
-2.229321 -16.540743 1.524 0 255 127
-2.039537 -16.637442 1.658 0 255 127
-1.985186 -16.665136 1.603 0 255 127
-2.042664 -16.636972 1.452 0 255 127
-2.227103 -16.542995 1.464 0 255 127
-2.076959 -16.618374 1.604 0 255 127
-2.04221 -16.63608 1.709 0 255 127
-2.080086 -16.617905 1.411 0 255 127
-2.166514 -16.573868 1.444 0 255 127
-2.121964 -16.596567 1.511 0 255 127
-2.01548 -16.6497 1.637 0 255 127
-2.024844 -16.646051 1.504 0 255 127
-2.248487 -16.532101 1.444 0 255 127
-2.07785 -16.61792 1.63 0 255 127
-2.281891 -16.513956 1.453 0 255 127
-1.985186 -16.665136 1.638 0 255 127
-2.134875 -16.588865 1.592 0 255 127
-2.084087 -16.614742 1.671 0 255 127
-2.048901 -16.633793 1.543 0 255 127
-2.305511 -16.503044 1.405 0 255 127
-2.212847 -16.550259 1.411 0 255 127
-2.26318 -16.523491 1.503 0 255 127
-2.055575 -16.629271 1.652 0 255 127
-2.146458 -16.582964 1.512 0 255 127
-2.218193 -16.547535 1.466 0 255 127
-2.064939 -16.625622 1.49 0 255 127
-2.165169 -16.573429 1.588 0 255 127
-2.069394 -16.623352 1.44 0 255 127
-2.069831 -16.622007 1.603 0 255 127
-2.134438 -16.59021 1.436 0 255 127
-2.129528 -16.591589 1.634 0 255 127
-2.001678 -16.657856 1.471 0 255 127
-2.018607 -16.649229 1.48 0 255 127
-1.999005 -16.659218 1.494 0 255 127
-1.996769 -16.659233 1.585 0 255 127
-2.241796 -16.534386 1.55 0 255 127
-2.136674 -16.590193 1.345 0 255 127
-2.241358 -16.535732 1.431 0 255 127
-2.007024 -16.65513 1.409 0 255 127
-2.155822 -16.579315 1.46 0 255 127
-2.021717 -16.646523 1.67 0 255 127
-2.160714 -16.575699 1.64 0 255 127
-2.03599 -16.641495 1.354 0 255 127
-2.008806 -16.654222 1.466 0 255 127
-2.288128 -16.510778 1.475 0 255 127
-2.068049 -16.622915 1.566 0 255 127
-2.193681 -16.558903 1.485 0 255 127
-2.150476 -16.582039 1.422 0 255 127
-2.182098 -16.564804 1.594 0 255 127
-2.105926 -16.604738 1.48 0 255 127
-2.182989 -16.56435 1.538 0 255 127
-2.190571 -16.561609 1.385 0 255 127
-2.26318 -16.523491 1.47 0 255 127
-2.031064 -16.640636 1.764 0 255 127
-2.120182 -16.597475 1.424 0 255 127
-2.036864 -16.638803 1.631 0 255 127
-2.229321 -16.540743 1.491 0 255 127
-2.18968 -16.562063 1.458 0 255 127
-2.218629 -16.54619 1.548 0 255 127
-2.040445 -16.639225 1.338 0 255 127
-1.981185 -16.668297 1.537 0 255 127
-1.995441 -16.661034 1.517 0 255 127
-2.115273 -16.598852 1.623 0 255 127
-2.036864 -16.638803 1.687 0 255 127
-2.189226 -16.561172 1.502 0 255 127
-2.127747 -16.592497 1.601 0 255 127
-2.050246 -16.63423 1.337 0 255 127
-2.147803 -16.583401 1.403 0 255 127
-2.082305 -16.61565 1.622 0 255 127
-2.317985 -16.496689 1.321 0 255 127
-1.982967 -16.667389 1.449 0 255 127
-2.018152 -16.648338 1.718 0 255 127
-2.068503 -16.623806 1.404 0 255 127
-2.05112 -16.63154 1.566 0 255 127
-2.334914 -16.488064 1.337 0 255 127
-2.051574 -16.632431 1.508 0 255 127
-2.126419 -16.594297 1.416 0 255 127
-2.074286 -16.619736 1.626 0 255 127
-2.255615 -16.528467 1.435 0 255 127
-2.083196 -16.615196 1.688 0 255 127
-2.17497 -16.568436 1.491 0 255 127
-2.151367 -16.581585 1.471 0 255 127
-2.072958 -16.621536 1.466 0 255 127
-2.227103 -16.542995 1.405 0 255 127
-2.016388 -16.651482 1.4 0 255 127
-2.204373 -16.553453 1.513 0 255 127
-2.166951 -16.572521 1.601 0 255 127
-2.077414 -16.619267 1.491 0 255 127
-1.99275 -16.660158 1.76 0 255 127
-2.076068 -16.618828 1.552 0 255 127
-2.044883 -16.634718 1.677 0 255 127
-2.000332 -16.657417 1.724 0 255 127
-2.058702 -16.628799 1.425 0 255 127
-2.173642 -16.570234 1.397 0 255 127
-2.027063 -16.643799 1.567 0 255 127
-2.034191 -16.640165 1.591 0 255 127
-1.991877 -16.662849 1.427 0 255 127
-2.023045 -16.644722 1.745 0 255 127
-2.138439 -16.587049 1.598 0 255 127
-2.007024 -16.65513 1.509 0 255 127
-1.98564 -16.666027 1.578 0 255 127
-2.206155 -16.552546 1.572 0 255 127
-1.997223 -16.660126 1.515 0 255 127
-2.131765 -16.591572 1.377 0 255 127
-2.079632 -16.617012 1.569 0 255 127
-2.158041 -16.577061 1.572 0 255 127
-2.075177 -16.619282 1.566 0 255 127
-2.08676 -16.61338 1.613 0 255 127
-2.139784 -16.587486 1.382 0 255 127
-2.29882 -16.505331 1.45 0 255 127
-2.29882 -16.505331 1.456 0 255 127
-2.088559 -16.614708 1.342 0 255 127
-2.048447 -16.632902 1.597 0 255 127
-2.003914 -16.657837 1.333 0 255 127
-2.114382 -16.599306 1.572 0 255 127
-2.141112 -16.585688 1.53 0 255 127
-1.997677 -16.661016 1.366 0 255 127
-2.279218 -16.515318 1.505 0 255 127
-1.978949 -16.668314 1.612 0 255 127
-2.246705 -16.533009 1.391 0 255 127
-2.02439 -16.645161 1.568 0 255 127
-2.17497 -16.568436 1.619 0 255 127
-2.188789 -16.562517 1.463 0 255 127
-2.212847 -16.550259 1.426 0 255 127
-2.092106 -16.610657 1.562 0 255 127
-2.056029 -16.630161 1.448 0 255 127
-2.187444 -16.56208 1.544 0 255 127
-2.085869 -16.613834 1.675 0 255 127
-2.167842 -16.572067 1.536 0 255 127
-2.06894 -16.622461 1.61 0 255 127
-2.189226 -16.561172 1.549 0 255 127
-2.332678 -16.488079 1.426 0 255 127
-2.104144 -16.605646 1.432 0 255 127
-2.008806 -16.654222 1.525 0 255 127
-2.224866 -16.543013 1.512 0 255 127
-2.09567 -16.608841 1.605 0 255 127
-2.104144 -16.605646 1.489 0 255 127
-2.081414 -16.616104 1.619 0 255 127
-2.115727 -16.599745 1.473 0 255 127
-2.030627 -16.641983 1.646 0 255 127
-2.080523 -16.616558 1.582 0 255 127
-2.069848 -16.624243 1.357 0 255 127
-2.175424 -16.569326 1.474 0 255 127
-2.282782 -16.513502 1.527 0 255 127
-2.010588 -16.653315 1.524 0 255 127
-2.104144 -16.605646 1.422 0 255 127
-1.996332 -16.66058 1.452 0 255 127
-2.070722 -16.621553 1.666 0 255 127
-2.03599 -16.641495 1.346 0 255 127
-2.140675 -16.587032 1.462 0 255 127
-2.176315 -16.568872 1.457 0 255 127
-2.244923 -16.533916 1.401 0 255 127
-1.980731 -16.667406 1.681 0 255 127
-2.04221 -16.63608 1.556 0 255 127
-2.088105 -16.613819 1.446 0 255 127
-2.027517 -16.64469 1.555 0 255 127
-2.033754 -16.641512 1.467 0 255 127
-2.090324 -16.611565 1.56 0 255 127
-1.97984 -16.66786 1.583 0 255 127
-2.078741 -16.617466 1.639 0 255 127
-2.068066 -16.625151 1.319 0 255 127
-2.202154 -16.555708 1.472 0 255 127
-2.088105 -16.613819 1.472 0 255 127
-2.004788 -16.655148 1.596 0 255 127
-2.248924 -16.530754 1.552 0 255 127
-2.241796 -16.534386 1.471 0 255 127
-2.191462 -16.561155 1.477 0 255 127
-2.069831 -16.622007 1.66 0 255 127
-2.230212 -16.540289 1.469 0 255 127
-2.231103 -16.539835 1.49 0 255 127
-2.173642 -16.570234 1.438 0 255 127
-2.055138 -16.630615 1.516 0 255 127
-2.148694 -16.582947 1.447 0 255 127
-2.161605 -16.575245 1.622 0 255 127
-2.241358 -16.535732 1.411 0 255 127
-2.19279 -16.559357 1.5 0 255 127
-1.999005 -16.659218 1.491 0 255 127
-1.999896 -16.658764 1.566 0 255 127
-2.231994 -16.539381 1.543 0 255 127
-2.309512 -16.499884 1.504 0 255 127
-2.044446 -16.636065 1.497 0 255 127
-2.092106 -16.610657 1.617 0 255 127
-2.18388 -16.563896 1.562 0 255 127
-2.246705 -16.533009 1.377 0 255 127
-2.137111 -16.588848 1.454 0 255 127
-2.0391 -16.638788 1.497 0 255 127
-2.179425 -16.566166 1.602 0 255 127
-2.084978 -16.614288 1.62 0 255 127
-2.256052 -16.527122 1.553 0 255 127
-2.186553 -16.562534 1.599 0 255 127
-2.039537 -16.637442 1.617 0 255 127
-2.223975 -16.543467 1.545 0 255 127
-2.107254 -16.60294 1.553 0 255 127
-2.007024 -16.65513 1.538 0 255 127
-2.030627 -16.641983 1.646 0 255 127
-2.222647 -16.545265 1.453 0 255 127
-2.156259 -16.577969 1.541 0 255 127
-2.163387 -16.574337 1.57 0 255 127
-1.978058 -16.668768 1.72 0 255 127
-2.097452 -16.607933 1.534 0 255 127
-2.064048 -16.626076 1.428 0 255 127
-2.143348 -16.58567 1.462 0 255 127
-2.032846 -16.639729 1.746 0 255 127
-2.168296 -16.57296 1.452 0 255 127
-2.115289 -16.601089 1.315 0 255 127
-2.060938 -16.628782 1.334 0 255 127
-2.043538 -16.634281 1.729 0 255 127
-2.229321 -16.540743 1.551 0 255 127
-2.323331 -16.493965 1.404 0 255 127
-2.008352 -16.653332 1.602 0 255 127
-2.070722 -16.621553 1.552 0 255 127
-2.064031 -16.623838 1.722 0 255 127
-2.305511 -16.503044 1.398 0 255 127
-2.182552 -16.565695 1.381 0 255 127
-2.034191 -16.640165 1.649 0 255 127
-2.090779 -16.612455 1.408 0 255 127
-2.106817 -16.604284 1.424 0 255 127
-2.021734 -16.648758 1.31 0 255 127
-2.240013 -16.535294 1.478 0 255 127
-1.988766 -16.665556 1.403 0 255 127
-2.085433 -16.615181 1.46 0 255 127
-2.141566 -16.586578 1.351 0 255 127
-2.084995 -16.616524 1.366 0 255 127
-2.237795 -16.537548 1.452 0 255 127
-2.19279 -16.559357 1.486 0 255 127
-2.041773 -16.637426 1.471 0 255 127
-2.132202 -16.590227 1.538 0 255 127
-2.06894 -16.622461 1.571 0 255 127
-2.249378 -16.531647 1.41 0 255 127
-2.04221 -16.63608 1.593 0 255 127
-2.078741 -16.617466 1.607 0 255 127
-2.132202 -16.590227 1.578 0 255 127
-2.093451 -16.611094 1.475 0 255 127
-2.219975 -16.546627 1.346 0 255 127
-1.984295 -16.66559 1.704 0 255 127
-2.019498 -16.648775 1.472 0 255 127
-2.044883 -16.634718 1.607 0 255 127
-2.278327 -16.515772 1.48 0 255 127
-2.235121 -16.53891 1.456 0 255 127
-1.986531 -16.665573 1.53 0 255 127
-1.987858 -16.663774 1.599 0 255 127
-2.081868 -16.616997 1.397 0 255 127
-2.015043 -16.651045 1.427 0 255 127
-2.250269 -16.531193 1.371 0 255 127
-2.248924 -16.530754 1.483 0 255 127
-2.079632 -16.617012 1.611 0 255 127
-2.222193 -16.544374 1.552 0 255 127
-2.078741 -16.617466 1.538 0 255 127
-2.216847 -16.547098 1.549 0 255 127
-2.173642 -16.570234 1.435 0 255 127
-2.153586 -16.57933 1.644 0 255 127
-2.173642 -16.570234 1.394 0 255 127
-2.124183 -16.594313 1.609 0 255 127
-2.055121 -16.62838 1.709 0 255 127
-2.003443 -16.654711 1.768 0 255 127
-2.046228 -16.635157 1.473 0 255 127
-2.131765 -16.591572 1.507 0 255 127
-2.078758 -16.619703 1.336 0 255 127
-2.018152 -16.648338 1.587 0 255 127
-2.064048 -16.626076 1.522 0 255 127
-2.185225 -16.564333 1.465 0 255 127
-2.028845 -16.642891 1.66 0 255 127
-2.040428 -16.636988 1.627 0 255 127
-2.231103 -16.539835 1.466 0 255 127
-2.027063 -16.643799 1.665 0 255 127
-2.211501 -16.549822 1.535 0 255 127
-2.011025 -16.65197 1.686 0 255 127
-2.245814 -16.533463 1.361 0 255 127
-2.326441 -16.491257 1.447 0 255 127
-2.188789 -16.562517 1.457 0 255 127
-2.173188 -16.569344 1.568 0 255 127
-2.194135 -16.559793 1.332 0 255 127
-2.027954 -16.643345 1.597 0 255 127
-2.131311 -16.590681 1.543 0 255 127
-2.153603 -16.581568 1.327 0 255 127
-2.004351 -16.656494 1.536 0 255 127
-2.063611 -16.62742 1.329 0 255 127
-2.068049 -16.622915 1.557 0 255 127
-2.131765 -16.591572 1.415 0 255 127
-2.031972 -16.64242 1.557 0 255 127
-2.085415 -16.612944 1.698 0 255 127
-2.097016 -16.609278 1.504 0 255 127
-2.211501 -16.549822 1.546 0 255 127
-2.023953 -16.646505 1.419 0 255 127
-2.240904 -16.53484 1.548 0 255 127
-2.073849 -16.621082 1.488 0 255 127
-2.219084 -16.547081 1.459 0 255 127
-2.225321 -16.543903 1.433 0 255 127
-2.27209 -16.518951 1.538 0 255 127
-1.978512 -16.669659 1.486 0 255 127
-2.205718 -16.553892 1.463 0 255 127
-2.178097 -16.567965 1.4 0 255 127
-2.185662 -16.562988 1.489 0 255 127
-2.191899 -16.559811 1.547 0 255 127
-1.977166 -16.669222 1.69 0 255 127
-2.09567 -16.608841 1.537 0 255 127
-2.052465 -16.631977 1.398 0 255 127
-2.041319 -16.636534 1.662 0 255 127
-2.092997 -16.610203 1.608 0 255 127
-2.006133 -16.655586 1.531 0 255 127
-2.160714 -16.575699 1.502 0 255 127
-2.079632 -16.617012 1.62 0 255 127
-2.165623 -16.574322 1.375 0 255 127
-2.211501 -16.549822 1.526 0 255 127
-2.06314 -16.624292 1.711 0 255 127
-1.982512 -16.666498 1.611 0 255 127
-2.149131 -16.581602 1.603 0 255 127
-2.13042 -16.591135 1.605 0 255 127
-2.02439 -16.645161 1.589 0 255 127
-2.102362 -16.606554 1.378 0 255 127
-2.252941 -16.529831 1.399 0 255 127
-2.080977 -16.617451 1.48 0 255 127
-2.116163 -16.598398 1.576 0 255 127
-2.051574 -16.632431 1.533 0 255 127
-2.034645 -16.641058 1.515 0 255 127
-2.071176 -16.622444 1.433 0 255 127
-2.016825 -16.650137 1.522 0 255 127
-2.255161 -16.527576 1.507 0 255 127
-2.21061 -16.550276 1.581 0 255 127
-2.075614 -16.617937 1.703 0 255 127
-2.085886 -16.61607 1.317 0 255 127
-2.200372 -16.556616 1.459 0 255 127
-2.043101 -16.635626 1.616 0 255 127
-2.101017 -16.606117 1.598 0 255 127
-2.049338 -16.632448 1.686 0 255 127
-2.206609 -16.553438 1.42 0 255 127
-2.061812 -16.626093 1.609 0 255 127
-2.086777 -16.615616 1.366 0 255 127
-2.072504 -16.620644 1.542 0 255 127
-2.109926 -16.601578 1.658 0 255 127
-2.081868 -16.616997 1.377 0 255 127
-2.214628 -16.549351 1.43 0 255 127
-2.114382 -16.599306 1.668 0 255 127
-2.138893 -16.58794 1.408 0 255 127
-2.060921 -16.626547 1.562 0 255 127
-2.192353 -16.560701 1.403 0 255 127
-2.26318 -16.523491 1.487 0 255 127
-2.090324 -16.611565 1.544 0 255 127
-2.106379 -16.605629 1.306 0 255 127
-2.063594 -16.625185 1.692 0 255 127
-2.064939 -16.625622 1.513 0 255 127
-2.04801 -16.634249 1.41 0 255 127
-2.06272 -16.627874 1.362 0 255 127
-2.019044 -16.647884 1.64 0 255 127
-2.020826 -16.646976 1.721 0 255 127
-2.07785 -16.61792 1.632 0 255 127
-1.995895 -16.661924 1.407 0 255 127
-2.076959 -16.618374 1.609 0 255 127
-2.031518 -16.641527 1.647 0 255 127
-2.087214 -16.614273 1.491 0 255 127
-2.283673 -16.513048 1.52 0 255 127
-2.223538 -16.544811 1.439 0 255 127
-2.097016 -16.609278 1.395 0 255 127
-2.075194 -16.621519 1.339 0 255 127
-2.197245 -16.557085 1.493 0 255 127
-2.028391 -16.641998 1.741 0 255 127
-2.101017 -16.606117 1.638 0 255 127
-2.018152 -16.648338 1.665 0 255 127
-2.161605 -16.575245 1.637 0 255 127
-2.213737 -16.549805 1.38 0 255 127
-1.979856 -16.670095 1.406 0 255 127
-2.091215 -16.611111 1.685 0 255 127
-2.052028 -16.633322 1.386 0 255 127
-2.089888 -16.612909 1.475 0 255 127
-2.258288 -16.527105 1.412 0 255 127
-2.154931 -16.579769 1.384 0 255 127
-2.025281 -16.644707 1.592 0 255 127
-2.080977 -16.617451 1.398 0 255 127
-2.185662 -16.562988 1.599 0 255 127
-2.047556 -16.633356 1.637 0 255 127
-2.125528 -16.594751 1.484 0 255 127
-2.238231 -16.536201 1.556 0 255 127
-2.002115 -16.656509 1.643 0 255 127
-2.206155 -16.552546 1.533 0 255 127
-2.124637 -16.595205 1.397 0 255 127
-2.272981 -16.518497 1.491 0 255 127
-2.209719 -16.55073 1.478 0 255 127
-2.161605 -16.575245 1.528 0 255 127
-2.202591 -16.554361 1.565 0 255 127
-2.134438 -16.59021 1.475 0 255 127
-2.002115 -16.656509 1.6 0 255 127
-2.059593 -16.628345 1.414 0 255 127
-2.041773 -16.637426 1.533 0 255 127
-2.13622 -16.589302 1.475 0 255 127
-2.096125 -16.609732 1.383 0 255 127
-2.18077 -16.566603 1.413 0 255 127
-2.255615 -16.528467 1.382 0 255 127
-1.998551 -16.658325 1.65 0 255 127
-2.097016 -16.609278 1.499 0 255 127
-2.225757 -16.542559 1.5 0 255 127
-1.986077 -16.664682 1.671 0 255 127
-2.016808 -16.647902 1.764 0 255 127
-2.000787 -16.65831 1.493 0 255 127
-2.034645 -16.641058 1.454 0 255 127
-2.209719 -16.55073 1.597 0 255 127
-2.172297 -16.569798 1.524 0 255 127
-2.222193 -16.544374 1.485 0 255 127
-2.169187 -16.572506 1.479 0 255 127
-2.077414 -16.619267 1.46 0 255 127
-2.005242 -16.65604 1.417 0 255 127
-2.035536 -16.640604 1.541 0 255 127
-2.129528 -16.591589 1.668 0 255 127
-2.090761 -16.61022 1.706 0 255 127
-1.995441 -16.661034 1.426 0 255 127
-2.137548 -16.587503 1.63 0 255 127
-2.239577 -16.53664 1.452 0 255 127
-2.114836 -16.600199 1.456 0 255 127
-1.999442 -16.657871 1.634 0 255 127
-2.220411 -16.545282 1.561 0 255 127
-1.982512 -16.666498 1.684 0 255 127
-1.985186 -16.665136 1.624 0 255 127
-2.013698 -16.650608 1.592 0 255 127
-2.023062 -16.646959 1.456 0 255 127
-2.030173 -16.64109 1.739 0 255 127
-2.31353 -16.498959 1.41 0 255 127
-2.067612 -16.62426 1.534 0 255 127
-2.191899 -16.559811 1.486 0 255 127
-2.155368 -16.578423 1.608 0 255 127
-2.104144 -16.605646 1.519 0 255 127
-2.239122 -16.535748 1.463 0 255 127
-2.047556 -16.633356 1.599 0 255 127
-2.037755 -16.63835 1.673 0 255 127
-2.0333 -16.640619 1.595 0 255 127
-2.326441 -16.491257 1.457 0 255 127
-2.031972 -16.64242 1.436 0 255 127
-2.151367 -16.581585 1.48 0 255 127
-2.071613 -16.621098 1.556 0 255 127
-2.039991 -16.638334 1.541 0 255 127
-2.153586 -16.57933 1.625 0 255 127
-2.004351 -16.656494 1.501 0 255 127
-2.021263 -16.64563 1.739 0 255 127
-2.115727 -16.599745 1.488 0 255 127
-2.181207 -16.565258 1.614 0 255 127
-2.005679 -16.654694 1.698 0 255 127
-2.057357 -16.628363 1.65 0 255 127
-2.065393 -16.626513 1.365 0 255 127
-2.036427 -16.64015 1.415 0 255 127
-2.031972 -16.64242 1.459 0 255 127
-2.040882 -16.63788 1.442 0 255 127
-2.000332 -16.657417 1.697 0 255 127
-2.270308 -16.519859 1.528 0 255 127
-2.055121 -16.62838 1.723 0 255 127
-2.063594 -16.625185 1.681 0 255 127
-2.031518 -16.641527 1.643 0 255 127
-1.993204 -16.661049 1.668 0 255 127
-2.04221 -16.63608 1.626 0 255 127
-2.007024 -16.65513 1.448 0 255 127
-2.126856 -16.592951 1.549 0 255 127
-1.983404 -16.666044 1.734 0 255 127
-2.109035 -16.602032 1.6 0 255 127
-2.031972 -16.64242 1.403 0 255 127
-2.101017 -16.606117 1.553 0 255 127
-2.052448 -16.629742 1.742 0 255 127
-2.230667 -16.54118 1.402 0 255 127
-2.308621 -16.500338 1.428 0 255 127
-2.105926 -16.604738 1.522 0 255 127
-2.121526 -16.597912 1.354 0 255 127
-2.134875 -16.588865 1.511 0 255 127
-2.172751 -16.570688 1.49 0 255 127
-2.068503 -16.623806 1.406 0 255 127
-2.141112 -16.585688 1.64 0 255 127
-2.121526 -16.597912 1.346 0 255 127
-2.041756 -16.635189 1.749 0 255 127
-2.108145 -16.602486 1.618 0 255 127
-2.074286 -16.619736 1.674 0 255 127
-2.052465 -16.631977 1.492 0 255 127
-2.081868 -16.616997 1.413 0 255 127
-2.048447 -16.632902 1.618 0 255 127
-2.071613 -16.621098 1.583 0 255 127
-1.977166 -16.669222 1.611 0 255 127
-2.12731 -16.593843 1.461 0 255 127
-2.150476 -16.582039 1.351 0 255 127
-2.039083 -16.636551 1.751 0 255 127
-2.020826 -16.646976 1.7 0 255 127
-2.102344 -16.604317 1.688 0 255 127
-2.161605 -16.575245 1.623 0 255 127
-2.185662 -16.562988 1.534 0 255 127
-2.118837 -16.597036 1.57 0 255 127
-2.146458 -16.582964 1.57 0 255 127
-2.07474 -16.620628 1.38 0 255 127
-2.227103 -16.542995 1.456 0 255 127
-2.105035 -16.605192 1.514 0 255 127
-2.07474 -16.620628 1.42 0 255 127
-2.238231 -16.536201 1.552 0 255 127
-2.007461 -16.653786 1.609 0 255 127
-2.093451 -16.611094 1.468 0 255 127
-2.121055 -16.594784 1.676 0 255 127
-2.08945 -16.614254 1.33 0 255 127
-2.190571 -16.561609 1.458 0 255 127
-2.033317 -16.642857 1.382 0 255 127
-2.013698 -16.650608 1.712 0 255 127
-2.181207 -16.565258 1.505 0 255 127
-2.049775 -16.631104 1.713 0 255 127
-2.193244 -16.560247 1.416 0 255 127
-2.035099 -16.641949 1.319 0 255 127
-2.121073 -16.597021 1.406 0 255 127
-2.039554 -16.639679 1.389 0 255 127
-2.016371 -16.649246 1.599 0 255 127
-2.169624 -16.571159 1.537 0 255 127
-2.189226 -16.561172 1.495 0 255 127
-2.198136 -16.556631 1.483 0 255 127
-2.132202 -16.590227 1.565 0 255 127
-2.205718 -16.553892 1.416 0 255 127
-2.110834 -16.603359 1.335 0 255 127
-2.238231 -16.536201 1.474 0 255 127
-2.01859 -16.646992 1.742 0 255 127
-2.175424 -16.569326 1.406 0 255 127
-1.978966 -16.670549 1.388 0 255 127
-2.250705 -16.529846 1.536 0 255 127
-2.12731 -16.593843 1.372 0 255 127
-2.075177 -16.619282 1.688 0 255 127
-2.034645 -16.641058 1.431 0 255 127
-2.06894 -16.622461 1.637 0 255 127
-2.206609 -16.553438 1.388 0 255 127
-1.980731 -16.667406 1.611 0 255 127
-2.135329 -16.589756 1.439 0 255 127
-2.154931 -16.579769 1.463 0 255 127
-2.10949 -16.602922 1.463 0 255 127
-2.193244 -16.560247 1.466 0 255 127
-2.209719 -16.55073 1.528 0 255 127
-2.201263 -16.556162 1.463 0 255 127
-2.118837 -16.597036 1.611 0 255 127
-2.174096 -16.571125 1.318 0 255 127
-2.305948 -16.501699 1.471 0 255 127
-2.080086 -16.617905 1.394 0 255 127
-2.00124 -16.659201 1.319 0 255 127
-2.05692 -16.629707 1.476 0 255 127
-1.982949 -16.665152 1.748 0 255 127
-2.014589 -16.650154 1.712 0 255 127
-2.234231 -16.539364 1.341 0 255 127
-2.060484 -16.627892 1.451 0 255 127
-1.985186 -16.665136 1.7 0 255 127
-2.178988 -16.567511 1.391 0 255 127
-2.158495 -16.577953 1.407 0 255 127
-2.013715 -16.652843 1.402 0 255 127
-2.1126 -16.600214 1.524 0 255 127
-2.102798 -16.605209 1.627 0 255 127
-1.98564 -16.666027 1.423 0 255 127
-2.056483 -16.631052 1.294 0 255 127
-1.996769 -16.659233 1.661 0 255 127
-1.992768 -16.662395 1.471 0 255 127
-2.240468 -16.536186 1.451 0 255 127
-2.159823 -16.576153 1.526 0 255 127
-2.037318 -16.639696 1.396 0 255 127
-2.050666 -16.63065 1.725 0 255 127
-2.240904 -16.53484 1.542 0 255 127
-1.977166 -16.669222 1.664 0 255 127
-2.051137 -16.633776 1.361 0 255 127
-2.178097 -16.567965 1.461 0 255 127
-2.174079 -16.56889 1.511 0 255 127
-2.161168 -16.576591 1.41 0 255 127
-2.252941 -16.529831 1.39 0 255 127
-2.102798 -16.605209 1.534 0 255 127
-2.233776 -16.538473 1.522 0 255 127
-2.07785 -16.61792 1.606 0 255 127
-2.053356 -16.631523 1.435 0 255 127
-2.019044 -16.647884 1.638 0 255 127
-2.176752 -16.567528 1.576 0 255 127
-2.105471 -16.603848 1.664 0 255 127
-2.088542 -16.612473 1.657 0 255 127
-2.111708 -16.60067 1.617 0 255 127
-2.100125 -16.606571 1.532 0 255 127
-2.137111 -16.588848 1.362 0 255 127
-2.195463 -16.557993 1.591 0 255 127
-2.030627 -16.641983 1.645 0 255 127
-2.009697 -16.653769 1.438 0 255 127
-2.194572 -16.558447 1.61 0 255 127
-1.97762 -16.670113 1.491 0 255 127
-2.104144 -16.605646 1.504 0 255 127
-2.071176 -16.622444 1.522 0 255 127
-2.212847 -16.550259 1.446 0 255 127
-2.044883 -16.634718 1.6 0 255 127
-2.046211 -16.632919 1.733 0 255 127
-2.045774 -16.634264 1.7 0 255 127
-2.220411 -16.545282 1.504 0 255 127
-1.991423 -16.661957 1.643 0 255 127
-2.126419 -16.594297 1.42 0 255 127
-1.986531 -16.665573 1.471 0 255 127
-2.254724 -16.528921 1.387 0 255 127
-2.24625 -16.532116 1.548 0 255 127
-2.315749 -16.496706 1.487 0 255 127
-2.058265 -16.630144 1.334 0 255 127
-2.060047 -16.629236 1.352 0 255 127
-2.060921 -16.626547 1.599 0 255 127
-2.174533 -16.56978 1.375 0 255 127
-2.218629 -16.54619 1.509 0 255 127
-2.173642 -16.570234 1.433 0 255 127
-2.248924 -16.530754 1.538 0 255 127
-2.16606 -16.572975 1.527 0 255 127
-2.131311 -16.590681 1.529 0 255 127
-2.257833 -16.526215 1.457 0 255 127
-2.16295 -16.575684 1.453 0 255 127
-2.023953 -16.646505 1.418 0 255 127
-2.026626 -16.645144 1.467 0 255 127
-2.144676 -16.583872 1.59 0 255 127
-2.1126 -16.600214 1.63 0 255 127
-2.142894 -16.58478 1.603 0 255 127
-2.256052 -16.527122 1.519 0 255 127
-2.104144 -16.605646 1.404 0 255 127
-2.262289 -16.523945 1.504 0 255 127
-2.100125 -16.606571 1.641 0 255 127
-2.175861 -16.567982 1.56 0 255 127
-1.982512 -16.666498 1.694 0 255 127
-2.058702 -16.628799 1.468 0 255 127
-2.262289 -16.523945 1.508 0 255 127
-2.063594 -16.625185 1.579 0 255 127
-2.165169 -16.573429 1.615 0 255 127
-2.007898 -16.652441 1.739 0 255 127
-2.236013 -16.538456 1.439 0 255 127
-2.135329 -16.589756 1.485 0 255 127
-2.143785 -16.584326 1.635 0 255 127
-1.996332 -16.66058 1.466 0 255 127
-2.088542 -16.612473 1.601 0 255 127
-1.998114 -16.659672 1.428 0 255 127
-2.053793 -16.630178 1.601 0 255 127
-2.075614 -16.617937 1.701 0 255 127
-2.075614 -16.617937 1.713 0 255 127
-2.302384 -16.503515 1.497 0 255 127
-2.177206 -16.568419 1.452 0 255 127
-2.067158 -16.623369 1.644 0 255 127
-2.195917 -16.558886 1.391 0 255 127
-2.066721 -16.624714 1.535 0 255 127
-2.131311 -16.590681 1.588 0 255 127
