ply
format ascii 1.0
element vertex 844
property double x
property double y
property double z
property uchar red
property uchar green
property uchar blue
element face 0
property list uchar int vertex_indices
end_header
-2.882883 -16.208858 1.496 84 0 127
-2.957728 -16.170723 1.447 84 0 127
-3.032572 -16.132587 1.565 84 0 127
-3.02188 -16.138037 1.507 84 0 127
-2.973766 -16.162552 1.374 84 0 127
-2.887338 -16.206589 1.463 84 0 127
-3.053957 -16.121693 1.526 84 0 127
-3.018316 -16.139853 1.362 84 0 127
-2.990695 -16.153925 1.579 84 0 127
-2.924761 -16.187521 1.551 84 0 127
-2.894466 -16.202957 1.383 84 0 127
-2.976876 -16.159843 1.658 84 0 127
-2.936344 -16.18162 1.58 84 0 127
-2.905159 -16.197508 1.554 84 0 127
-3.068213 -16.114428 1.496 84 0 127
-3.045047 -16.126232 1.403 84 0 127
-3.072668 -16.112158 1.568 84 0 127
-3.008515 -16.144846 1.509 84 0 127
-2.978221 -16.160282 1.531 84 0 127
-2.959947 -16.16847 1.651 84 0 127
-2.957728 -16.170723 1.527 84 0 127
-2.914959 -16.192514 1.601 84 0 127
-3.075341 -16.110796 1.563 84 0 127
-3.057521 -16.119877 1.58 84 0 127
-2.871737 -16.213415 1.609 84 0 127
-2.897576 -16.200249 1.665 84 0 127
-2.908722 -16.195692 1.59 84 0 127
-3.019207 -16.139399 1.625 84 0 127
-2.879319 -16.210674 1.34 84 0 127
-3.002278 -16.148024 1.342 84 0 127
-3.012079 -16.14303 1.587 84 0 127
-2.93278 -16.183435 1.548 84 0 127
-2.881538 -16.208422 1.65 84 0 127
-3.052175 -16.122601 1.475 84 0 127
-2.982676 -16.158012 1.54 84 0 127
-2.941236 -16.178003 1.648 84 0 127
-2.928325 -16.185705 1.593 84 0 127
-2.962183 -16.168453 1.545 84 0 127
-2.819622 -16.241093 1.464 84 0 127
-2.936344 -16.18162 1.421 84 0 127
-2.89223 -16.202972 1.625 84 0 127
-3.017425 -16.140306 1.408 84 0 127
-2.943472 -16.177988 1.494 84 0 127
-3.028117 -16.134857 1.579 84 0 127
-2.979112 -16.159828 1.339 84 0 127
-3.020098 -16.138945 1.416 84 0 127
-2.860608 -16.220209 1.429 84 0 127
-3.017425 -16.140306 1.485 84 0 127
-3.063758 -16.116699 1.452 84 0 127
-3.071777 -16.112612 1.546 84 0 127
-2.926088 -16.185722 1.629 84 0 127
-2.958619 -16.170269 1.604 84 0 127
-3.090488 -16.103079 1.551 84 0 127
-2.900703 -16.19978 1.574 84 0 127
-2.992477 -16.153017 1.581 84 0 127
-3.072668 -16.112158 1.53 84 0 127
-2.982676 -16.158012 1.321 84 0 127
-2.855262 -16.222933 1.46 84 0 127
-2.976439 -16.16119 1.531 84 0 127
-2.963074 -16.167999 1.532 84 0 127
-2.978221 -16.160282 1.503 84 0 127
-2.918524 -16.190699 1.542 84 0 127
-3.011188 -16.143484 1.376 84 0 127
-2.919415 -16.190245 1.492 84 0 127
-3.005842 -16.146208 1.327 84 0 127
-2.927434 -16.186159 1.444 84 0 127
-3.073559 -16.111704 1.532 84 0 127
-3.051284 -16.123055 1.384 84 0 127
-3.061085 -16.118061 1.591 84 0 127
-2.935453 -16.182074 1.535 84 0 127
-2.85659 -16.221132 1.736 84 0 127
-3.047719 -16.12487 1.52 84 0 127
-3.053066 -16.122147 1.49 84 0 127
-2.839224 -16.231104 1.374 84 0 127
-2.972875 -16.163006 1.576 84 0 127
-2.840115 -16.23065 1.48 84 0 127
-2.858826 -16.221117 1.518 84 0 127
-2.927871 -16.184814 1.662 84 0 127
-2.81784 -16.242001 1.528 84 0 127
-2.963965 -16.167545 1.399 84 0 127
-2.857044 -16.222025 1.291 84 0 127
-2.917633 -16.191153 1.571 84 0 127
-2.901594 -16.199326 1.515 84 0 127
-2.934562 -16.182528 1.566 84 0 127
-3.022771 -16.137583 1.551 84 0 127
-2.918524 -16.190699 1.55 84 0 127
-2.873082 -16.213852 1.351 84 0 127
-2.908268 -16.194801 1.613 84 0 127
-3.017425 -16.140306 1.43 84 0 127
-2.967529 -16.16573 1.54 84 0 127
-2.926543 -16.186613 1.539 84 0 127
-2.929216 -16.185251 1.551 84 0 127
-2.999605 -16.149385 1.615 84 0 127
-2.973766 -16.162552 1.351 84 0 127
-2.865954 -16.217484 1.362 84 0 127
-2.824514 -16.237476 1.582 84 0 127
-2.908722 -16.195692 1.541 84 0 127
-2.971984 -16.16346 1.416 84 0 127
-2.963074 -16.167999 1.636 84 0 127
-2.991586 -16.153471 1.346 84 0 127
-2.932325 -16.182545 1.659 84 0 127
-2.976439 -16.16119 1.609 84 0 127
-2.959056 -16.168924 1.667 84 0 127
-3.001387 -16.148478 1.349 84 0 127
-2.906049 -16.197054 1.374 84 0 127
-2.800911 -16.250626 1.505 84 0 127
-2.820059 -16.239746 1.661 84 0 127
-2.945254 -16.177078 1.503 84 0 127
-2.988913 -16.154833 1.563 84 0 127
-2.954601 -16.171194 1.674 84 0 127
-2.949709 -16.174809 1.598 84 0 127
-2.823623 -16.23793 1.667 84 0 127
-2.994259 -16.152109 1.566 84 0 127
-2.971984 -16.16346 1.409 84 0 127
-3.037918 -16.129864 1.416 84 0 127
-2.877974 -16.210238 1.631 84 0 127
-2.921633 -16.187992 1.704 84 0 127
-2.936344 -16.18162 1.319 84 0 127
-2.886884 -16.205698 1.63 84 0 127
-2.851244 -16.223856 1.583 84 0 127
-2.993368 -16.152563 1.591 84 0 127
-2.967075 -16.164839 1.66 84 0 127
-2.837442 -16.232012 1.542 84 0 127
-2.905159 -16.197508 1.485 84 0 127
-3.046829 -16.125324 1.493 84 0 127
-2.907831 -16.196146 1.381 84 0 127
-3.077123 -16.109888 1.524 84 0 127
-2.976439 -16.16119 1.476 84 0 127
-3.009406 -16.144392 1.593 84 0 127
-2.95371 -16.171648 1.659 84 0 127
-3.002278 -16.148024 1.588 84 0 127
-2.851244 -16.223856 1.722 84 0 127
-2.966638 -16.166183 1.492 84 0 127
-2.882883 -16.208858 1.487 84 0 127
-2.947036 -16.17617 1.618 84 0 127
-2.914068 -16.192968 1.368 84 0 127
-3.034354 -16.13168 1.529 84 0 127
-3.025444 -16.136221 1.556 84 0 127
-2.997823 -16.150293 1.336 84 0 127
-3.080687 -16.108072 1.505 84 0 127
-3.001387 -16.148478 1.542 84 0 127
-2.895357 -16.202503 1.584 84 0 127
-2.994259 -16.152109 1.527 84 0 127
-3.055738 -16.120785 1.385 84 0 127
-2.929652 -16.183907 1.622 84 0 127
-3.050392 -16.123508 1.575 84 0 127
-2.927434 -16.186159 1.571 84 0 127
-2.943472 -16.177988 1.522 84 0 127
-2.92387 -16.187975 1.534 84 0 127
-2.994259 -16.152109 1.518 84 0 127
-2.823186 -16.239275 1.419 84 0 127
-2.942127 -16.177549 1.634 84 0 127
-3.032572 -16.132587 1.572 84 0 127
-2.896685 -16.200703 1.61 84 0 127
-2.897139 -16.201595 1.56 84 0 127
-3.03079 -16.133495 1.563 84 0 127
-3.03881 -16.12941 1.574 84 0 127
-3.040591 -16.128502 1.549 84 0 127
-2.861499 -16.219755 1.541 84 0 127
-3.016534 -16.14076 1.469 84 0 127
-2.869518 -16.215668 1.502 84 0 127
-3.058412 -16.119423 1.579 84 0 127
-2.972875 -16.163006 1.513 84 0 127
-3.032572 -16.132587 1.581 84 0 127
-3.067322 -16.114883 1.49 84 0 127
-2.96262 -16.167109 1.667 84 0 127
-2.930998 -16.184343 1.58 84 0 127
-2.881992 -16.209312 1.565 84 0 127
-2.896685 -16.200703 1.599 84 0 127
-3.066431 -16.115337 1.497 84 0 127
-2.917633 -16.191153 1.554 84 0 127
-3.071777 -16.112612 1.468 84 0 127
-3.053066 -16.122147 1.549 84 0 127
-3.01297 -16.142576 1.337 84 0 127
-3.072668 -16.112158 1.554 84 0 127
-2.944363 -16.177534 1.422 84 0 127
-3.02188 -16.138037 1.486 84 0 127
-3.051284 -16.123055 1.563 84 0 127
-2.880647 -16.208876 1.599 84 0 127
-2.933217 -16.182089 1.631 84 0 127
-3.069995 -16.11352 1.492 84 0 127
-2.890011 -16.205227 1.511 84 0 127
-2.989804 -16.154379 1.643 84 0 127
-2.8713 -16.21476 1.434 84 0 127
-3.061085 -16.118061 1.59 84 0 127
-2.966638 -16.166183 1.383 84 0 127
-3.050392 -16.123508 1.485 84 0 127
-2.857044 -16.222025 1.352 84 0 127
-3.024553 -16.136675 1.562 84 0 127
-3.026335 -16.135767 1.494 84 0 127
-3.089597 -16.103533 1.548 84 0 127
-2.825859 -16.237913 1.422 84 0 127
-2.951491 -16.173901 1.499 84 0 127
-2.938126 -16.180712 1.524 84 0 127
-2.983567 -16.157558 1.523 84 0 127
-2.843679 -16.228834 1.487 84 0 127
-2.982676 -16.158012 1.47 84 0 127
-2.869955 -16.214323 1.58 84 0 127
-3.027226 -16.135311 1.577 84 0 127
-3.04861 -16.124416 1.583 84 0 127
-3.008515 -16.144846 1.349 84 0 127
-2.8713 -16.21476 1.361 84 0 127
-2.999605 -16.149385 1.452 84 0 127
-2.975548 -16.161644 1.539 84 0 127
-2.877974 -16.210238 1.627 84 0 127
-2.993368 -16.152563 1.546 84 0 127
-3.029008 -16.134403 1.464 84 0 127
-2.873973 -16.213398 1.422 84 0 127
-3.084251 -16.106256 1.569 84 0 127
-2.954601 -16.171194 1.65 84 0 127
-2.972875 -16.163006 1.337 84 0 127
-2.930107 -16.184797 1.53 84 0 127
-2.925652 -16.187067 1.546 84 0 127
-2.900703 -16.19978 1.392 84 0 127
-2.942581 -16.178442 1.546 84 0 127
-2.820059 -16.239746 1.703 84 0 127
-2.956837 -16.171177 1.476 84 0 127
-2.919415 -16.190245 1.421 84 0 127
-2.890011 -16.205227 1.466 84 0 127
-2.873082 -16.213852 1.478 84 0 127
-2.987131 -16.155741 1.453 84 0 127
-2.895794 -16.201157 1.647 84 0 127
-2.900703 -16.19978 1.596 84 0 127
-2.897139 -16.201595 1.557 84 0 127
-2.821404 -16.240185 1.498 84 0 127
-2.88912 -16.205681 1.394 84 0 127
-2.906049 -16.197054 1.393 84 0 127
-2.955055 -16.172085 1.575 84 0 127
-2.922088 -16.188883 1.597 84 0 127
-2.842334 -16.228397 1.606 84 0 127
-2.904268 -16.197962 1.346 84 0 127
-2.973766 -16.162552 1.397 84 0 127
-3.031681 -16.133041 1.594 84 0 127
-2.885993 -16.206152 1.724 84 0 127
-2.920305 -16.189791 1.333 84 0 127
-2.980003 -16.159374 1.553 84 0 127
-2.912287 -16.193876 1.507 84 0 127
-2.957274 -16.169832 1.664 84 0 127
-2.856153 -16.222479 1.419 84 0 127
-2.981785 -16.158466 1.566 84 0 127
-2.921633 -16.187992 1.692 84 0 127
-3.023662 -16.137129 1.549 84 0 127
-2.86239 -16.219301 1.537 84 0 127
-2.88021 -16.21022 1.516 84 0 127
-2.905595 -16.196163 1.637 84 0 127
-2.856153 -16.222479 1.501 84 0 127
-2.87441 -16.212053 1.627 84 0 127
-3.091379 -16.102625 1.503 84 0 127
-2.868627 -16.216122 1.506 84 0 127
-3.094943 -16.100809 1.505 84 0 127
-2.948818 -16.175262 1.614 84 0 127
-2.852589 -16.224295 1.422 84 0 127
-3.013861 -16.142122 1.599 84 0 127
-3.078905 -16.10898 1.512 84 0 127
-2.98624 -16.156195 1.506 84 0 127
-3.119 -16.088551 1.546 84 0 127
-2.826296 -16.236568 1.583 84 0 127
-3.043264 -16.12714 1.569 84 0 127
-3.001387 -16.148478 1.463 84 0 127
-3.035245 -16.131226 1.491 84 0 127
-2.975548 -16.161644 1.487 84 0 127
-2.860154 -16.219316 1.636 84 0 127
-3.060194 -16.118515 1.505 84 0 127
-2.914959 -16.192514 1.525 84 0 127
-2.894466 -16.202957 1.349 84 0 127
-3.072668 -16.112158 1.582 84 0 127
-2.888666 -16.20479 1.683 84 0 127
-2.895357 -16.202503 1.407 84 0 127
-2.979112 -16.159828 1.539 84 0 127
-2.895357 -16.202503 1.466 84 0 127
-3.009406 -16.144392 1.435 84 0 127
-3.08336 -16.10671 1.464 84 0 127
-2.929216 -16.185251 1.413 84 0 127
-2.808039 -16.246994 1.489 84 0 127
-2.963074 -16.167999 1.635 84 0 127
-2.888229 -16.206135 1.409 84 0 127
-2.936344 -16.18162 1.375 84 0 127
-2.854371 -16.223387 1.524 84 0 127
-3.018316 -16.139853 1.449 84 0 127
-2.883774 -16.208405 1.538 84 0 127
-3.015643 -16.141214 1.482 84 0 127
-3.014752 -16.141668 1.56 84 0 127
-3.072668 -16.112158 1.54 84 0 127
-2.852589 -16.224295 1.531 84 0 127
-3.051284 -16.123055 1.585 84 0 127
-2.884665 -16.207951 1.471 84 0 127
-2.928325 -16.185705 1.571 84 0 127
-3.066431 -16.115337 1.46 84 0 127
-2.943472 -16.177988 1.542 84 0 127
-2.954164 -16.172539 1.476 84 0 127
-3.054847 -16.121239 1.508 84 0 127
-3.100289 -16.098085 1.509 84 0 127
-2.910505 -16.194784 1.573 84 0 127
-2.964856 -16.167091 1.459 84 0 127
-2.92387 -16.187975 1.389 84 0 127
-2.895794 -16.201157 1.597 84 0 127
-3.010297 -16.143938 1.614 84 0 127
-3.053066 -16.122147 1.453 84 0 127
-2.963074 -16.167999 1.47 84 0 127
-3.058412 -16.119423 1.458 84 0 127
-2.875755 -16.21249 1.524 84 0 127
-2.964856 -16.167091 1.358 84 0 127
-2.927434 -16.186159 1.535 84 0 127
-2.981785 -16.158466 1.57 84 0 127
-2.955055 -16.172085 1.454 84 0 127
-2.98624 -16.156195 1.466 84 0 127
-2.831205 -16.235189 1.389 84 0 127
-2.852589 -16.224295 1.403 84 0 127
-2.891339 -16.203428 1.646 84 0 127
-2.939908 -16.179804 1.611 84 0 127
-2.992477 -16.153017 1.578 84 0 127
-3.043264 -16.12714 1.452 84 0 127
-2.903813 -16.197071 1.614 84 0 127
-2.925652 -16.187067 1.513 84 0 127
-2.962183 -16.168453 1.559 84 0 127
-2.908722 -16.195692 1.528 84 0 127
-3.01297 -16.142576 1.44 84 0 127
-2.839224 -16.231104 1.484 84 0 127
-3.04861 -16.124416 1.476 84 0 127
-2.908268 -16.194801 1.641 84 0 127
-3.006733 -16.145754 1.377 84 0 127
-2.912287 -16.193876 1.504 84 0 127
-2.924761 -16.187521 1.464 84 0 127
-3.034354 -16.13168 1.471 84 0 127
-3.082469 -16.107164 1.509 84 0 127
-3.07445 -16.11125 1.48 84 0 127
-2.904268 -16.197962 1.568 84 0 127
-3.014752 -16.141668 1.484 84 0 127
-2.881101 -16.209766 1.516 84 0 127
-2.881101 -16.209766 1.527 84 0 127
-2.872628 -16.212961 1.73 84 0 127
-3.010297 -16.143938 1.548 84 0 127
-2.902485 -16.198872 1.413 84 0 127
-2.973766 -16.162552 1.544 84 0 127
-2.878428 -16.211128 1.569 84 0 127
-2.905159 -16.197508 1.553 84 0 127
-3.03079 -16.133495 1.472 84 0 127
-2.907377 -16.195255 1.689 84 0 127
-2.899812 -16.200233 1.314 84 0 127
-2.948818 -16.175262 1.48 84 0 127
-2.943472 -16.177988 1.338 84 0 127
-3.00406 -16.147116 1.476 84 0 127
-3.05663 -16.120331 1.474 84 0 127
-3.054847 -16.121239 1.475 84 0 127
-3.026335 -16.135767 1.557 84 0 127
-2.96842 -16.165276 1.615 84 0 127
-2.913177 -16.193422 1.441 84 0 127
-2.933671 -16.182981 1.41 84 0 127
-2.97153 -16.162569 1.646 84 0 127
-2.952819 -16.172102 1.664 84 0 127
-2.885556 -16.207497 1.536 84 0 127
-2.971093 -16.163914 1.537 84 0 127
-2.96262 -16.167109 1.667 84 0 127
-3.071777 -16.112612 1.463 84 0 127
-2.937671 -16.179819 1.678 84 0 127
-2.931889 -16.183889 1.567 84 0 127
-2.9506 -16.174355 1.447 84 0 127
-2.84457 -16.22838 1.357 84 0 127
-2.997823 -16.150293 1.542 84 0 127
-2.946582 -16.17528 1.667 84 0 127
-2.903813 -16.197071 1.604 84 0 127
-2.836097 -16.231575 1.593 84 0 127
-3.087815 -16.104441 1.535 84 0 127
-2.980003 -16.159374 1.625 84 0 127
-3.127019 -16.084465 1.507 84 0 127
-2.992477 -16.153017 1.531 84 0 127
-3.020989 -16.138491 1.518 84 0 127
-2.841443 -16.228851 1.668 84 0 127
-2.810712 -16.245632 1.493 84 0 127
-2.914068 -16.192968 1.512 84 0 127
-2.866845 -16.21703 1.37 84 0 127
-2.885993 -16.206152 1.644 84 0 127
-3.086033 -16.105349 1.544 84 0 127
-3.076232 -16.110342 1.529 84 0 127
-2.858372 -16.220224 1.724 84 0 127
-3.006733 -16.145754 1.491 84 0 127
-2.975548 -16.161644 1.524 84 0 127
-3.084251 -16.106256 1.51 84 0 127
-2.975548 -16.161644 1.404 84 0 127
-2.840115 -16.23065 1.387 84 0 127
-2.884211 -16.20706 1.617 84 0 127
-2.958619 -16.170269 1.48 84 0 127
-3.078905 -16.10898 1.47 84 0 127
-2.922979 -16.188429 1.579 84 0 127
-3.029899 -16.133949 1.521 84 0 127
-2.838333 -16.231558 1.374 84 0 127
-2.939017 -16.180258 1.527 84 0 127
-2.88912 -16.205681 1.477 84 0 127
-2.947927 -16.175716 1.569 84 0 127
-2.874864 -16.212944 1.356 84 0 127
-3.005842 -16.146208 1.387 84 0 127
-2.895357 -16.202503 1.502 84 0 127
-3.003169 -16.14757 1.478 84 0 127
-3.053957 -16.121693 1.509 84 0 127
-2.920305 -16.189791 1.54 84 0 127
-2.990695 -16.153925 1.458 84 0 127
-2.9506 -16.174355 1.559 84 0 127
-2.898031 -16.201141 1.423 84 0 127
-2.890902 -16.204773 1.355 84 0 127
-2.944363 -16.177534 1.516 84 0 127
-3.019207 -16.139399 1.495 84 0 127
-2.885556 -16.207497 1.325 84 0 127
-2.991586 -16.153471 1.522 84 0 127
-2.841897 -16.229742 1.514 84 0 127
-3.001387 -16.148478 1.476 84 0 127
-2.897139 -16.201595 1.421 84 0 127
-2.88021 -16.21022 1.362 84 0 127
-2.970202 -16.164368 1.567 84 0 127
-3.09227 -16.102171 1.486 84 0 127
-2.882883 -16.208858 1.45 84 0 127
-3.019207 -16.139399 1.504 84 0 127
-3.094943 -16.100809 1.471 84 0 127
-2.964402 -16.166201 1.665 84 0 127
-2.924761 -16.187521 1.411 84 0 127
-2.93278 -16.183435 1.483 84 0 127
-3.027226 -16.135311 1.504 84 0 127
-2.859717 -16.220663 1.485 84 0 127
-3.033463 -16.132133 1.459 84 0 127
-2.948818 -16.175262 1.469 84 0 127
-2.844116 -16.227489 1.742 84 0 127
-2.965747 -16.166637 1.587 84 0 127
-2.896248 -16.202049 1.48 84 0 127
-3.051284 -16.123055 1.519 84 0 127
-3.011188 -16.143484 1.582 84 0 127
-2.937671 -16.179819 1.636 84 0 127
-3.078014 -16.109434 1.56 84 0 127
-2.974657 -16.162098 1.346 84 0 127
-2.845898 -16.226582 1.734 84 0 127
-2.939454 -16.178911 1.665 84 0 127
-3.041482 -16.128048 1.467 84 0 127
-3.091379 -16.102625 1.469 84 0 127
-2.917178 -16.190262 1.623 84 0 127
-2.942581 -16.178442 1.584 84 0 127
-3.011188 -16.143484 1.569 84 0 127
-3.099398 -16.098539 1.501 84 0 127
-3.060194 -16.118515 1.508 84 0 127
-2.888229 -16.206135 1.569 84 0 127
-2.873082 -16.213852 1.464 84 0 127
-2.979112 -16.159828 1.347 84 0 127
-2.870846 -16.213869 1.669 84 0 127
-3.019207 -16.139399 1.446 84 0 127
-2.994259 -16.152109 1.347 84 0 127
-2.954601 -16.171194 1.665 84 0 127
-2.973766 -16.162552 1.521 84 0 127
-3.03881 -16.12941 1.468 84 0 127
-2.953273 -16.172993 1.518 84 0 127
-3.006733 -16.145754 1.47 84 0 127
-3.060194 -16.118515 1.459 84 0 127
-2.958619 -16.170269 1.529 84 0 127
-3.034354 -16.13168 1.555 84 0 127
-2.948818 -16.175262 1.627 84 0 127
-3.094943 -16.100809 1.548 84 0 127
-3.122564 -16.086735 1.503 84 0 127
-3.029899 -16.133949 1.483 84 0 127
-2.93678 -16.180273 1.649 84 0 127
-2.858826 -16.221117 1.381 84 0 127
-3.047719 -16.12487 1.414 84 0 127
-3.045938 -16.125778 1.488 84 0 127
-2.902922 -16.197525 1.662 84 0 127
-2.955055 -16.172085 1.465 84 0 127
-2.98624 -16.156195 1.451 84 0 127
-2.916287 -16.190716 1.625 84 0 127
-3.080687 -16.108072 1.453 84 0 127
-2.822732 -16.238384 1.692 84 0 127
-2.92387 -16.187975 1.595 84 0 127
-2.978221 -16.160282 1.469 84 0 127
-2.850353 -16.224312 1.597 84 0 127
-3.023662 -16.137129 1.495 84 0 127
-2.866845 -16.21703 1.353 84 0 127
-3.000496 -16.148932 1.586 84 0 127
-2.820513 -16.240639 1.486 84 0 127
-2.862827 -16.217955 1.606 84 0 127
-2.922524 -16.187538 1.67 84 0 127
-2.823623 -16.23793 1.678 84 0 127
-3.017425 -16.140306 1.61 84 0 127
-2.900703 -16.19978 1.485 84 0 127
-3.070886 -16.113066 1.521 84 0 127
-2.925652 -16.187067 1.398 84 0 127
-2.93278 -16.183435 1.37 84 0 127
-3.075341 -16.110796 1.449 84 0 127
-2.890902 -16.204773 1.52 84 0 127
-2.907831 -16.196146 1.563 84 0 127
-2.908268 -16.194801 1.656 84 0 127
-2.904268 -16.197962 1.328 84 0 127
-2.910941 -16.193439 1.622 84 0 127
-2.937235 -16.181166 1.554 84 0 127
-2.901594 -16.199326 1.334 84 0 127
-2.855262 -16.222933 1.45 84 0 127
-2.818277 -16.240654 1.65 84 0 127
-2.846352 -16.227472 1.388 84 0 127
-3.017425 -16.140306 1.508 84 0 127
-2.810258 -16.24474 1.544 84 0 127
-2.90694 -16.1966 1.456 84 0 127
-2.832096 -16.234735 1.43 84 0 127
-2.911832 -16.192986 1.61 84 0 127
-2.971984 -16.16346 1.579 84 0 127
-3.046829 -16.125324 1.44 84 0 127
-2.952819 -16.172102 1.654 84 0 127
-2.829423 -16.236097 1.476 84 0 127
-2.90694 -16.1966 1.552 84 0 127
-2.840115 -16.23065 1.451 84 0 127
-3.075341 -16.110796 1.564 84 0 127
-2.963965 -16.167545 1.374 84 0 127
-3.03881 -16.12941 1.606 84 0 127
-3.076232 -16.110342 1.498 84 0 127
-3.003169 -16.14757 1.469 84 0 127
-2.938126 -16.180712 1.606 84 0 127
-2.881101 -16.209766 1.533 84 0 127
-2.845461 -16.227926 1.466 84 0 127
-3.01297 -16.142576 1.596 84 0 127
-2.868173 -16.215231 1.6 84 0 127
-2.867282 -16.215685 1.75 84 0 127
-3.046829 -16.125324 1.599 84 0 127
-2.962183 -16.168453 1.406 84 0 127
-2.906049 -16.197054 1.326 84 0 127
-2.929652 -16.183907 1.674 84 0 127
-2.940799 -16.17935 1.423 84 0 127
-2.813822 -16.242924 1.548 84 0 127
-2.945254 -16.177078 1.575 84 0 127
-3.079796 -16.108526 1.488 84 0 127
-2.839224 -16.231104 1.404 84 0 127
-2.796456 -16.252895 1.417 84 0 127
-2.978221 -16.160282 1.52 84 0 127
-2.933671 -16.182981 1.492 84 0 127
-2.989804 -16.154379 1.453 84 0 127
-3.059303 -16.118969 1.498 84 0 127
-2.962183 -16.168453 1.559 84 0 127
-2.943017 -16.177095 1.639 84 0 127
-3.079796 -16.108526 1.566 84 0 127
-2.864609 -16.217047 1.74 84 0 127
-2.940345 -16.178457 1.675 84 0 127
-3.029008 -16.134403 1.502 84 0 127
-2.960401 -16.169361 1.56 84 0 127
-2.939017 -16.180258 1.322 84 0 127
-3.080687 -16.108072 1.508 84 0 127
-3.091379 -16.102625 1.547 84 0 127
-2.855699 -16.221586 1.758 84 0 127
-2.989804 -16.154379 1.489 84 0 127
-3.012079 -16.14303 1.594 84 0 127
-2.934108 -16.181635 1.659 84 0 127
-2.996932 -16.150747 1.631 84 0 127
-2.992477 -16.153017 1.456 84 0 127
-2.983567 -16.157558 1.553 84 0 127
-2.980894 -16.15892 1.602 84 0 127
-2.925652 -16.187067 1.528 84 0 127
-2.922088 -16.188883 1.591 84 0 127
-2.848134 -16.226564 1.548 84 0 127
-2.898467 -16.199795 1.61 84 0 127
-2.894012 -16.202065 1.688 84 0 127
-2.925197 -16.186176 1.65 84 0 127
-2.948364 -16.174372 1.659 84 0 127
-2.845461 -16.227926 1.48 84 0 127
-2.877537 -16.211582 1.543 84 0 127
-2.94169 -16.178896 1.524 84 0 127
-2.891793 -16.204319 1.472 84 0 127
-2.831642 -16.233845 1.701 84 0 127
-2.934562 -16.182528 1.552 84 0 127
-3.033463 -16.132133 1.499 84 0 127
-2.974657 -16.162098 1.478 84 0 127
-2.914959 -16.192514 1.447 84 0 127
-2.978221 -16.160282 1.395 84 0 127
-2.91896 -16.189354 1.626 84 0 127
-2.903376 -16.198418 1.436 84 0 127
-3.024553 -16.136675 1.542 84 0 127
-2.887775 -16.205244 1.682 84 0 127
-2.908722 -16.195692 1.56 84 0 127
-3.09227 -16.102171 1.482 84 0 127
-3.050392 -16.123508 1.456 84 0 127
-2.969311 -16.164822 1.354 84 0 127
-2.972875 -16.163006 1.603 84 0 127
-2.934562 -16.182528 1.328 84 0 127
-3.037027 -16.130318 1.576 84 0 127
-2.981785 -16.158466 1.53 84 0 127
-2.921196 -16.189337 1.388 84 0 127
-3.020989 -16.138491 1.614 84 0 127
-3.019207 -16.139399 1.421 84 0 127
-3.028117 -16.134857 1.551 84 0 127
-2.955946 -16.171631 1.506 84 0 127
-2.999605 -16.149385 1.631 84 0 127
-2.940799 -16.17935 1.385 84 0 127
-2.915851 -16.19206 1.369 84 0 127
-3.018316 -16.139853 1.572 84 0 127
-3.03079 -16.133495 1.546 84 0 127
-2.836551 -16.232466 1.383 84 0 127
-2.859263 -16.21977 1.596 84 0 127
-2.894466 -16.202957 1.526 84 0 127
-2.989804 -16.154379 1.445 84 0 127
-2.855699 -16.221586 1.696 84 0 127
-3.002278 -16.148024 1.556 84 0 127
-2.957728 -16.170723 1.333 84 0 127
-2.883774 -16.208405 1.437 84 0 127
-2.852589 -16.224295 1.557 84 0 127
-2.911832 -16.192986 1.617 84 0 127
-2.895794 -16.201157 1.627 84 0 127
-2.822295 -16.239729 1.541 84 0 127
-3.085142 -16.105803 1.545 84 0 127
-2.869955 -16.214323 1.647 84 0 127
-3.037027 -16.130318 1.544 84 0 127
-2.969311 -16.164822 1.571 84 0 127
-2.851698 -16.224749 1.474 84 0 127
-3.037918 -16.129864 1.454 84 0 127
-3.037918 -16.129864 1.506 84 0 127
-2.974657 -16.162098 1.443 84 0 127
-2.955946 -16.171631 1.315 84 0 127
-2.929652 -16.183907 1.621 84 0 127
-2.916742 -16.191607 1.559 84 0 127
-2.98624 -16.156195 1.519 84 0 127
-3.023662 -16.137129 1.521 84 0 127
-2.898921 -16.200687 1.533 84 0 127
-2.894012 -16.202065 1.67 84 0 127
-2.993368 -16.152563 1.507 84 0 127
-2.820513 -16.240639 1.472 84 0 127
-2.980894 -16.15892 1.474 84 0 127
-2.949709 -16.174809 1.38 84 0 127
-2.998714 -16.149839 1.621 84 0 127
-2.914959 -16.192514 1.367 84 0 127
-2.881992 -16.209312 1.441 84 0 127
-2.825859 -16.237913 1.356 84 0 127
-3.042373 -16.127594 1.371 84 0 127
-2.891793 -16.204319 1.461 84 0 127
-2.996932 -16.150747 1.384 84 0 127
-2.969311 -16.164822 1.62 84 0 127
-2.96262 -16.167109 1.666 84 0 127
-3.043264 -16.12714 1.601 84 0 127
-2.984458 -16.157104 1.491 84 0 127
-3.104744 -16.095816 1.497 84 0 127
-3.086033 -16.105349 1.522 84 0 127
-3.057521 -16.119877 1.574 84 0 127
-3.024553 -16.136675 1.593 84 0 127
-2.98624 -16.156195 1.583 84 0 127
-2.888666 -16.20479 1.69 84 0 127
-2.972875 -16.163006 1.433 84 0 127
-2.890902 -16.204773 1.478 84 0 127
-2.874864 -16.212944 1.399 84 0 127
-3.055738 -16.120785 1.52 84 0 127
-2.898031 -16.201141 1.478 84 0 127
-2.845007 -16.227036 1.706 84 0 127
-2.935453 -16.182074 1.447 84 0 127
-3.132819 -16.082632 1.728 84 0 127
-3.006733 -16.145754 1.728 84 0 127
-2.97733 -16.160736 1.683 84 0 127
-3.008515 -16.144846 1.655 84 0 127
-3.006733 -16.145754 1.662 84 0 127
-3.032572 -16.132587 1.703 84 0 127
-3.138165 -16.079908 1.689 84 0 127
-3.075794 -16.111687 1.681 84 0 127
-3.03079 -16.133495 1.636 84 0 127
-3.078014 -16.109434 1.619 84 0 127
-3.045047 -16.126232 1.689 84 0 127
-3.079796 -16.108526 1.664 84 0 127
-2.974657 -16.162098 1.719 84 0 127
-3.089597 -16.103533 1.623 84 0 127
-3.034354 -16.13168 1.644 84 0 127
-3.046829 -16.125324 1.668 84 0 127
-3.155985 -16.070827 1.6 84 0 127
-3.153766 -16.073082 1.725 84 0 127
-3.01297 -16.142576 1.69 84 0 127
-2.988022 -16.155287 1.705 84 0 127
-3.020989 -16.138491 1.65 84 0 127
-3.029899 -16.133949 1.664 84 0 127
-3.103415 -16.097614 1.748 84 0 127
-3.103415 -16.097614 1.665 84 0 127
-3.02188 -16.138037 1.691 84 0 127
-3.01297 -16.142576 1.696 84 0 127
-3.055301 -16.122129 1.711 84 0 127
-3.089597 -16.103533 1.601 84 0 127
-3.081141 -16.108963 1.694 84 0 127
-3.012079 -16.14303 1.717 84 0 127
-3.069557 -16.114864 1.693 84 0 127
-3.104307 -16.09716 1.693 84 0 127
-3.033463 -16.132133 1.639 84 0 127
-3.050392 -16.123508 1.612 84 0 127
-3.100743 -16.098976 1.664 84 0 127
-3.082469 -16.107164 1.646 84 0 127
-3.029008 -16.134403 1.644 84 0 127
-2.994259 -16.152109 1.675 84 0 127
-2.948818 -16.175262 1.716 84 0 127
-3.120345 -16.088987 1.634 84 0 127
-3.067322 -16.114883 1.621 84 0 127
-3.012079 -16.14303 1.728 84 0 127
-3.08336 -16.10671 1.628 84 0 127
-3.089597 -16.103533 1.572 84 0 127
-2.961292 -16.168907 1.745 84 0 127
-3.114999 -16.091711 1.681 84 0 127
-3.1248 -16.086718 1.652 84 0 127
-3.1248 -16.086718 1.669 84 0 127
-3.069995 -16.11352 1.646 84 0 127
-2.931889 -16.183889 1.762 84 0 127
-3.001387 -16.148478 1.671 84 0 127
-3.066431 -16.115337 1.643 84 0 127
-2.942581 -16.178442 1.733 84 0 127
-3.018316 -16.139853 1.702 84 0 127
-2.983567 -16.157558 1.662 84 0 127
-2.956837 -16.171177 1.692 84 0 127
-3.074904 -16.112141 1.692 84 0 127
-3.06554 -16.115791 1.628 84 0 127
-3.117672 -16.090349 1.711 84 0 127
-3.095834 -16.100355 1.568 84 0 127
-3.042827 -16.128485 1.732 84 0 127
-2.896685 -16.200703 1.747 84 0 127
-3.009406 -16.144392 1.665 84 0 127
-3.140401 -16.079891 1.751 84 0 127
-3.094506 -16.102154 1.674 84 0 127
-3.064649 -16.116245 1.593 84 0 127
-3.049501 -16.123962 1.675 84 0 127
-3.121236 -16.088533 1.659 84 0 127
-2.989804 -16.154379 1.668 84 0 127
-3.032572 -16.132587 1.624 84 0 127
-3.068213 -16.114428 1.677 84 0 127
-3.131037 -16.08354 1.71 84 0 127
-3.068213 -16.114428 1.61 84 0 127
-3.082031 -16.108509 1.768 84 0 127
-3.003169 -16.14757 1.656 84 0 127
-3.122564 -16.086735 1.6 84 0 127
-2.9506 -16.174355 1.712 84 0 127
-3.043718 -16.128031 1.741 84 0 127
-3.087815 -16.104441 1.655 84 0 127
-3.029899 -16.133949 1.675 84 0 127
-3.078905 -16.10898 1.59 84 0 127
-3.013861 -16.142122 1.689 84 0 127
-3.091379 -16.102625 1.604 84 0 127
-3.089159 -16.104877 1.728 84 0 127
-3.092724 -16.103062 1.698 84 0 127
-3.094506 -16.102154 1.666 84 0 127
-3.139947 -16.079 1.692 84 0 127
-3.043718 -16.128031 1.733 84 0 127
-3.01297 -16.142576 1.639 84 0 127
-3.112326 -16.093073 1.67 84 0 127
-2.880647 -16.208876 1.744 84 0 127
-3.122127 -16.088079 1.651 84 0 127
-3.044155 -16.126686 1.652 84 0 127
-3.093615 -16.102608 1.656 84 0 127
-3.154203 -16.071735 1.645 84 0 127
-2.993368 -16.152563 1.667 84 0 127
-3.039701 -16.128956 1.672 84 0 127
-3.088706 -16.103987 1.609 84 0 127
-3.061975 -16.117607 1.675 84 0 127
-3.019207 -16.139399 1.654 84 0 127
-2.946582 -16.17528 1.687 84 0 127
-3.040591 -16.128502 1.708 84 0 127
-3.104307 -16.09716 1.682 84 0 127
-3.060194 -16.118515 1.67 84 0 127
-3.151093 -16.074444 1.725 84 0 127
-3.080687 -16.108072 1.65 84 0 127
-3.027226 -16.135311 1.644 84 0 127
-2.92387 -16.187975 1.743 84 0 127
-3.016534 -16.14076 1.692 84 0 127
-3.058412 -16.119423 1.599 84 0 127
-3.155985 -16.070827 1.689 84 0 127
-2.946145 -16.176624 1.76 84 0 127
-3.040591 -16.128502 1.699 84 0 127
-2.907377 -16.195255 1.724 84 0 127
-3.001387 -16.148478 1.735 84 0 127
-3.152875 -16.073536 1.769 84 0 127
-3.121673 -16.087189 1.611 84 0 127
-3.080687 -16.108072 1.634 84 0 127
-2.964856 -16.167091 1.723 84 0 127
-3.019207 -16.139399 1.642 84 0 127
-3.117672 -16.090349 1.648 84 0 127
-3.099852 -16.09943 1.681 84 0 127
-3.074012 -16.112595 1.685 84 0 127
-3.102525 -16.098068 1.767 84 0 127
-3.104744 -16.095816 1.598 84 0 127
-3.035245 -16.131226 1.639 84 0 127
-3.083813 -16.107601 1.673 84 0 127
-3.009406 -16.144392 1.694 84 0 127
-3.012079 -16.14303 1.668 84 0 127
-3.037918 -16.129864 1.68 84 0 127
-3.051284 -16.123055 1.679 84 0 127
-2.955946 -16.171631 1.734 84 0 127
-3.09227 -16.102171 1.632 84 0 127
-3.039701 -16.128956 1.702 84 0 127
-3.008515 -16.144846 1.655 84 0 127
-3.164004 -16.066742 1.677 84 0 127
-3.003169 -16.14757 1.75 84 0 127
-3.107871 -16.095343 1.687 84 0 127
-3.119 -16.088551 1.582 84 0 127
-3.057084 -16.121222 1.718 84 0 127
-3.032572 -16.132587 1.637 84 0 127
-3.136383 -16.080816 1.672 84 0 127
-3.010297 -16.143938 1.667 84 0 127
-3.026335 -16.135767 1.698 84 0 127
-2.948818 -16.175262 1.726 84 0 127
-3.041482 -16.128048 1.704 84 0 127
-2.899812 -16.200233 1.767 84 0 127
-3.081578 -16.107618 1.634 84 0 127
-3.064649 -16.116245 1.594 84 0 127
-3.018316 -16.139853 1.642 84 0 127
-3.086924 -16.104895 1.611 84 0 127
-3.176041 -16.061731 1.72 84 0 127
-3.110544 -16.093981 1.728 84 0 127
-3.071777 -16.112612 1.6 84 0 127
-3.023662 -16.137129 1.636 84 0 127
-3.072668 -16.112158 1.601 84 0 127
-3.177369 -16.059933 1.674 84 0 127
-3.176478 -16.060387 1.676 84 0 127
-3.040591 -16.128502 1.704 84 0 127
-3.097616 -16.099447 1.615 84 0 127
-3.119 -16.088551 1.548 84 0 127
-3.151984 -16.07399 1.756 84 0 127
-3.086487 -16.106239 1.676 84 0 127
-3.09005 -16.104424 1.685 84 0 127
-2.952819 -16.172102 1.686 84 0 127
-3.137274 -16.080362 1.705 84 0 127
-3.01297 -16.142576 1.663 84 0 127
-3.128364 -16.084902 1.623 84 0 127
-2.960838 -16.168016 1.685 84 0 127
-3.114108 -16.092165 1.722 84 0 127
-3.017425 -16.140306 1.651 84 0 127
-3.107417 -16.094454 1.615 84 0 127
-3.119454 -16.089441 1.697 84 0 127
-3.122127 -16.088079 1.643 84 0 127
-3.1248 -16.086718 1.672 84 0 127
-3.085142 -16.105803 1.614 84 0 127
-2.935889 -16.180727 1.7 84 0 127
-3.058412 -16.119423 1.602 84 0 127
-3.171586 -16.064001 1.718 84 0 127
-3.110544 -16.093981 1.681 84 0 127
-2.993368 -16.152563 1.719 84 0 127
-3.064211 -16.11759 1.694 84 0 127
-3.040591 -16.128502 1.62 84 0 127
-3.010297 -16.143938 1.68 84 0 127
-2.944363 -16.177534 1.719 84 0 127
-3.103853 -16.09627 1.598 84 0 127
-3.070886 -16.113066 1.674 84 0 127
-3.092724 -16.103062 1.719 84 0 127
-3.095397 -16.1017 1.684 84 0 127
-3.167568 -16.064926 1.648 84 0 127
-3.047282 -16.126215 1.749 84 0 127
-3.077123 -16.109888 1.592 84 0 127
-3.061975 -16.117607 1.624 84 0 127
-3.106089 -16.096252 1.691 84 0 127
-2.979112 -16.159828 1.695 84 0 127
-2.922524 -16.187538 1.717 84 0 127
-3.107871 -16.095343 1.691 84 0 127
-2.955492 -16.17074 1.691 84 0 127
-2.95371 -16.171648 1.688 84 0 127
-3.173368 -16.063093 1.715 84 0 127
-3.014752 -16.141668 1.658 84 0 127
-3.118563 -16.089895 1.729 84 0 127
-3.094943 -16.100809 1.588 84 0 127
-2.996932 -16.150747 1.693 84 0 127
-3.044155 -16.126686 1.63 84 0 127
-2.935453 -16.182074 1.75 84 0 127
