ply
format ascii 1.0
element vertex 1377
property double x
property double y
property double z
property uchar red
property uchar green
property uchar blue
element face 0
property list uchar int vertex_indices
end_header
-4.841112 -12.179688 0.181 84 84 0
-5.045624 -12.078851 0.316 84 84 0
-4.855368 -12.172424 0.287 84 84 0
-4.819274 -12.189692 0.291 84 84 0
-4.842003 -12.179234 0.256 84 84 0
-4.914175 -12.142461 0.384 84 84 0
-4.832639 -12.182882 0.278 84 84 0
-4.93334 -12.133818 0.256 84 84 0
-5.04875 -12.07838 0.191 84 84 0
-4.817946 -12.191491 0.13 84 84 0
-4.804127 -12.19741 0.239 84 84 0
-4.775178 -12.213283 0.057 84 84 0
-5.032259 -12.085661 0.377 84 84 0
-5.045624 -12.078851 0.297 84 84 0
-5.001056 -12.099314 0.48 84 84 0
-4.978361 -12.114245 0.103 84 84 0
-4.902592 -12.148362 0.358 84 84 0
-5.009529 -12.09612 0.453 84 84 0
-5.023802 -12.091091 0.208 84 84 0
-4.907955 -12.147874 0.098 84 84 0
-4.989927 -12.106107 0.38 84 84 0
-4.979672 -12.110209 0.482 84 84 0
-5.061679 -12.072915 0.131 84 84 0
-5.022003 -12.089764 0.493 84 84 0
-4.929322 -12.134743 0.442 84 84 0
-4.688733 -12.255084 0.05 84 84 0
-5.054551 -12.076547 0.065 84 84 0
-4.75734 -12.220127 0.213 84 84 0
-4.919538 -12.141973 0.189 84 84 0
-4.824183 -12.188313 0.091 84 84 0
-4.99529 -12.105619 0.053 84 84 0
-4.989927 -12.106107 0.287 84 84 0
-4.984127 -12.10794 0.468 84 84 0
-4.741302 -12.228299 0.13 84 84 0
-4.838876 -12.179705 0.334 84 84 0
-4.694079 -12.25236 0.107 84 84 0
-4.756904 -12.221472 0.138 84 84 0
-4.990818 -12.105653 0.393 84 84 0
-4.790761 -12.20422 0.232 84 84 0
-5.03984 -12.08292 0.256 84 84 0
-4.967652 -12.117457 0.211 84 84 0
-5.004183 -12.098844 0.429 84 84 0
-5.018456 -12.093816 0.171 84 84 0
-5.001947 -12.09886 0.556 84 84 0
-4.903045 -12.149253 0.256 84 84 0
-4.934685 -12.134254 0.152 84 84 0
-4.924867 -12.137012 0.45 84 84 0
-4.915974 -12.143788 0.07 84 84 0
-4.920429 -12.141519 0.119 84 84 0
-4.913737 -12.143806 0.232 84 84 0
-5.005075 -12.09839 0.439 84 84 0
-5.054987 -12.075202 0.198 84 84 0
-5.045624 -12.078851 0.324 84 84 0
-5.043405 -12.081103 0.199 84 84 0
-5.005982 -12.100171 0.084 84 84 0
-4.848677 -12.17471 0.335 84 84 0
-4.906172 -12.148783 0.05 84 84 0
-4.932012 -12.135616 0.232 84 84 0
-5.029149 -12.088367 0.146 84 84 0
-4.962743 -12.118835 0.418 84 84 0
-4.876752 -12.161529 0.256 84 84 0
-4.959633 -12.121543 0.189 84 84 0
-4.876315 -12.162872 0.159 84 84 0
-4.876315 -12.162872 0.099 84 84 0
-4.894589 -12.154684 0.135 84 84 0
-4.773396 -12.214191 0.065 84 84 0
-4.876315 -12.162872 0.223 84 84 0
-4.711899 -12.24328 0.132 84 84 0
-5.042968 -12.082449 0.139 84 84 0
-4.999291 -12.102459 0.192 84 84 0
-4.988145 -12.107016 0.383 84 84 0
-4.852258 -12.175131 0.046 84 84 0
-4.790308 -12.203329 0.261 84 84 0
-4.898153 -12.152868 0.08 84 84 0
-4.762249 -12.218747 0.166 84 84 0
-4.913284 -12.142915 0.402 84 84 0
-4.841549 -12.178343 0.284 84 84 0
-4.960978 -12.121981 0.115 84 84 0
-4.865623 -12.168321 0.183 84 84 0
-4.840221 -12.180141 0.227 84 84 0
-5.003729 -12.097952 0.448 84 84 0
-5.011312 -12.095211 0.346 84 84 0
-4.851367 -12.175585 0.057 84 84 0
-4.830857 -12.18379 0.285 84 84 0
-5.019784 -12.092017 0.222 84 84 0
-4.837548 -12.181503 0.198 84 84 0
-5.016221 -12.093833 0.319 84 84 0
-4.997072 -12.104712 0.055 84 84 0
-4.783634 -12.207851 0.183 84 84 0
-4.933794 -12.134708 0.166 84 84 0
-4.719028 -12.239649 0.144 84 84 0
-4.9075 -12.146983 0.187 84 84 0
-5.017112 -12.093379 0.288 84 84 0
-4.815273 -12.192854 0.096 84 84 0
-4.924867 -12.137012 0.386 84 84 0
-4.909737 -12.146966 0.161 84 84 0
-4.651748 -12.272806 0.048 84 84 0
-4.956943 -12.120669 0.493 84 84 0
-5.012202 -12.094757 0.45 84 84 0
-5.003292 -12.099298 0.338 84 84 0
-4.932448 -12.134272 0.27 84 84 0
-4.724373 -12.236924 0.118 84 84 0
-4.955161 -12.121577 0.454 84 84 0
-4.947613 -12.12879 0.081 84 84 0
-4.991709 -12.105199 0.334 84 84 0
-4.723483 -12.237379 0.161 84 84 0
-4.924429 -12.138357 0.348 84 84 0
-4.813928 -12.192416 0.205 84 84 0
-4.882099 -12.158804 0.311 84 84 0
-4.705662 -12.246458 0.133 84 84 0
-4.847786 -12.175164 0.323 84 84 0
-5.000619 -12.100659 0.331 84 84 0
-4.693188 -12.252814 0.095 84 84 0
-5.017565 -12.09427 0.198 84 84 0
-4.707444 -12.24555 0.138 84 84 0
-4.858932 -12.170608 0.216 84 84 0
-4.833547 -12.184664 0.073 84 84 0
-4.862933 -12.167447 0.35 84 84 0
-4.899481 -12.151069 0.233 84 84 0
-4.95385 -12.125612 0.129 84 84 0
-4.874096 -12.165126 0.082 84 84 0
-4.98369 -12.109285 0.357 84 84 0
-4.953379 -12.122485 0.486 84 84 0
-4.932448 -12.134272 0.296 84 84 0
-4.791653 -12.203766 0.23 84 84 0
-4.858932 -12.170608 0.184 84 84 0
-5.001965 -12.101097 0.176 84 84 0
-4.823729 -12.187422 0.253 84 84 0
-4.978798 -12.112901 0.237 84 84 0
-4.926649 -12.136105 0.43 84 84 0
-4.973452 -12.115624 0.129 84 84 0
-5.042077 -12.082903 0.14 84 84 0
-4.911955 -12.144713 0.23 84 84 0
-4.804127 -12.19741 0.214 84 84 0
-4.937358 -12.132893 0.181 84 84 0
-4.893699 -12.155138 0.138 84 84 0
-4.957834 -12.120215 0.471 84 84 0
-4.917756 -12.14288 0.074 84 84 0
-4.743084 -12.227391 0.152 84 84 0
-4.81571 -12.191508 0.281 84 84 0
-4.881661 -12.160149 0.159 84 84 0
-4.782743 -12.208305 0.213 84 84 0
-4.756904 -12.221472 0.113 84 84 0
-4.94494 -12.130152 0.077 84 84 0
-4.766705 -12.216477 0.108 84 84 0
-4.963197 -12.119727 0.27 84 84 0
-4.702989 -12.247821 0.101 84 84 0
-5.033166 -12.087443 0.068 84 84 0
-4.898591 -12.151523 0.251 84 84 0
-4.883881 -12.157896 0.281 84 84 0
-4.839767 -12.179251 0.335 84 84 0
-5.055442 -12.076093 0.182 84 84 0
-4.782289 -12.207416 0.251 84 84 0
-5.053205 -12.07611 0.181 84 84 0
-5.03626 -12.0825 0.443 84 84 0
-4.840658 -12.178797 0.334 84 84 0
-5.007764 -12.099263 0.073 84 84 0
-4.94805 -12.127445 0.165 84 84 0
-4.724827 -12.237815 0.061 84 84 0
-4.8126 -12.194216 0.064 84 84 0
-4.832639 -12.182882 0.31 84 84 0
-4.68606 -12.256446 0.049 84 84 0
-4.873205 -12.16558 0.078 84 84 0
-4.970762 -12.11475 0.44 84 84 0
-4.822401 -12.189221 0.135 84 84 0
-5.034478 -12.083407 0.495 84 84 0
-4.966761 -12.117911 0.309 84 84 0
-4.870078 -12.166051 0.15 84 84 0
-4.939577 -12.130639 0.286 84 84 0
-4.833984 -12.18332 0.139 84 84 0
-4.84824 -12.176056 0.194 84 84 0
-4.845113 -12.176526 0.337 84 84 0
-4.93334 -12.133818 0.291 84 84 0
-4.820165 -12.189239 0.224 84 84 0
-4.813928 -12.192416 0.276 84 84 0
-4.913737 -12.143806 0.251 84 84 0
-4.992146 -12.103854 0.474 84 84 0
-4.71279 -12.242826 0.094 84 84 0
-5.033166 -12.087443 0.078 84 84 0
-4.904374 -12.147454 0.426 84 84 0
-4.786307 -12.20649 0.175 84 84 0
-4.962289 -12.117945 0.466 84 84 0
-5.002838 -12.098406 0.51 84 84 0
-5.006856 -12.097482 0.429 84 84 0
-4.917756 -12.14288 0.191 84 84 0
-4.900373 -12.150615 0.232 84 84 0
-4.993054 -12.105637 0.208 84 84 0
-5.005982 -12.100171 0.117 84 84 0
-5.021566 -12.091109 0.228 84 84 0
-5.008184 -12.095682 0.494 84 84 0
-5.038058 -12.083828 0.2 84 84 0
-5.013547 -12.095195 0.215 84 84 0
-4.831765 -12.185573 0.08 84 84 0
-4.801908 -12.199663 0.149 84 84 0
-4.836203 -12.181067 0.254 84 84 0
-4.983236 -12.108394 0.515 84 84 0
-4.96007 -12.120197 0.424 84 84 0
-4.996164 -12.102929 0.418 84 84 0
-4.95385 -12.125612 0.065 84 84 0
-5.041605 -12.079776 0.523 84 84 0
-5.017112 -12.093379 0.301 84 84 0
-5.038058 -12.083828 0.235 84 84 0
-4.660658 -12.268267 0.066 84 84 0
-5.013093 -12.094303 0.389 84 84 0
-5.01042 -12.095665 0.419 84 84 0
-5.042968 -12.082449 0.135 84 84 0
-5.039824 -12.080684 0.429 84 84 0
-4.817946 -12.191491 0.126 84 84 0
-4.906172 -12.148783 0.155 84 84 0
-4.923993 -12.139703 0.17 84 84 0
-4.9984 -12.102913 0.226 84 84 0
-4.759576 -12.22011 0.132 84 84 0
-4.951614 -12.125628 0.276 84 84 0
-5.01311 -12.096539 0.131 84 84 0
-4.980126 -12.111101 0.253 84 84 0
-5.039824 -12.080684 0.513 84 84 0
-4.994836 -12.104729 0.224 84 84 0
-4.874516 -12.161545 0.366 84 84 0
-4.923993 -12.139703 0.208 84 84 0
-4.887007 -12.157425 0.188 84 84 0
-4.724373 -12.236924 0.122 84 84 0
-5.028677 -12.08524 0.517 84 84 0
-4.975671 -12.113371 0.332 84 84 0
-5.051424 -12.077018 0.226 84 84 0
-4.982799 -12.109739 0.35 84 84 0
-5.033132 -12.082971 0.581 84 84 0
-4.832656 -12.185118 0.057 84 84 0
-4.94805 -12.127445 0.172 84 84 0
-5.000182 -12.102005 0.241 84 84 0
-5.006856 -12.097482 0.368 84 84 0
-4.822401 -12.189221 0.189 84 84 0
-4.890118 -12.154718 0.34 84 84 0
-4.887444 -12.15608 0.296 84 84 0
-4.685169 -12.2569 0.059 84 84 0
-5.019331 -12.091125 0.418 84 84 0
-4.699425 -12.249637 0.068 84 84 0
-4.914192 -12.144696 0.082 84 84 0
-4.98369 -12.109285 0.26 84 84 0
-5.015329 -12.094287 0.213 84 84 0
-4.675805 -12.260549 0.093 84 84 0
-5.028257 -12.088821 0.188 84 84 0
-4.847349 -12.17651 0.161 84 84 0
-4.922647 -12.139265 0.238 84 84 0
-4.937795 -12.131547 0.338 84 84 0
-5.022474 -12.092891 0.045 84 84 0
-4.837985 -12.180159 0.297 84 84 0
-5.050987 -12.078363 0.116 84 84 0
-4.77116 -12.214208 0.131 84 84 0
-5.051877 -12.077909 0.137 84 84 0
-4.728828 -12.234654 0.148 84 84 0
-4.836657 -12.181957 0.177 84 84 0
-5.042968 -12.082449 0.091 84 84 0
-4.772488 -12.212409 0.21 84 84 0
-4.846458 -12.176964 0.184 84 84 0
-4.980563 -12.109756 0.497 84 84 0
-4.773396 -12.214191 0.046 84 84 0
-4.916831 -12.138863 0.505 84 84 0
-4.764434 -12.212023 0.371 84 84 0
-4.782726 -12.20607 0.315 84 84 0
-4.871826 -12.160671 0.467 84 84 0
-4.979218 -12.10932 0.53 84 84 0
-4.769797 -12.211535 0.316 84 84 0
-4.841061 -12.172979 0.514 84 84 0
-4.746194 -12.224684 0.238 84 84 0
-4.793872 -12.201513 0.281 84 84 0
-4.788072 -12.203346 0.307 84 84 0
-4.711865 -12.238808 0.295 84 84 0
-4.95469 -12.11845 0.589 84 84 0
-4.7778 -12.205213 0.389 84 84 0
-4.77869 -12.204759 0.411 84 84 0
-4.93376 -12.130237 0.535 84 84 0
-4.872229 -12.154854 0.623 84 84 0
-4.918579 -12.133482 0.653 84 84 0
-4.706519 -12.241531 0.265 84 84 0
-4.835295 -12.179284 0.383 84 84 0
-4.850442 -12.171567 0.43 84 84 0
-4.643274 -12.276001 0.097 84 84 0
-4.781784 -12.199817 0.498 84 84 0
-4.943107 -12.124352 0.585 84 84 0
-4.835749 -12.180176 0.352 84 84 0
-4.811675 -12.190197 0.385 84 84 0
-4.958254 -12.116633 0.594 84 84 0
-4.84017 -12.173433 0.519 84 84 0
-4.774673 -12.205684 0.416 84 84 0
-4.83975 -12.177014 0.4 84 84 0
-4.951143 -12.122501 0.519 84 84 0
-4.925741 -12.134323 0.508 84 84 0
-4.88203 -12.149859 0.645 84 84 0
-4.742613 -12.224263 0.315 84 84 0
-4.710537 -12.240607 0.237 84 84 0
-4.63882 -12.278271 0.086 84 84 0
-4.731047 -12.232402 0.23 84 84 0
-4.93687 -12.127529 0.56 84 84 0
-4.644603 -12.274202 0.131 84 84 0
-4.931961 -12.128908 0.6 84 84 0
-4.835261 -12.174812 0.526 84 84 0
-4.825006 -12.178915 0.553 84 84 0
-4.906559 -12.140729 0.577 84 84 0
-4.82857 -12.177099 0.549 84 84 0
-4.897194 -12.144378 0.617 84 84 0
-4.714101 -12.238791 0.25 84 84 0
-4.750632 -12.220178 0.309 84 84 0
-4.89632 -12.147068 0.548 84 84 0
-4.912342 -12.13666 0.649 84 84 0
-4.625454 -12.285081 0.061 84 84 0
-4.73636 -12.225205 0.354 84 84 0
-4.965853 -12.116129 0.527 84 84 0
-4.90476 -12.139401 0.661 84 84 0
-4.999274 -12.100222 0.556 84 84 0
-4.787164 -12.201564 0.396 84 84 0
-4.732392 -12.232839 0.202 84 84 0
-4.767142 -12.215133 0.263 84 84 0
-4.791585 -12.194822 0.525 84 84 0
-4.788946 -12.200656 0.394 84 84 0
-4.91014 -12.14115 0.524 84 84 0
-4.827225 -12.176662 0.597 84 84 0
-4.853552 -12.168859 0.459 84 84 0
-4.789417 -12.203783 0.284 84 84 0
-4.779128 -12.203414 0.426 84 84 0
-4.735468 -12.225659 0.348 84 84 0
-4.916813 -12.136626 0.559 84 84 0
-4.837077 -12.178376 0.391 84 84 0
-4.7894 -12.201547 0.368 84 84 0
-4.928834 -12.129379 0.614 84 84 0
-4.952017 -12.119812 0.61 84 84 0
-4.686497 -12.255101 0.149 84 84 0
-4.880686 -12.149424 0.667 84 84 0
-4.750649 -12.222414 0.251 84 84 0
-4.681571 -12.254244 0.223 84 84 0
-4.800949 -12.191173 0.51 84 84 0
-4.996584 -12.099348 0.618 84 84 0
-4.791148 -12.196167 0.495 84 84 0
-4.81344 -12.187053 0.464 84 84 0
-4.819677 -12.183875 0.484 84 84 0
-4.857099 -12.164807 0.538 84 84 0
-4.808128 -12.194249 0.318 84 84 0
-4.711445 -12.242389 0.189 84 84 0
-4.983673 -12.107049 0.552 84 84 0
-4.672241 -12.262364 0.131 84 84 0
-4.767561 -12.211552 0.344 84 84 0
-4.897666 -12.147505 0.51 84 84 0
-4.767091 -12.208425 0.435 84 84 0
-4.958271 -12.11887 0.544 84 84 0
-4.761778 -12.21562 0.295 84 84 0
-4.787164 -12.201564 0.399 84 84 0
-4.892336 -12.152465 0.417 84 84 0
-4.729685 -12.229728 0.317 84 84 0
-4.811204 -12.187071 0.502 84 84 0
-4.845096 -12.174291 0.407 84 84 0
-4.881156 -12.15255 0.577 84 84 0
-4.833076 -12.181538 0.354 84 84 0
-4.854409 -12.163934 0.597 84 84 0
-4.747068 -12.221993 0.323 84 84 0
-4.926178 -12.132977 0.548 84 84 0
-4.85261 -12.162605 0.673 84 84 0
-4.789417 -12.203783 0.299 84 84 0
-4.860226 -12.164337 0.493 84 84 0
-4.996147 -12.100694 0.554 84 84 0
-4.970745 -12.112514 0.569 84 84 0
-4.657968 -12.267393 0.166 84 84 0
-4.887393 -12.149372 0.602 84 84 0
-4.753726 -12.215235 0.423 84 84 0
-4.710537 -12.240607 0.252 84 84 0
-4.79209 -12.202421 0.283 84 84 0
-4.717665 -12.236976 0.275 84 84 0
-4.80495 -12.188012 0.558 84 84 0
-4.858007 -12.16659 0.467 84 84 0
-4.641947 -12.277801 0.082 84 84 0
-4.887831 -12.148027 0.612 84 84 0
-4.883863 -12.155661 0.454 84 84 0
-4.835715 -12.175703 0.511 84 84 0
-4.80453 -12.191593 0.439 84 84 0
-4.683807 -12.254227 0.194 84 84 0
-4.919487 -12.135264 0.578 84 84 0
-4.728357 -12.231527 0.281 84 84 0
-4.872734 -12.162453 0.389 84 84 0
-4.960036 -12.115726 0.599 84 84 0
-4.812078 -12.184381 0.554 84 84 0
-4.698517 -12.247853 0.188 84 84 0
-4.844222 -12.17698 0.35 84 84 0
-4.946234 -12.123881 0.567 84 84 0
-4.767545 -12.209316 0.405 84 84 0
-4.828604 -12.181571 0.405 84 84 0
-4.832134 -12.175283 0.567 84 84 0
-4.811204 -12.187071 0.504 84 84 0
-4.858428 -12.163009 0.562 84 84 0
-4.813003 -12.188398 0.438 84 84 0
-4.913233 -12.136206 0.624 84 84 0
-4.824115 -12.179369 0.545 84 84 0
-4.889647 -12.151591 0.474 84 84 0
-4.784053 -12.20427 0.343 84 84 0
-4.720338 -12.235614 0.274 84 84 0
-4.941779 -12.126151 0.531 84 84 0
-4.739957 -12.227861 0.239 84 84 0
-4.741268 -12.223826 0.336 84 84 0
-4.854426 -12.166169 0.548 84 84 0
-4.845936 -12.167129 0.617 84 84 0
-4.870028 -12.159343 0.52 84 84 0
-4.722557 -12.23336 0.292 84 84 0
-4.850845 -12.16575 0.589 84 84 0
-4.749724 -12.218396 0.389 84 84 0
-4.772034 -12.211517 0.287 84 84 0
-4.704737 -12.24244 0.29 84 84 0
-4.924396 -12.133885 0.538 84 84 0
-4.971199 -12.113405 0.529 84 84 0
-4.82815 -12.18068 0.463 84 84 0
-4.919066 -12.138845 0.46 84 84 0
-5.023331 -12.087964 0.596 84 84 0
-4.865572 -12.161613 0.506 84 84 0
-4.919066 -12.138845 0.478 84 84 0
-4.954707 -12.120686 0.52 84 84 0
-4.770218 -12.207954 0.428 84 84 0
-4.68337 -12.255571 0.164 84 84 0
-4.728357 -12.231527 0.274 84 84 0
-4.862428 -12.159847 0.625 84 84 0
-4.795603 -12.193897 0.503 84 84 0
-4.916797 -12.13439 0.645 84 84 0
-4.816096 -12.183455 0.528 84 84 0
-4.659767 -12.268721 0.108 84 84 0
-4.741723 -12.224717 0.301 84 84 0
-4.865084 -12.15625 0.676 84 84 0
-4.978764 -12.108428 0.567 84 84 0
-4.808111 -12.192013 0.382 84 84 0
-4.900758 -12.142562 0.609 84 84 0
-4.748413 -12.22243 0.287 84 84 0
-4.890554 -12.153373 0.414 84 84 0
-4.701173 -12.244256 0.257 84 84 0
-4.90703 -12.143857 0.483 84 84 0
-4.85757 -12.167934 0.42 84 84 0
-4.83395 -12.178847 0.433 84 84 0
-4.850845 -12.16575 0.592 84 84 0
-4.699391 -12.245164 0.265 84 84 0
-4.914158 -12.140224 0.482 84 84 0
-4.846861 -12.171146 0.483 84 84 0
-4.815256 -12.190618 0.327 84 84 0
-4.684715 -12.256009 0.136 84 84 0
-4.926615 -12.131632 0.584 84 84 0
-4.948033 -12.125209 0.499 84 84 0
-4.933289 -12.12711 0.644 84 84 0
-4.801874 -12.19519 0.381 84 84 0
-4.905213 -12.140292 0.61 84 84 0
-4.693154 -12.248342 0.243 84 84 0
-4.863353 -12.163865 0.491 84 84 0
-4.910157 -12.143385 0.465 84 84 0
-4.687371 -12.252411 0.227 84 84 0
-4.76087 -12.213839 0.369 84 84 0
-4.912358 -12.138896 0.576 84 84 0
-4.750178 -12.219286 0.356 84 84 0
-4.918125 -12.132591 0.662 84 84 0
-4.86063 -12.15852 0.687 84 84 0
-4.839699 -12.170307 0.595 84 84 0
-4.947562 -12.122082 0.599 84 84 0
-4.747522 -12.222884 0.282 84 84 0
-4.821879 -12.179387 0.576 84 84 0
-4.702518 -12.244693 0.252 84 84 0
-4.909232 -12.139367 0.58 84 84 0
-4.828587 -12.179336 0.491 84 84 0
-4.83126 -12.177973 0.505 84 84 0
-4.887428 -12.153845 0.454 84 84 0
-4.891445 -12.152919 0.436 84 84 0
-4.698971 -12.248745 0.174 84 84 0
-4.755541 -12.218799 0.299 84 84 0
-4.830789 -12.174847 0.598 84 84 0
-4.771109 -12.2075 0.43 84 84 0
-4.914124 -12.135752 0.65 84 84 0
-4.782238 -12.200706 0.479 84 84 0
-4.7778 -12.205213 0.391 84 84 0
-4.85488 -12.167061 0.491 84 84 0
-4.869573 -12.158452 0.564 84 84 0
-4.759105 -12.216982 0.316 84 84 0
-4.910123 -12.138913 0.608 84 84 0
-4.715883 -12.237884 0.251 84 84 0
-4.961818 -12.114818 0.614 84 84 0
-4.870499 -12.16247 0.425 84 84 0
-4.637037 -12.279179 0.1 84 84 0
-4.873609 -12.159762 0.476 84 84 0
-4.875357 -12.154383 0.617 84 84 0
-4.863353 -12.163865 0.482 84 84 0
-4.979655 -12.107974 0.585 84 84 0
-4.891849 -12.147101 0.584 84 84 0
-4.819257 -12.187456 0.377 84 84 0
-4.661549 -12.267813 0.109 84 84 0
-4.792964 -12.199731 0.355 84 84 0
-4.641492 -12.276909 0.1 84 84 0
-4.670896 -12.261928 0.151 84 84 0
-4.924832 -12.13254 0.587 84 84 0
-4.898086 -12.143924 0.6 84 84 0
-4.89854 -12.144815 0.561 84 84 0
-4.760014 -12.218765 0.239 84 84 0
-4.6985 -12.245618 0.274 84 84 0
-4.799655 -12.197444 0.351 84 84 0
-4.927505 -12.131178 0.582 84 84 0
-5.005494 -12.094809 0.61 84 84 0
-4.909686 -12.140258 0.569 84 84 0
-4.738175 -12.228769 0.233 84 84 0
-4.784019 -12.199799 0.493 84 84 0
-4.790711 -12.197513 0.468 84 84 0
-4.81302 -12.190634 0.362 84 84 0
-4.934197 -12.128892 0.572 84 84 0
-4.886502 -12.149826 0.584 84 84 0
-4.884284 -12.152079 0.555 84 84 0
-4.741268 -12.223826 0.331 84 84 0
-4.943981 -12.121662 0.643 84 84 0
-4.832572 -12.173939 0.588 84 84 0
-4.715009 -12.240573 0.189 84 84 0
-4.855317 -12.165715 0.537 84 84 0
-4.780019 -12.20296 0.455 84 84 0
-4.731921 -12.229712 0.303 84 84 0
-4.821022 -12.184313 0.456 84 84 0
-4.962289 -12.117945 0.51 84 84 0
-4.989456 -12.10298 0.578 84 84 0
-4.77511 -12.204339 0.474 84 84 0
-4.792476 -12.194368 0.517 84 84 0
-4.879357 -12.151222 0.658 84 84 0
-4.792493 -12.196604 0.449 84 84 0
-4.96629 -12.114783 0.556 84 84 0
-4.958725 -12.119761 0.515 84 84 0
-4.723483 -12.237379 0.183 84 84 0
-4.915503 -12.140661 0.458 84 84 0
-4.878063 -12.157493 0.474 84 84 0
-4.925724 -12.132086 0.578 84 84 0
-4.885158 -12.149389 0.634 84 84 0
-4.905684 -12.143419 0.517 84 84 0
-4.997475 -12.098894 0.616 84 84 0
-4.878954 -12.157039 0.461 84 84 0
-4.839733 -12.174779 0.47 84 84 0
-4.809876 -12.188869 0.447 84 84 0
-4.960036 -12.115726 0.607 84 84 0
-4.930179 -12.129816 0.609 84 84 0
-4.640602 -12.277363 0.107 84 84 0
-4.878029 -12.153021 0.605 84 84 0
-4.870061 -12.163815 0.397 84 84 0
-4.786273 -12.202018 0.397 84 84 0
-4.874063 -12.160654 0.445 84 84 0
-4.793367 -12.193914 0.516 84 84 0
-4.691826 -12.250141 0.227 84 84 0
-4.772891 -12.206592 0.423 84 84 0
-4.772 -12.207046 0.439 84 84 0
-4.83084 -12.181555 0.397 84 84 0
-4.893613 -12.143958 0.675 84 84 0
-4.960944 -12.117508 0.543 84 84 0
-4.885612 -12.15028 0.571 84 84 0
-4.83126 -12.177973 0.507 84 84 0
-4.935962 -12.125748 0.622 84 84 0
-4.653966 -12.270554 0.106 84 84 0
-4.790728 -12.199748 0.383 84 84 0
-4.739941 -12.225626 0.307 84 84 0
-4.777816 -12.207448 0.349 84 84 0
-4.749287 -12.21974 0.35 84 84 0
-4.862042 -12.167901 0.382 84 84 0
-4.961364 -12.113927 0.643 84 84 0
-4.797856 -12.196116 0.414 84 84 0
-4.939106 -12.127513 0.557 84 84 0
-4.889629 -12.149355 0.563 84 84 0
-4.88694 -12.148481 0.625 84 84 0
-4.956472 -12.117541 0.596 84 84 0
-4.693608 -12.249233 0.229 84 84 0
-4.820148 -12.187002 0.374 84 84 0
-4.878971 -12.159275 0.411 84 84 0
-4.849517 -12.167549 0.565 84 84 0
-4.817929 -12.189256 0.322 84 84 0
-4.797436 -12.199697 0.286 84 84 0
-4.763124 -12.216058 0.285 84 84 0
-4.957363 -12.117087 0.611 84 84 0
-4.890066 -12.14801 0.602 84 84 0
-4.823241 -12.182059 0.485 84 84 0
-4.808565 -12.192904 0.356 84 84 0
-4.921286 -12.136593 0.521 84 84 0
-4.788963 -12.202892 0.315 84 84 0
-4.628128 -12.283719 0.074 84 84 0
-4.774236 -12.207028 0.381 84 84 0
-4.801857 -12.192955 0.438 84 84 0
-4.95469 -12.11845 0.616 84 84 0
-4.832622 -12.180647 0.403 84 84 0
-4.790745 -12.201984 0.317 84 84 0
-4.698517 -12.247853 0.185 84 84 0
-4.735486 -12.227896 0.303 84 84 0
-4.997038 -12.10024 0.562 84 84 0
-4.816113 -12.185691 0.466 84 84 0
-4.94847 -12.123863 0.508 84 84 0
-4.869573 -12.158452 0.573 84 84 0
-4.87001 -12.157107 0.58 84 84 0
-4.77247 -12.210173 0.327 84 84 0
-4.837968 -12.177922 0.414 84 84 0
-4.784911 -12.199345 0.47 84 84 0
-5.006385 -12.094354 0.606 84 84 0
-4.809019 -12.193795 0.328 84 84 0
-4.810296 -12.185288 0.553 84 84 0
-4.73283 -12.231493 0.213 84 84 0
-4.72481 -12.235579 0.192 84 84 0
-4.807203 -12.190231 0.466 84 84 0
-4.794275 -12.195696 0.469 84 84 0
-4.646385 -12.273294 0.127 84 84 0
-4.851719 -12.163059 0.682 84 84 0
-5.02244 -12.088418 0.594 84 84 0
-4.826788 -12.178007 0.566 84 84 0
-5.001039 -12.097078 0.608 84 84 0
-4.819257 -12.187456 0.378 84 84 0
-4.721246 -12.237395 0.209 84 84 0
-4.851333 -12.171113 0.418 84 84 0
-4.937341 -12.130657 0.476 84 84 0
-4.705645 -12.244222 0.203 84 84 0
-4.837968 -12.177922 0.409 84 84 0
-4.826334 -12.177116 0.589 84 84 0
-4.747942 -12.219304 0.387 84 84 0
-4.843734 -12.171618 0.517 84 84 0
-4.893631 -12.146194 0.606 84 84 0
-4.926178 -12.132977 0.55 84 84 0
-4.714538 -12.237446 0.297 84 84 0
-4.899465 -12.148833 0.456 84 84 0
-4.922597 -12.132558 0.608 84 84 0
-4.715883 -12.237884 0.248 84 84 0
-4.752431 -12.221505 0.262 84 84 0
-4.825057 -12.185624 0.339 84 84 0
-4.727029 -12.233326 0.247 84 84 0
-4.816096 -12.183455 0.547 84 84 0
-4.854897 -12.169296 0.431 84 84 0
-4.739049 -12.22608 0.295 84 84 0
-4.913721 -12.141569 0.456 84 84 0
-4.790711 -12.197513 0.448 84 84 0
-4.879391 -12.155694 0.492 84 84 0
-4.8669 -12.159814 0.546 84 84 0
-5.000602 -12.098423 0.568 84 84 0
-4.841969 -12.174761 0.449 84 84 0
-4.692263 -12.248796 0.258 84 84 0
-4.919016 -12.132137 0.661 84 84 0
-4.690481 -12.249703 0.255 84 84 0
-4.666895 -12.265089 0.106 84 84 0
-4.931978 -12.131145 0.529 84 84 0
-4.879845 -12.156585 0.463 84 84 0
-4.860226 -12.164337 0.509 84 84 0
-4.71632 -12.236538 0.286 84 84 0
-4.952454 -12.118466 0.645 84 84 0
-4.676242 -12.259203 0.159 84 84 0
-4.896338 -12.149304 0.481 84 84 0
-4.817424 -12.181657 0.563 84 84 0
-4.844608 -12.168927 0.58 84 84 0
-4.898573 -12.149287 0.448 84 84 0
-4.926178 -12.132977 0.55 84 84 0
-4.880265 -12.153004 0.586 84 84 0
-4.986329 -12.103452 0.623 84 84 0
-4.740377 -12.22428 0.352 84 84 0
-4.952034 -12.122047 0.534 84 84 0
-4.759979 -12.214293 0.371 84 84 0
-4.822333 -12.180277 0.544 84 84 0
-4.747505 -12.220648 0.348 84 84 0
-4.864698 -12.164303 0.461 84 84 0
-4.908812 -12.142949 0.483 84 84 0
-4.640602 -12.277363 0.107 84 84 0
-4.953799 -12.118904 0.607 84 84 0
-4.762199 -12.21204 0.405 84 84 0
-4.976091 -12.10979 0.585 84 84 0
-4.90834 -12.139821 0.582 84 84 0
-4.659313 -12.267829 0.144 84 84 0
-4.919033 -12.134374 0.621 84 84 0
-4.738595 -12.225188 0.319 84 84 0
-4.769344 -12.210644 0.36 84 84 0
-4.873609 -12.159762 0.458 84 84 0
-4.665113 -12.265997 0.121 84 84 0
-4.73372 -12.231039 0.234 84 84 0
-4.695844 -12.249215 0.185 84 84 0
-4.852224 -12.170659 0.434 84 84 0
-4.812146 -12.193324 0.305 84 84 0
-4.767124 -12.212896 0.321 84 84 0
-4.724339 -12.232452 0.318 84 84 0
-4.921706 -12.133012 0.598 84 84 0
-4.692734 -12.251923 0.152 84 84 0
-4.925706 -12.12985 0.652 84 84 0
-4.853081 -12.165733 0.574 84 84 0
-4.800109 -12.198336 0.303 84 84 0
-4.740831 -12.225172 0.321 84 84 0
-4.902575 -12.146127 0.47 84 84 0
-4.913249 -12.138442 0.575 84 84 0
-4.83706 -12.176141 0.474 84 84 0
-4.788492 -12.199764 0.431 84 84 0
-4.724793 -12.233343 0.265 84 84 0
-4.702535 -12.246929 0.183 84 84 0
-4.834858 -12.18063 0.349 84 84 0
-4.79293 -12.195259 0.51 84 84 0
-4.81655 -12.184346 0.504 84 84 0
-4.981891 -12.107957 0.546 84 84 0
-4.883812 -12.148952 0.643 84 84 0
-4.731905 -12.227475 0.341 84 84 0
-4.892286 -12.145758 0.634 84 84 0
-5.00773 -12.094791 0.601 84 84 0
-4.856645 -12.163917 0.578 84 84 0
-4.812583 -12.191979 0.313 84 84 0
-4.699862 -12.248291 0.171 84 84 0
-4.912829 -12.142023 0.47 84 84 0
-4.879408 -12.15793 0.446 84 84 0
-5.013076 -12.092068 0.605 84 84 0
-4.849534 -12.169785 0.483 84 84 0
-4.77469 -12.20792 0.377 84 84 0
-4.676679 -12.257859 0.178 84 84 0
-4.769344 -12.210644 0.348 84 84 0
-4.82546 -12.179807 0.516 84 84 0
-4.776489 -12.209248 0.284 84 84 0
-4.77869 -12.204759 0.394 84 84 0
-4.833513 -12.180192 0.395 84 84 0
-4.697609 -12.246072 0.252 84 84 0
-4.805421 -12.191139 0.441 84 84 0
-4.893631 -12.146194 0.589 84 84 0
-4.890554 -12.153373 0.409 84 84 0
-4.815205 -12.183909 0.536 84 84 0
-4.861991 -12.161193 0.573 84 84 0
-4.719901 -12.236958 0.236 84 84 0
-4.773362 -12.209719 0.329 84 84 0
-4.964508 -12.115692 0.541 84 84 0
-4.944452 -12.124789 0.558 84 84 0
-4.752415 -12.21927 0.31 84 84 0
-4.843768 -12.17609 0.377 84 84 0
-4.820534 -12.178949 0.597 84 84 0
-4.970291 -12.111623 0.578 84 84 0
-4.880265 -12.153004 0.584 84 84 0
-4.764452 -12.214258 0.316 84 84 0
-4.744849 -12.224246 0.277 84 84 0
-4.78671 -12.200673 0.426 84 84 0
-4.924379 -12.13165 0.604 84 84 0
-4.927977 -12.134305 0.484 84 84 0
-4.817895 -12.184783 0.482 84 84 0
-4.814348 -12.188835 0.385 84 84 0
-4.822804 -12.183404 0.44 84 84 0
-4.739503 -12.22697 0.264 84 84 0
-4.833933 -12.176611 0.505 84 84 0
-4.810313 -12.187525 0.483 84 84 0
-4.92796 -12.13207 0.556 84 84 0
-4.927505 -12.131178 0.581 84 84 0
-4.935962 -12.125748 0.637 84 84 0
-4.90834 -12.139821 0.602 84 84 0
-4.850409 -12.167095 0.556 84 84 0
-4.78091 -12.202506 0.447 84 84 0
-4.887881 -12.154735 0.423 84 84 0
-4.824132 -12.181605 0.485 84 84 0
-4.915452 -12.133953 0.656 84 84 0
-4.72481 -12.235579 0.211 84 84 0
-5.004167 -12.096607 0.575 84 84 0
-4.744379 -12.22112 0.368 84 84 0
-4.700282 -12.24471 0.28 84 84 0
-4.994802 -12.100256 0.601 84 84 0
-4.905702 -12.145655 0.457 84 84 0
-4.812566 -12.189743 0.384 84 84 0
-4.911485 -12.141586 0.485 84 84 0
-4.765326 -12.211569 0.378 84 84 0
-4.765797 -12.214696 0.263 84 84 0
-4.967181 -12.114329 0.546 84 84 0
-4.759526 -12.213402 0.411 84 84 0
-4.724356 -12.234688 0.248 84 84 0
-4.790745 -12.201984 0.332 84 84 0
-4.851333 -12.171113 0.413 84 84 0
-4.872734 -12.162453 0.405 84 84 0
-4.671787 -12.261474 0.153 84 84 0
-4.922614 -12.134793 0.541 84 84 0
-4.861991 -12.161193 0.593 84 84 0
-4.788946 -12.200656 0.387 84 84 0
-4.786256 -12.199782 0.442 84 84 0
-4.862025 -12.165665 0.427 84 84 0
-4.726121 -12.231544 0.319 84 84 0
-4.758635 -12.213856 0.395 84 84 0
-4.699845 -12.246056 0.246 84 84 0
-4.871809 -12.158435 0.518 84 84 0
-4.913233 -12.136206 0.627 84 84 0
-4.805892 -12.194266 0.358 84 84 0
-4.96049 -12.116617 0.585 84 84 0
-4.887865 -12.152499 0.471 84 84 0
-4.649075 -12.274168 0.09 84 84 0
-4.862008 -12.163429 0.504 84 84 0
-4.817912 -12.187019 0.408 84 84 0
-4.839699 -12.170307 0.62 84 84 0
-4.874063 -12.160654 0.437 84 84 0
-4.749758 -12.222868 0.241 84 84 0
-4.689607 -12.252394 0.195 84 84 0
-4.867372 -12.162941 0.463 84 84 0
-4.852644 -12.167077 0.537 84 84 0
-4.65664 -12.269191 0.123 84 84 0
-4.93376 -12.130237 0.523 84 84 0
-4.884266 -12.149843 0.622 84 84 0
-4.882535 -12.157459 0.401 84 84 0
-4.892336 -12.152465 0.431 84 84 0
-4.784927 -12.201581 0.409 84 84 0
-4.928868 -12.133851 0.506 84 84 0
-4.982765 -12.105268 0.614 84 84 0
-4.703426 -12.246475 0.171 84 84 0
-4.894976 -12.146631 0.57 84 84 0
-4.940434 -12.125713 0.594 84 84 0
-4.864262 -12.165648 0.403 84 84 0
-4.859369 -12.169263 0.383 84 84 0
-4.843751 -12.173853 0.437 84 84 0
-4.929759 -12.133397 0.48 84 84 0
-5.001039 -12.097078 0.614 84 84 0
-4.933306 -12.129346 0.58 84 84 0
-4.884317 -12.15655 0.426 84 84 0
-4.663768 -12.265559 0.132 84 84 0
-4.764452 -12.214258 0.318 84 84 0
-4.717665 -12.236976 0.263 84 84 0
-4.742159 -12.223372 0.335 84 84 0
-4.868279 -12.164722 0.382 84 84 0
-4.824149 -12.183841 0.417 84 84 0
-4.708755 -12.241515 0.241 84 84 0
-4.711865 -12.238808 0.277 84 84 0
-4.803622 -12.189811 0.521 84 84 0
-4.971182 -12.111169 0.586 84 84 0
-4.78671 -12.200673 0.414 84 84 0
-4.714992 -12.238338 0.245 84 84 0
-4.825443 -12.17757 0.586 84 84 0
-4.916377 -12.137971 0.537 84 84 0
-4.717211 -12.236084 0.298 84 84 0
-4.86337 -12.166102 0.415 84 84 0
-4.654858 -12.2701 0.11 84 84 0
-4.744412 -12.225592 0.25 84 84 0
-4.87043 -12.153526 0.68 84 84 0
-4.855788 -12.168842 0.434 84 84 0
-4.867826 -12.163832 0.414 84 84 0
-4.765326 -12.211569 0.366 84 84 0
-4.86068 -12.165227 0.46 84 84 0
-4.706519 -12.241531 0.276 84 84 0
-4.975637 -12.108899 0.604 84 84 0
-4.813457 -12.189289 0.388 84 84 0
-4.838809 -12.170761 0.626 84 84 0
-4.776018 -12.20612 0.411 84 84 0
-4.846441 -12.174728 0.39 84 84 0
-4.985455 -12.106141 0.548 84 84 0
-4.943998 -12.123898 0.59 84 84 0
-4.7836 -12.20338 0.374 84 84 0
-4.727046 -12.235562 0.188 84 84 0
-4.76536 -12.216041 0.243 84 84 0
-4.959582 -12.114835 0.629 84 84 0
-4.824552 -12.178024 0.584 84 84 0
-4.876281 -12.158401 0.483 84 84 0
-4.900305 -12.141671 0.629 84 84 0
-4.954253 -12.119795 0.551 84 84 0
-4.918142 -12.134828 0.618 84 84 0
-4.908324 -12.137586 0.648 84 84 0
-4.892303 -12.147993 0.562 84 84 0
-4.888739 -12.149809 0.563 84 84 0
-4.996147 -12.100694 0.579 84 84 0
-4.904794 -12.143873 0.508 84 84 0
-4.843734 -12.171618 0.514 84 84 0
-4.955144 -12.119341 0.56 84 84 0
-4.972981 -12.112497 0.541 84 84 0
-4.964945 -12.114347 0.574 84 84 0
-4.8727 -12.157981 0.519 84 84 0
-4.890554 -12.153373 0.424 84 84 0
-4.767561 -12.211552 0.337 84 84 0
-4.946654 -12.120299 0.645 84 84 0
-4.828133 -12.178445 0.522 84 84 0
-4.926615 -12.131632 0.586 84 84 0
-4.933289 -12.12711 0.643 84 84 0
-4.962289 -12.117945 0.521 84 84 0
-4.784037 -12.202035 0.401 84 84 0
-4.681151 -12.257825 0.127 84 84 0
-4.830403 -12.182899 0.358 84 84 0
-4.986783 -12.104342 0.586 84 84 0
-4.674914 -12.261003 0.118 84 84 0
-4.796494 -12.193443 0.498 84 84 0
-4.870447 -12.155762 0.638 84 84 0
-4.771142 -12.211972 0.294 84 84 0
-4.824552 -12.178024 0.585 84 84 0
-4.909686 -12.140258 0.544 84 84 0
-4.686934 -12.253756 0.162 84 84 0
-4.860209 -12.162101 0.561 84 84 0
-4.945326 -12.122098 0.617 84 84 0
-4.844608 -12.168927 0.568 84 84 0
-4.756415 -12.216108 0.364 84 84 0
-4.791199 -12.202875 0.3 84 84 0
-4.837531 -12.179268 0.369 84 84 0
-4.856191 -12.163026 0.617 84 84 0
-4.820551 -12.181185 0.559 84 84 0
-4.921286 -12.136593 0.52 84 84 0
-4.862008 -12.163429 0.501 84 84 0
-4.76045 -12.21742 0.253 84 84 0
-4.757761 -12.216546 0.325 84 84 0
-4.838388 -12.174341 0.491 84 84 0
-4.673552 -12.258329 0.21 84 84 0
-4.970745 -12.112514 0.564 84 84 0
-4.817004 -12.185237 0.459 84 84 0
-4.764889 -12.212914 0.355 84 84 0
-4.75154 -12.22196 0.261 84 84 0
-4.932415 -12.1298 0.57 84 84 0
-4.732392 -12.232839 0.196 84 84 0
-4.721212 -12.232924 0.323 84 84 0
-4.816113 -12.185691 0.466 84 84 0
-4.86026 -12.168809 0.385 84 84 0
-4.821425 -12.178495 0.6 84 84 0
-4.885612 -12.15028 0.579 84 84 0
-4.871338 -12.155308 0.646 84 84 0
-4.758214 -12.217436 0.29 84 84 0
-4.712336 -12.241935 0.177 84 84 0
-4.762669 -12.215166 0.32 84 84 0
-4.650403 -12.272369 0.125 84 84 0
-4.764452 -12.214258 0.298 84 84 0
-4.774236 -12.207028 0.402 84 84 0
-4.825443 -12.17757 0.598 84 84 0
-4.831731 -12.181101 0.407 84 84 0
-4.893194 -12.147539 0.576 84 84 0
-4.763577 -12.216949 0.256 84 84 0
-4.879828 -12.154349 0.545 84 84 0
-4.66866 -12.261945 0.168 84 84 0
-4.672224 -12.260129 0.182 84 84 0
-4.957817 -12.117979 0.588 84 84 0
-4.790308 -12.203329 0.287 84 84 0
-4.927943 -12.129833 0.609 84 84 0
-4.853081 -12.165733 0.551 84 84 0
-4.691826 -12.250141 0.237 84 84 0
-4.803185 -12.191156 0.464 84 84 0
-4.900775 -12.144797 0.541 84 84 0
-4.716774 -12.23743 0.273 84 84 0
-4.772034 -12.211517 0.281 84 84 0
-5.007293 -12.096136 0.57 84 84 0
-4.820568 -12.183421 0.477 84 84 0
-4.788475 -12.197529 0.502 84 84 0
-4.821493 -12.18744 0.338 84 84 0
-4.859738 -12.158974 0.674 84 84 0
-4.804093 -12.192938 0.409 84 84 0
-4.956035 -12.118887 0.577 84 84 0
-4.785365 -12.200236 0.463 84 84 0
-4.874449 -12.152601 0.668 84 84 0
-4.904356 -12.145219 0.494 84 84 0
-4.985455 -12.106141 0.555 84 84 0
-4.844625 -12.171164 0.528 84 84 0
-4.912796 -12.137551 0.592 84 84 0
-4.979201 -12.107083 0.624 84 84 0
-4.893228 -12.152011 0.429 84 84 0
-4.85841 -12.160773 0.658 84 84 0
-4.837917 -12.171215 0.616 84 84 0
-4.712319 -12.239699 0.265 84 84 0
-4.69228 -12.251032 0.193 84 84 0
-4.808548 -12.190668 0.427 84 84 0
-4.91014 -12.14115 0.53 84 84 0
-4.80764 -12.188887 0.479 84 84 0
-4.890992 -12.152028 0.472 84 84 0
-4.946688 -12.124771 0.504 84 84 0
-4.958691 -12.115289 0.638 84 84 0
-4.698971 -12.248745 0.159 84 84 0
-4.802731 -12.190265 0.499 84 84 0
-4.793855 -12.199277 0.348 84 84 0
-4.828133 -12.178445 0.527 84 84 0
-4.956472 -12.117541 0.608 84 84 0
-4.847315 -12.172037 0.446 84 84 0
-4.907938 -12.145638 0.435 84 84 0
-4.913284 -12.142915 0.443 84 84 0
-4.925724 -12.132086 0.596 84 84 0
-4.675788 -12.258313 0.187 84 84 0
-4.821896 -12.181623 0.525 84 84 0
-4.750632 -12.220178 0.325 84 84 0
-4.968055 -12.11164 0.62 84 84 0
-4.677587 -12.259641 0.13 84 84 0
-4.741723 -12.224717 0.3 84 84 0
-4.634819 -12.281432 0.064 84 84 0
-4.694936 -12.247434 0.261 84 84 0
-4.862916 -12.165211 0.449 84 84 0
-5.013968 -12.091614 0.597 84 84 0
-4.822333 -12.180277 0.535 84 84 0
-4.715009 -12.240573 0.187 84 84 0
-4.781818 -12.204288 0.368 84 84 0
-4.889647 -12.151591 0.498 84 84 0
-4.819206 -12.180749 0.58 84 84 0
-4.747942 -12.219304 0.37 84 84 0
-4.88921 -12.152936 0.438 84 84 0
-4.967164 -12.112094 0.63 84 84 0
-4.878047 -12.155257 0.524 84 84 0
-4.952017 -12.119812 0.591 84 84 0
-4.793838 -12.197041 0.435 84 84 0
-4.907466 -12.142511 0.52 84 84 0
-4.920832 -12.135701 0.549 84 84 0
-4.892303 -12.147993 0.577 84 84 0
-4.868682 -12.158906 0.55 84 84 0
-4.833496 -12.177957 0.469 84 84 0
-4.841952 -12.172525 0.509 84 84 0
-4.851316 -12.168877 0.5 84 84 0
-4.817895 -12.184783 0.476 84 84 0
-4.706973 -12.242423 0.243 84 84 0
-4.928397 -12.130724 0.59 84 84 0
-4.820585 -12.185657 0.411 84 84 0
-4.962726 -12.1166 0.532 84 84 0
-4.912813 -12.139788 0.528 84 84 0
-4.741723 -12.224717 0.29 84 84 0
-4.730593 -12.23151 0.252 84 84 0
-4.878971 -12.159275 0.418 84 84 0
-4.893665 -12.150666 0.475 84 84 0
-4.842826 -12.169835 0.566 84 84 0
-4.813457 -12.189289 0.401 84 84 0
-4.945326 -12.122098 0.615 84 84 0
-4.956926 -12.118433 0.583 84 84 0
-4.755541 -12.218799 0.284 84 84 0
-4.877172 -12.157947 0.453 84 84 0
-4.974292 -12.108462 0.627 84 84 0
-4.802748 -12.192501 0.445 84 84 0
-4.777816 -12.207448 0.32 84 84 0
-4.653513 -12.269663 0.148 84 84 0
-4.833916 -12.174376 0.572 84 84 0
-4.872734 -12.162453 0.406 84 84 0
-4.755979 -12.217454 0.337 84 84 0
-4.727483 -12.234218 0.2 84 84 0
-4.858007 -12.16659 0.459 84 84 0
-4.70699 -12.244659 0.176 84 84 0
-4.752398 -12.217033 0.392 84 84 0
-4.660641 -12.26603 0.157 84 84 0
-4.660641 -12.26603 0.171 84 84 0
-4.874012 -12.153946 0.646 84 84 0
-4.972527 -12.111606 0.553 84 84 0
-4.960927 -12.115272 0.598 84 84 0
-4.938215 -12.127967 0.527 84 84 0
-4.938198 -12.125731 0.602 84 84 0
-4.773362 -12.209719 0.311 84 84 0
-4.839733 -12.174779 0.479 84 84 0
-4.758214 -12.217436 0.3 84 84 0
-4.804984 -12.192484 0.409 84 84 0
-4.829024 -12.177991 0.513 84 84 0
-4.808985 -12.189322 0.467 84 84 0
-4.647729 -12.273731 0.125 84 84 0
-4.943998 -12.123898 0.582 84 84 0
-4.866883 -12.157578 0.635 84 84 0
-4.911014 -12.138459 0.591 84 84 0
-4.878047 -12.155257 0.539 84 84 0
-4.768033 -12.214679 0.252 84 84 0
-4.931087 -12.131598 0.512 84 84 0
-4.681134 -12.255589 0.188 84 84 0
-4.902087 -12.140763 0.661 84 84 0
-4.800949 -12.191173 0.512 84 84 0
-4.792527 -12.201076 0.307 84 84 0
-4.743941 -12.222465 0.341 84 84 0
-4.864698 -12.164303 0.449 84 84 0
-4.801437 -12.196536 0.344 84 84 0
-4.767982 -12.207971 0.443 84 84 0
-4.920848 -12.137938 0.474 84 84 0
-4.754179 -12.216125 0.395 84 84 0
-4.938669 -12.128858 0.52 84 84 0
-4.902087 -12.140763 0.645 84 84 0
-4.748868 -12.223322 0.258 84 84 0
-4.815676 -12.187037 0.439 84 84 0
-4.830806 -12.177083 0.529 84 84 0
-4.846828 -12.166675 0.618 84 84 0
-4.782692 -12.201598 0.448 84 84 0
-4.810313 -12.187525 0.487 84 84 0
-4.874012 -12.153946 0.622 84 84 0
-4.864262 -12.165648 0.408 84 84 0
-4.88341 -12.154769 0.486 84 84 0
-4.853552 -12.168859 0.459 84 84 0
-4.971199 -12.113405 0.536 84 84 0
-4.847332 -12.174273 0.377 84 84 0
-4.850862 -12.167985 0.513 84 84 0
-4.862025 -12.165665 0.43 84 84 0
-4.795149 -12.193007 0.559 84 84 0
-4.628043 -12.272539 0.65 84 84 0
-4.833899 -12.172139 0.653 84 84 0
-4.75191 -12.211671 0.669 84 84 0
-4.632968 -12.273396 0.476 84 84 0
-4.768873 -12.207517 0.474 84 84 0
-4.61024 -12.283855 0.52 84 84 0
-4.648133 -12.267915 0.371 84 84 0
-4.71405 -12.232082 0.55 84 84 0
-4.746144 -12.217976 0.476 84 84 0
-4.62811 -12.281483 0.208 84 84 0
-4.723868 -12.229325 0.433 84 84 0
-4.769747 -12.204826 0.547 84 84 0
-4.756382 -12.211637 0.522 84 84 0
-4.817861 -12.180311 0.609 84 84 0
-4.664171 -12.259743 0.371 84 84 0
-4.809842 -12.184398 0.605 84 84 0
-4.689556 -12.245686 0.454 84 84 0
-4.820534 -12.178949 0.639 84 84 0
-4.759037 -12.208039 0.686 84 84 0
-4.781766 -12.197579 0.615 84 84 0
-4.668138 -12.25211 0.658 84 84 0
-4.797368 -12.190753 0.577 84 84 0
-4.680209 -12.251571 0.386 84 84 0
-4.649041 -12.269697 0.279 84 84 0
-4.674426 -12.25564 0.319 84 84 0
-4.615636 -12.287839 0.176 84 84 0
-4.602288 -12.296885 0.052 84 84 0
-4.608945 -12.290126 0.237 84 84 0
-4.732325 -12.223894 0.518 84 84 0
-4.788912 -12.196184 0.522 84 84 0
-4.659682 -12.257541 0.641 84 84 0
-4.709578 -12.232117 0.693 84 84 0
-4.744344 -12.216647 0.568 84 84 0
-4.723414 -12.228435 0.516 84 84 0
-4.70161 -12.242911 0.341 84 84 0
-4.612459 -12.281602 0.589 84 84 0
-4.704267 -12.239313 0.438 84 84 0
-4.673989 -12.256985 0.262 84 84 0
-4.614308 -12.289639 0.122 84 84 0
-4.762619 -12.208459 0.556 84 84 0
-4.726087 -12.227073 0.535 84 84 0
-4.681957 -12.246191 0.657 84 84 0
-4.667701 -12.253454 0.607 84 84 0
-4.66328 -12.260197 0.396 84 84 0
-4.758618 -12.21162 0.492 84 84 0
-4.710486 -12.233899 0.529 84 84 0
-4.642299 -12.265276 0.663 84 84 0
-4.812498 -12.180799 0.695 84 84 0
-4.611636 -12.291 0.131 84 84 0
-4.660119 -12.256196 0.688 84 84 0
-4.667247 -12.252564 0.684 84 84 0
-4.652605 -12.26788 0.271 84 84 0
-4.706502 -12.239296 0.4 84 84 0
-4.680646 -12.250226 0.464 84 84 0
-4.697609 -12.246072 0.279 84 84 0
-4.682899 -12.252445 0.298 84 84 0
-4.71052 -12.238371 0.34 84 84 0
-4.656169 -12.266065 0.263 84 84 0
-4.608878 -12.281182 0.659 84 84 0
-4.676611 -12.248915 0.631 84 84 0
-4.725196 -12.227527 0.51 84 84 0
-4.734543 -12.221641 0.608 84 84 0
-4.748345 -12.213487 0.674 84 84 0
-4.6192 -12.286023 0.178 84 84 0
-4.646805 -12.269713 0.323 84 84 0
-4.624967 -12.279718 0.376 84 84 0
-4.730962 -12.221221 0.665 84 84 0
-4.799587 -12.188499 0.637 84 84 0
-4.652605 -12.26788 0.292 84 84 0
-4.628548 -12.280139 0.246 84 84 0
-4.663683 -12.25438 0.694 84 84 0
-4.619133 -12.27708 0.62 84 84 0
-4.71943 -12.233831 0.354 84 84 0
-4.7604 -12.210712 0.521 84 84 0
-4.616057 -12.284259 0.367 84 84 0
-4.756836 -12.212528 0.505 84 84 0
-4.816516 -12.179873 0.654 84 84 0
-4.823644 -12.176242 0.693 84 84 0
-4.616528 -12.287385 0.168 84 84 0
-4.653445 -12.260718 0.633 84 84 0
-4.612493 -12.286075 0.351 84 84 0
-4.757727 -12.212074 0.473 84 84 0
-4.685572 -12.251083 0.312 84 84 0
-4.750144 -12.214814 0.516 84 84 0
-4.711394 -12.235682 0.457 84 84 0
-4.665533 -12.262415 0.231 84 84 0
-4.794258 -12.19346 0.552 84 84 0
-4.7662 -12.208879 0.471 84 84 0
-4.608912 -12.285654 0.451 84 84 0
-4.651714 -12.268334 0.281 84 84 0
-4.704686 -12.235732 0.616 84 84 0
-4.71363 -12.235664 0.405 84 84 0
-4.655227 -12.25981 0.595 84 84 0
-4.690027 -12.248813 0.295 84 84 0
-4.603162 -12.294195 0.151 84 84 0
-4.681503 -12.2453 0.696 84 84 0
-4.751926 -12.213906 0.547 84 84 0
-4.6076 -12.289689 0.27 84 84 0
-4.630784 -12.280121 0.178 84 84 0
-4.759963 -12.212056 0.461 84 84 0
-4.761711 -12.206676 0.668 84 84 0
-4.606256 -12.289252 0.326 84 84 0
-4.662809 -12.25707 0.573 84 84 0
-4.626698 -12.272102 0.682 84 84 0
-4.733199 -12.221205 0.645 84 84 0
-4.664608 -12.258398 0.44 84 84 0
-4.640063 -12.265292 0.691 84 84 0
-4.7586 -12.209383 0.612 84 84 0
-4.670828 -12.252984 0.596 84 84 0
-4.79915 -12.189845 0.614 84 84 0
-4.773747 -12.201666 0.617 84 84 0
-4.647696 -12.269259 0.31 84 84 0
-4.73367 -12.224332 0.456 84 84 0
-4.829444 -12.17441 0.647 84 84 0
-4.710486 -12.233899 0.549 84 84 0
-4.753708 -12.212998 0.532 84 84 0
-4.761711 -12.206676 0.689 84 84 0
-4.694448 -12.24207 0.562 84 84 0
-4.685521 -12.244374 0.663 84 84 0
-4.667701 -12.253454 0.621 84 84 0
-4.748379 -12.217958 0.419 84 84 0
-4.623655 -12.283753 0.197 84 84 0
-4.761291 -12.210258 0.504 84 84 0
-4.715412 -12.234756 0.368 84 84 0
-4.711831 -12.234336 0.482 84 84 0
-4.682411 -12.247082 0.593 84 84 0
-4.609768 -12.280728 0.656 84 84 0
-4.73367 -12.224332 0.471 84 84 0
-4.64193 -12.275564 0.138 84 84 0
-4.76662 -12.205297 0.598 84 84 0
-4.816516 -12.179873 0.651 84 84 0
-4.72918 -12.222129 0.668 84 84 0
-4.613821 -12.284275 0.403 84 84 0
-4.638298 -12.268436 0.591 84 84 0
-4.826317 -12.17488 0.663 84 84 0
-4.650369 -12.267898 0.308 84 84 0
-4.787567 -12.195747 0.599 84 84 0
-4.770638 -12.204372 0.555 84 84 0
-4.814734 -12.180782 0.671 84 84 0
-4.709595 -12.234353 0.548 84 84 0
-4.694482 -12.246543 0.284 84 84 0
-4.745707 -12.21932 0.43 84 84 0
-4.716706 -12.228485 0.653 84 84 0
-4.778657 -12.200287 0.589 84 84 0
-4.710066 -12.23748 0.376 84 84 0
-4.618696 -12.278424 0.576 84 84 0
-4.80226 -12.187138 0.636 84 84 0
-4.628128 -12.283719 0.089 84 84 0
-4.83479 -12.171685 0.659 84 84 0
-4.678393 -12.248007 0.628 84 84 0
-4.672207 -12.257893 0.261 84 84 0
-4.751472 -12.213016 0.597 84 84 0
-4.758181 -12.212964 0.457 84 84 0
-4.662389 -12.260651 0.368 84 84 0
-4.642753 -12.266166 0.584 84 84 0
-4.628094 -12.279247 0.311 84 84 0
-4.632129 -12.280559 0.12 84 84 0
-4.809842 -12.184398 0.618 84 84 0
-4.687808 -12.251065 0.255 84 84 0
-4.611131 -12.283401 0.494 84 84 0
-4.646805 -12.269713 0.293 84 84 0
-4.613821 -12.284275 0.388 84 84 0
-4.616091 -12.288731 0.107 84 84 0
-4.623639 -12.281517 0.282 84 84 0
-4.815188 -12.181673 0.592 84 84 0
-4.711411 -12.237917 0.313 84 84 0
-4.736342 -12.22297 0.466 84 84 0
-4.719396 -12.229359 0.56 84 84 0
-4.684681 -12.251537 0.299 84 84 0
-4.71716 -12.229377 0.603 84 84 0
-4.661464 -12.256633 0.604 84 84 0
-4.634717 -12.268016 0.685 84 84 0
-4.659279 -12.263357 0.357 84 84 0
-4.628043 -12.272539 0.657 84 84 0
-4.744799 -12.217539 0.56 84 84 0
-4.678847 -12.248898 0.589 84 84 0
-4.784877 -12.194873 0.677 84 84 0
-4.772874 -12.204356 0.504 84 84 0
-4.60982 -12.287436 0.335 84 84 0
-4.615149 -12.282475 0.461 84 84 0
-4.615569 -12.278895 0.614 84 84 0
-4.653445 -12.260718 0.626 84 84 0
-4.646821 -12.271949 0.207 84 84 0
-4.659716 -12.262012 0.394 84 84 0
-4.736308 -12.218497 0.686 84 84 0
-4.716741 -12.232958 0.464 84 84 0
-4.60802 -12.286108 0.466 84 84 0
-4.667281 -12.257035 0.434 84 84 0
-4.724305 -12.227981 0.539 84 84 0
-4.722523 -12.228889 0.502 84 84 0
-4.691321 -12.242542 0.568 84 84 0
-4.621823 -12.277953 0.538 84 84 0
-4.658859 -12.266939 0.183 84 84 0
-4.671299 -12.256111 0.386 84 84 0
-4.610744 -12.291454 0.088 84 84 0
-4.673972 -12.254749 0.392 84 84 0
-4.735888 -12.222078 0.545 84 84 0
-4.762619 -12.208459 0.528 84 84 0
-4.643258 -12.273766 0.219 84 84 0
-4.693591 -12.246997 0.288 84 84 0
-4.755474 -12.209855 0.683 84 84 0
-4.79424 -12.191224 0.637 84 84 0
-4.80806 -12.185306 0.614 84 84 0
-4.656555 -12.258012 0.666 84 84 0
-4.682848 -12.245736 0.614 84 84 0
-4.637407 -12.26889 0.617 84 84 0
-4.632952 -12.27116 0.573 84 84 0
-4.673989 -12.256985 0.308 84 84 0
-4.80226 -12.187138 0.636 84 84 0
-4.715866 -12.235647 0.343 84 84 0
-4.606692 -12.287907 0.4 84 84 0
-4.745253 -12.21843 0.5 84 84 0
-4.718959 -12.230704 0.524 84 84 0
-4.726559 -12.2302 0.36 84 84 0
-4.650369 -12.267898 0.329 84 84 0
-4.707796 -12.233025 0.662 84 84 0
-4.613837 -12.286511 0.288 84 84 0
-4.708704 -12.234807 0.529 84 84 0
-4.678393 -12.248007 0.615 84 84 0
-4.671299 -12.256111 0.4 84 84 0
-4.626782 -12.283282 0.11 84 84 0
-4.679335 -12.254261 0.279 84 84 0
-4.644989 -12.26615 0.554 84 84 0
-4.606289 -12.293724 0.105 84 84 0
-4.671316 -12.258347 0.273 84 84 0
-4.720741 -12.229796 0.502 84 84 0
-4.645931 -12.272403 0.193 84 84 0
-4.626261 -12.273448 0.643 84 84 0
-4.665062 -12.259289 0.371 84 84 0
-4.675737 -12.251604 0.544 84 84 0
-4.788003 -12.194402 0.628 84 84 0
-4.608441 -12.282527 0.619 84 84 0
-4.779111 -12.201179 0.499 84 84 0
-4.771966 -12.202574 0.648 84 84 0
-4.662843 -12.261541 0.339 84 84 0
-4.635171 -12.268908 0.648 84 84 0
-4.781784 -12.199817 0.509 84 84 0
-4.673518 -12.253858 0.465 84 84 0
-4.781784 -12.199817 0.503 84 84 0
-4.649915 -12.267007 0.354 84 84 0
-4.756818 -12.210291 0.633 84 84 0
-4.612021 -12.282948 0.502 84 84 0
-4.8379 -12.168978 0.688 84 84 0
-4.624529 -12.281063 0.292 84 84 0
-4.732744 -12.220313 0.671 84 84 0
-4.705123 -12.234386 0.686 84 84 0
-4.851265 -12.162169 0.696 84 84 0
-4.706031 -12.236169 0.541 84 84 0
-4.682899 -12.252445 0.277 84 84 0
-4.612072 -12.289655 0.163 84 84 0
-4.682394 -12.244846 0.688 84 84 0
-4.697155 -12.245181 0.317 84 84 0
-4.708721 -12.237043 0.464 84 84 0
-4.652168 -12.269225 0.208 84 84 0
-4.767528 -12.20708 0.48 84 84 0
-4.670425 -12.258801 0.279 84 84 0
-4.74078 -12.218463 0.563 84 84 0
-4.665079 -12.261525 0.293 84 84 0
-4.664188 -12.261979 0.289 84 84 0
-4.650385 -12.270133 0.22 84 84 0
-4.730962 -12.221221 0.676 84 84 0
-4.607634 -12.294161 0.071 84 84 0
-4.812952 -12.18169 0.638 84 84 0
-4.759945 -12.209821 0.541 84 84 0
-4.61651 -12.285149 0.311 84 84 0
-4.682008 -12.252899 0.284 84 84 0
-4.709175 -12.237934 0.401 84 84 0
-4.752834 -12.215689 0.457 84 84 0
-4.713159 -12.232537 0.538 84 84 0
-4.682445 -12.251554 0.357 84 84 0
-4.681066 -12.246645 0.633 84 84 0
-4.642804 -12.272875 0.251 84 84 0
-4.68463 -12.244828 0.658 84 84 0
-4.613384 -12.285621 0.324 84 84 0
-4.679284 -12.247553 0.652 84 84 0
-4.762165 -12.207567 0.605 84 84 0
-4.792005 -12.191241 0.689 84 84 0
-4.774185 -12.200321 0.673 84 84 0
-4.614711 -12.283821 0.391 84 84 0
-4.609349 -12.284309 0.517 84 84 0
-4.632129 -12.280559 0.103 84 84 0
-4.808497 -12.18396 0.668 84 84 0
-4.620091 -12.285569 0.194 84 84 0
-4.832554 -12.171702 0.663 84 84 0
-4.618696 -12.278424 0.547 84 84 0
-4.756399 -12.213873 0.443 84 84 0
-4.670862 -12.257456 0.344 84 84 0
-4.758618 -12.21162 0.489 84 84 0
-4.70161 -12.242911 0.321 84 84 0
-4.638298 -12.268436 0.602 84 84 0
-4.635239 -12.277851 0.211 84 84 0
-4.645426 -12.264804 0.605 84 84 0
-4.702921 -12.238876 0.484 84 84 0
-4.742562 -12.217555 0.565 84 84 0
-4.69803 -12.242492 0.418 84 84 0
-4.628984 -12.278793 0.286 84 84 0
-4.630279 -12.272522 0.6 84 84 0
-4.701593 -12.240675 0.415 84 84 0
-4.774202 -12.202557 0.586 84 84 0
-4.686463 -12.250629 0.317 84 84 0
-4.764837 -12.206205 0.592 84 84 0
-4.749254 -12.215268 0.547 84 84 0
-4.683353 -12.253336 0.269 84 84 0
-4.697121 -12.240708 0.561 84 84 0
-4.612055 -12.287419 0.265 84 84 0
-4.73187 -12.223003 0.588 84 84 0
-4.702904 -12.23664 0.626 84 84 0
-4.625437 -12.282845 0.158 84 84 0
-4.635221 -12.275615 0.285 84 84 0
-4.689522 -12.241214 0.695 84 84 0
-4.644081 -12.264368 0.658 84 84 0
-4.73367 -12.224332 0.494 84 84 0
-4.620058 -12.281097 0.376 84 84 0
-4.756818 -12.210291 0.631 84 84 0
-4.632549 -12.276978 0.305 84 84 0
-4.702921 -12.238876 0.49 84 84 0
-4.718488 -12.227577 0.657 84 84 0
-4.639189 -12.267982 0.601 84 84 0
-4.699828 -12.243819 0.319 84 84 0
-4.683739 -12.245282 0.633 84 84 0
-4.608508 -12.291471 0.164 84 84 0
-4.775076 -12.199867 0.692 84 84 0
-4.673535 -12.256094 0.329 84 84 0
-4.621873 -12.284661 0.197 84 84 0
-4.668189 -12.258818 0.34 84 84 0
-4.834336 -12.170794 0.686 84 84 0
-4.739907 -12.221154 0.464 84 84 0
-4.824535 -12.175788 0.663 84 84 0
-4.783549 -12.196671 0.622 84 84 0
-4.707359 -12.23437 0.616 84 84 0
-4.804042 -12.18623 0.655 84 84 0
-4.611619 -12.288764 0.203 84 84 0
-4.721649 -12.231578 0.371 84 84 0
-4.700248 -12.240238 0.49 84 84 0
