ply
format ascii 1.0
element vertex 1377
property double x
property double y
property double z
property uchar red
property uchar green
property uchar blue
element face 0
property list uchar int vertex_indices
end_header
-5.308456 -14.299571 0.638 255 0 0
-5.541808 -14.757548 0.912 255 0 0
-5.536376 -14.749092 0.854 255 0 0
-5.404232 -14.485337 0.811 255 0 0
-5.440131 -14.560199 0.765 255 0 0
-5.488725 -14.657773 0.742 255 0 0
-5.460089 -14.597167 0.842 255 0 0
-5.367458 -14.413166 0.805 255 0 0
-5.486001 -14.652427 0.731 255 0 0
-5.379716 -14.437222 0.786 255 0 0
-5.366147 -14.417201 0.595 255 0 0
-5.500057 -14.677812 0.835 255 0 0
-5.510482 -14.696069 0.898 255 0 0
-5.376152 -14.439039 0.579 255 0 0
-5.352108 -14.394052 0.463 255 0 0
-5.380255 -14.449294 0.532 255 0 0
-5.327541 -14.33923 0.647 255 0 0
-5.510953 -14.699196 0.822 255 0 0
-5.504127 -14.683595 0.89 255 0 0
-5.423804 -14.530359 0.696 255 0 0
-5.347568 -14.385141 0.462 255 0 0
-5.426562 -14.540176 0.589 255 0 0
-5.374336 -14.435475 0.544 255 0 0
-5.367997 -14.425237 0.499 255 0 0
-5.320243 -14.320501 0.724 255 0 0
-5.528205 -14.733054 0.833 255 0 0
-5.414236 -14.507175 0.768 255 0 0
-5.321673 -14.332118 0.513 255 0 0
-5.316157 -14.312483 0.706 255 0 0
-5.314375 -14.313391 0.618 255 0 0
-5.410167 -14.501392 0.717 255 0 0
-5.372923 -14.426094 0.723 255 0 0
-5.327524 -14.336993 0.687 255 0 0
-5.506867 -14.691177 0.809 255 0 0
-5.351636 -14.390924 0.559 255 0 0
-5.498225 -14.672012 0.853 255 0 0
-5.416489 -14.509395 0.826 255 0 0
-5.496408 -14.668447 0.895 255 0 0
-5.298923 -14.28086 0.63 255 0 0
-5.3076 -14.304497 0.515 255 0 0
-5.488254 -14.654646 0.818 255 0 0
-5.281671 -14.247002 0.617 255 0 0
-5.437407 -14.554853 0.742 255 0 0
-5.423299 -14.52276 0.833 255 0 0
-5.301227 -14.289787 0.553 255 0 0
-5.321236 -14.333464 0.433 255 0 0
-5.318041 -14.32499 0.524 255 0 0
-5.341615 -14.366851 0.653 255 0 0
-5.352544 -14.392707 0.555 255 0 0
-5.34069 -14.362833 0.711 255 0 0
-5.358918 -14.407417 0.494 255 0 0
-5.309433 -14.310297 0.46 255 0 0
-5.5182 -14.711216 0.888 255 0 0
-5.392967 -14.474242 0.514 255 0 0
-5.334385 -14.357066 0.532 255 0 0
-5.299831 -14.282642 0.66 255 0 0
-5.446924 -14.571328 0.811 255 0 0
-5.343431 -14.370414 0.643 255 0 0
-5.343028 -14.376231 0.455 255 0 0
-5.422879 -14.52634 0.747 255 0 0
-5.526389 -14.72949 0.877 255 0 0
-5.329811 -14.343684 0.662 255 0 0
-5.376589 -14.437695 0.648 255 0 0
-5.319874 -14.330791 0.43 255 0 0
-5.35885 -14.398473 0.705 255 0 0
-5.440585 -14.56109 0.741 255 0 0
-5.484639 -14.649754 0.733 255 0 0
-5.426999 -14.538832 0.634 255 0 0
-5.325339 -14.343719 0.392 255 0 0
-5.379347 -14.447512 0.499 255 0 0
-5.359321 -14.4016 0.681 255 0 0
-5.413345 -14.507629 0.724 255 0 0
-5.375732 -14.44262 0.466 255 0 0
-5.422022 -14.531267 0.576 255 0 0
-5.327541 -14.33923 0.645 255 0 0
-5.511844 -14.698742 0.907 255 0 0
-5.295325 -14.278204 0.558 255 0 0
-5.327524 -14.336993 0.701 255 0 0
-5.355689 -14.394472 0.673 255 0 0
-5.487329 -14.650628 0.834 255 0 0
-5.523211 -14.723253 0.835 255 0 0
-5.514114 -14.703197 0.869 255 0 0
-5.471439 -14.619443 0.844 255 0 0
-5.372083 -14.433256 0.487 255 0 0
-5.348947 -14.390051 0.425 255 0 0
-5.32618 -14.336556 0.609 255 0 0
-5.279839 -14.241202 0.676 255 0 0
-5.351603 -14.386453 0.671 255 0 0
-5.379767 -14.443932 0.635 255 0 0
-5.38429 -14.450605 0.697 255 0 0
-5.295779 -14.279095 0.525 255 0 0
-5.32707 -14.336102 0.661 255 0 0
-5.366635 -14.422564 0.516 255 0 0
-5.387014 -14.455952 0.715 255 0 0
-5.532274 -14.738837 0.916 255 0 0
-5.530929 -14.7384 0.859 255 0 0
-5.316696 -14.324553 0.449 255 0 0
-5.297561 -14.278187 0.682 255 0 0
-5.514568 -14.704087 0.886 255 0 0
-5.363894 -14.414982 0.545 255 0 0
-5.306692 -14.302715 0.514 255 0 0
-5.285286 -14.251893 0.706 255 0 0
-5.444687 -14.571345 0.672 255 0 0
-5.283453 -14.246094 0.73 255 0 0
-5.302537 -14.285751 0.71 255 0 0
-5.330316 -14.351283 0.433 255 0 0
-5.335259 -14.354377 0.647 255 0 0
-5.334873 -14.36243 0.388 255 0 0
-5.509574 -14.694287 0.866 255 0 0
-5.558168 -14.791861 0.91 255 0 0
-5.40884 -14.503192 0.621 255 0 0
-5.530458 -14.735273 0.886 255 0 0
-5.424241 -14.529014 0.762 255 0 0
-5.30079 -14.291132 0.515 255 0 0
-5.391991 -14.463516 0.778 255 0 0
-5.356125 -14.393126 0.693 255 0 0
-5.328466 -14.343247 0.553 255 0 0
-5.36529 -14.422127 0.463 255 0 0
-5.492794 -14.663556 0.811 255 0 0
-5.358934 -14.409653 0.457 255 0 0
-5.372015 -14.424313 0.761 255 0 0
-5.313485 -14.313845 0.554 255 0 0
-5.420626 -14.524122 0.683 255 0 0
-5.387048 -14.460423 0.605 255 0 0
-5.338034 -14.36643 0.463 255 0 0
-5.352039 -14.385107 0.739 255 0 0
-5.273936 -14.229619 0.717 255 0 0
-5.33161 -14.345012 0.702 255 0 0
-5.371578 -14.425657 0.685 255 0 0
-5.323455 -14.33121 0.63 255 0 0
-5.427436 -14.537487 0.696 255 0 0
-5.370216 -14.422983 0.659 255 0 0
-5.367963 -14.420765 0.597 255 0 0
-5.305698 -14.289753 0.759 255 0 0
-5.293458 -14.267932 0.689 255 0 0
-5.335242 -14.35214 0.694 255 0 0
-5.32892 -14.344138 0.577 255 0 0
-5.395219 -14.476461 0.575 255 0 0
-5.317587 -14.3241 0.512 255 0 0
-5.405208 -14.496063 0.615 255 0 0
-5.261678 -14.205561 0.693 255 0 0
-5.454641 -14.586474 0.832 255 0 0
-5.441947 -14.563763 0.763 255 0 0
-5.450102 -14.577565 0.824 255 0 0
-5.33758 -14.36554 0.491 255 0 0
-5.334822 -14.355721 0.572 255 0 0
-5.357504 -14.398036 0.673 255 0 0
-5.493685 -14.663102 0.888 255 0 0
-5.274861 -14.233636 0.628 255 0 0
-5.426091 -14.53705 0.65 255 0 0
-5.494593 -14.664884 0.869 255 0 0
-5.471927 -14.624805 0.711 255 0 0
-5.386123 -14.456406 0.623 255 0 0
-5.27392 -14.227383 0.74 255 0 0
-5.442872 -14.567781 0.671 255 0 0
-5.50369 -14.68494 0.805 255 0 0
-5.392899 -14.465299 0.765 255 0 0
-5.358396 -14.397581 0.708 255 0 0
-5.376084 -14.430096 0.811 255 0 0
-5.363911 -14.417218 0.502 255 0 0
-5.336184 -14.358395 0.604 255 0 0
-5.372537 -14.434147 0.485 255 0 0
-5.333057 -14.358866 0.379 255 0 0
-5.367963 -14.420765 0.627 255 0 0
-5.31303 -14.312953 0.542 255 0 0
-5.481898 -14.642172 0.775 255 0 0
-5.288952 -14.263494 0.598 255 0 0
-5.534561 -14.745528 0.86 255 0 0
-5.451934 -14.583365 0.773 255 0 0
-5.296687 -14.280877 0.515 255 0 0
-5.483243 -14.642609 0.861 255 0 0
-5.505034 -14.685376 0.864 255 0 0
-5.318041 -14.32499 0.506 255 0 0
-5.351131 -14.383326 0.704 255 0 0
-5.306674 -14.300479 0.537 255 0 0
-5.452826 -14.582911 0.812 255 0 0
-5.416557 -14.518339 0.631 255 0 0
-5.512786 -14.704996 0.804 255 0 0
-5.487346 -14.652864 0.819 255 0 0
-5.388864 -14.463987 0.605 255 0 0
-5.29852 -14.286677 0.497 255 0 0
-5.365676 -14.414074 0.657 255 0 0
-5.320345 -14.333918 0.412 255 0 0
-5.297141 -14.281768 0.561 255 0 0
-5.38345 -14.457767 0.489 255 0 0
-5.518217 -14.713452 0.853 255 0 0
-5.384778 -14.455968 0.582 255 0 0
-5.392462 -14.466643 0.72 255 0 0
-5.4442 -14.565982 0.821 255 0 0
-5.454676 -14.590947 0.719 255 0 0
-5.380204 -14.442586 0.667 255 0 0
-5.448791 -14.5816 0.653 255 0 0
-5.49234 -14.662664 0.8 255 0 0
-5.553157 -14.779823 0.941 255 0 0
-5.522303 -14.721471 0.842 255 0 0
-5.278005 -14.235401 0.726 255 0 0
-5.426999 -14.538832 0.613 255 0 0
-5.300722 -14.282188 0.723 255 0 0
-5.313064 -14.317425 0.451 255 0 0
-5.278913 -14.237184 0.745 255 0 0
-5.392513 -14.473351 0.52 255 0 0
-5.309381 -14.303589 0.618 255 0 0
-5.401138 -14.49028 0.549 255 0 0
-5.32976 -14.336977 0.783 255 0 0
-5.522286 -14.719234 0.894 255 0 0
-5.414724 -14.512539 0.645 255 0 0
-5.424224 -14.526778 0.776 255 0 0
-5.363826 -14.406038 0.786 255 0 0
-5.440619 -14.565562 0.631 255 0 0
-5.45829 -14.59584 0.788 255 0 0
-5.368366 -14.414948 0.765 255 0 0
-5.421988 -14.526794 0.693 255 0 0
-5.52274 -14.720126 0.888 255 0 0
-5.381532 -14.440787 0.822 255 0 0
-5.343953 -14.38025 0.433 255 0 0
-5.455095 -14.587366 0.856 255 0 0
-5.501403 -14.678249 0.865 255 0 0
-5.382088 -14.455094 0.485 255 0 0
-5.458307 -14.598075 0.712 255 0 0
-5.342052 -14.365506 0.728 255 0 0
-5.321622 -14.325411 0.706 255 0 0
-5.391605 -14.471569 0.502 255 0 0
-5.428344 -14.539268 0.686 255 0 0
-5.44605 -14.574018 0.689 255 0 0
-5.480973 -14.638154 0.853 255 0 0
-5.351131 -14.383326 0.693 255 0 0
-5.525481 -14.727708 0.847 255 0 0
-5.421517 -14.523668 0.706 255 0 0
-5.377951 -14.440367 0.638 255 0 0
-5.342506 -14.366397 0.685 255 0 0
-5.293458 -14.267932 0.731 255 0 0
-5.335242 -14.35214 0.669 255 0 0
-5.334822 -14.355721 0.584 255 0 0
-5.525464 -14.725471 0.906 255 0 0
-5.333074 -14.361101 0.372 255 0 0
-5.436533 -14.557543 0.642 255 0 0
-5.399238 -14.475536 0.826 255 0 0
-5.31488 -14.32099 0.425 255 0 0
-5.328449 -14.341011 0.649 255 0 0
-5.374353 -14.437711 0.535 255 0 0
-5.395203 -14.474225 0.631 255 0 0
-5.323893 -14.329865 0.657 255 0 0
-5.506413 -14.690286 0.829 255 0 0
-5.482822 -14.64619 0.735 255 0 0
-5.467371 -14.61366 0.801 255 0 0
-5.424695 -14.529905 0.755 255 0 0
-5.455566 -14.590493 0.797 255 0 0
-5.383399 -14.451059 0.625 255 0 0
-5.480973 -14.638154 0.866 255 0 0
-5.338942 -14.368213 0.456 255 0 0
-5.349367 -14.38647 0.553 255 0 0
-5.342103 -14.372213 0.505 255 0 0
-5.287102 -14.255458 0.73 255 0 0
-5.367458 -14.413166 0.775 255 0 0
-5.378842 -14.439913 0.673 255 0 0
-5.349383 -14.388705 0.464 255 0 0
-5.367543 -14.424346 0.499 255 0 0
-5.347096 -14.382014 0.524 255 0 0
-5.320345 -14.333918 0.41 255 0 0
-5.328046 -14.346828 0.466 255 0 0
-5.293492 -14.272404 0.611 255 0 0
-5.358883 -14.402945 0.597 255 0 0
-5.544531 -14.762894 0.935 255 0 0
-5.511861 -14.700978 0.862 255 0 0
-5.415615 -14.512085 0.721 255 0 0
-5.487329 -14.650628 0.847 255 0 0
-5.457416 -14.598529 0.678 255 0 0
-5.479157 -14.63459 0.859 255 0 0
-5.311635 -14.305808 0.699 255 0 0
-5.474634 -14.627915 0.777 255 0 0
-5.411512 -14.50183 0.776 255 0 0
-5.380692 -14.447949 0.582 255 0 0
-5.321673 -14.332118 0.481 255 0 0
-5.420138 -14.518759 0.775 255 0 0
-5.392479 -14.46888 0.658 255 0 0
-5.308507 -14.306279 0.502 255 0 0
-5.33346 -14.353048 0.581 255 0 0
-5.515493 -14.708106 0.813 255 0 0
-5.279384 -14.240311 0.679 255 0 0
-5.32211 -14.330773 0.567 255 0 0
-5.362549 -14.414545 0.511 255 0 0
-5.438735 -14.553054 0.855 255 0 0
-5.281671 -14.247002 0.627 255 0 0
-5.345212 -14.369506 0.783 255 0 0
-5.352982 -14.391362 0.588 255 0 0
-5.453768 -14.589166 0.717 255 0 0
-5.343397 -14.365942 0.772 255 0 0
-5.279855 -14.243438 0.66 255 0 0
-5.363373 -14.405148 0.804 255 0 0
-5.47191 -14.622569 0.777 255 0 0
-5.398784 -14.474645 0.799 255 0 0
-5.468749 -14.618568 0.737 255 0 0
-5.40788 -14.494701 0.752 255 0 0
-5.430177 -14.545069 0.648 255 0 0
-5.322076 -14.326301 0.662 255 0 0
-5.325708 -14.333429 0.681 255 0 0
-5.417449 -14.517885 0.66 255 0 0
-5.328046 -14.346828 0.457 255 0 0
-5.510028 -14.695178 0.896 255 0 0
-5.466933 -14.615005 0.701 255 0 0
-5.324851 -14.338355 0.521 255 0 0
-5.524573 -14.725926 0.834 255 0 0
-5.371578 -14.425657 0.703 255 0 0
-5.478249 -14.632807 0.877 255 0 0
-5.548181 -14.772259 0.887 255 0 0
-5.287102 -14.255458 0.726 255 0 0
-5.431488 -14.541034 0.794 255 0 0
-5.331661 -14.351721 0.5 255 0 0
-5.423367 -14.531704 0.621 255 0 0
-5.353452 -14.394488 0.53 255 0 0
-5.449194 -14.575784 0.834 255 0 0
-5.324817 -14.333883 0.651 255 0 0
-5.419701 -14.520103 0.753 255 0 0
-5.388393 -14.46086 0.657 255 0 0
-5.363003 -14.415436 0.505 255 0 0
-5.353873 -14.390908 0.686 255 0 0
-5.304808 -14.290207 0.726 255 0 0
-5.320765 -14.330337 0.53 255 0 0
-5.483731 -14.647972 0.763 255 0 0
-5.424678 -14.527668 0.811 255 0 0
-5.311651 -14.308044 0.636 255 0 0
-5.3684 -14.41942 0.7 255 0 0
-5.340707 -14.365068 0.635 255 0 0
-5.268034 -14.218036 0.708 255 0 0
-5.434649 -14.545035 0.845 255 0 0
-5.415598 -14.509849 0.786 255 0 0
-5.350309 -14.392724 0.405 255 0 0
-5.335327 -14.36332 0.412 255 0 0
-5.431925 -14.539688 0.851 255 0 0
-5.426948 -14.532124 0.779 255 0 0
-5.424207 -14.524542 0.851 255 0 0
-5.487346 -14.652864 0.802 255 0 0
-5.395674 -14.477352 0.593 255 0 0
-5.393387 -14.470661 0.638 255 0 0
-5.53636 -14.746857 0.916 255 0 0
-5.404719 -14.490701 0.738 255 0 0
-5.288447 -14.255895 0.752 255 0 0
-5.306658 -14.298244 0.605 255 0 0
-5.36655 -14.411385 0.775 255 0 0
-5.34708 -14.379779 0.573 255 0 0
-5.372486 -14.427439 0.685 255 0 0
-5.402887 -14.4849 0.749 255 0 0
-5.512769 -14.70276 0.823 255 0 0
-5.392042 -14.470224 0.575 255 0 0
-5.355268 -14.398053 0.565 255 0 0
-5.414707 -14.510303 0.745 255 0 0
-5.388427 -14.465332 0.519 255 0 0
-5.460106 -14.599403 0.766 255 0 0
-5.362464 -14.403364 0.793 255 0 0
-5.27666 -14.234965 0.718 255 0 0
-5.330753 -14.349938 0.519 255 0 0
-5.372974 -14.432802 0.549 255 0 0
-5.256214 -14.192633 0.724 255 0 0
-5.327978 -14.337885 0.665 255 0 0
-5.439257 -14.562889 0.66 255 0 0
-5.410587 -14.497811 0.814 255 0 0
-5.387939 -14.45997 0.658 255 0 0
-5.307582 -14.302261 0.526 255 0 0
-5.419247 -14.519213 0.713 255 0 0
-5.431942 -14.541925 0.811 255 0 0
-5.464176 -14.605186 0.822 255 0 0
-5.368451 -14.426128 0.477 255 0 0
-5.533182 -14.74062 0.911 255 0 0
-5.327155 -14.347282 0.421 255 0 0
-5.52728 -14.729036 0.88 255 0 0
-5.333057 -14.358866 0.428 255 0 0
-5.302588 -14.29246 0.542 255 0 0
-5.322581 -14.3339 0.5 255 0 0
-5.412001 -14.507193 0.644 255 0 0
-5.441476 -14.560637 0.808 255 0 0
-5.298906 -14.278625 0.727 255 0 0
-5.290263 -14.259459 0.751 255 0 0
-5.3911 -14.46397 0.692 255 0 0
-5.467824 -14.614551 0.788 255 0 0
-5.394715 -14.468862 0.759 255 0 0
-5.309364 -14.301353 0.654 255 0 0
-5.396093 -14.473771 0.708 255 0 0
-5.566323 -14.805663 0.933 255 0 0
-5.394732 -14.471099 0.733 255 0 0
-5.460124 -14.60164 0.702 255 0 0
-5.335276 -14.356612 0.609 255 0 0
-5.390243 -14.468896 0.547 255 0 0
-5.332098 -14.350375 0.579 255 0 0
-5.44193 -14.561526 0.838 255 0 0
-5.322127 -14.33301 0.495 255 0 0
-5.316611 -14.313373 0.742 255 0 0
-5.35616 -14.397599 0.611 255 0 0
-5.417869 -14.514304 0.78 255 0 0
-5.30163 -14.28397 0.718 255 0 0
-5.561783 -14.796752 0.931 255 0 0
-5.375715 -14.440384 0.5 255 0 0
-5.392479 -14.46888 0.643 255 0 0
-5.352091 -14.391816 0.541 255 0 0
-5.32253 -14.327192 0.709 255 0 0
-5.4878 -14.653755 0.779 255 0 0
-5.282545 -14.244312 0.738 255 0 0
-5.293911 -14.268823 0.707 255 0 0
-5.393336 -14.463954 0.829 255 0 0
-5.500965 -14.679594 0.792 255 0 0
-5.394311 -14.474679 0.603 255 0 0
-5.341195 -14.370432 0.503 255 0 0
-5.278947 -14.241656 0.66 255 0 0
-5.459652 -14.598513 0.794 255 0 0
-5.380641 -14.441241 0.726 255 0 0
-5.53409 -14.742401 0.913 255 0 0
-5.468261 -14.613206 0.851 255 0 0
-5.515947 -14.708997 0.809 255 0 0
-5.346609 -14.376652 0.67 255 0 0
-5.347517 -14.378434 0.631 255 0 0
-5.473709 -14.623898 0.854 255 0 0
-5.332518 -14.346795 0.715 255 0 0
-5.27392 -14.227383 0.739 255 0 0
-5.336133 -14.351686 0.78 255 0 0
-5.318427 -14.316936 0.746 255 0 0
-5.408369 -14.500065 0.654 255 0 0
-5.354831 -14.399398 0.484 255 0 0
-5.453297 -14.586039 0.771 255 0 0
-5.457853 -14.597184 0.727 255 0 0
-5.433758 -14.545489 0.823 255 0 0
-5.452808 -14.580675 0.864 255 0 0
-5.403828 -14.491155 0.65 255 0 0
-5.512769 -14.70276 0.835 255 0 0
-5.510482 -14.696069 0.89 255 0 0
-5.333948 -14.358412 0.457 255 0 0
-5.341127 -14.361487 0.787 255 0 0
-5.55906 -14.791407 0.937 255 0 0
-5.353923 -14.397615 0.507 255 0 0
-5.431959 -14.544161 0.725 255 0 0
-5.334402 -14.359303 0.481 255 0 0
-5.519108 -14.712998 0.875 255 0 0
-5.400179 -14.48179 0.723 255 0 0
-5.488254 -14.654646 0.813 255 0 0
-5.47645 -14.631479 0.789 255 0 0
-5.304405 -14.296024 0.547 255 0 0
-5.524102 -14.722799 0.887 255 0 0
-5.515947 -14.708997 0.837 255 0 0
-5.39606 -14.469299 0.807 255 0 0
-5.348442 -14.382452 0.619 255 0 0
-5.381163 -14.451077 0.506 255 0 0
-5.461905 -14.600732 0.842 255 0 0
-5.353873 -14.390908 0.646 255 0 0
-5.47418 -14.627025 0.779 255 0 0
-5.338017 -14.364195 0.546 255 0 0
-5.417414 -14.513412 0.764 255 0 0
-5.391571 -14.467097 0.666 255 0 0
-5.459198 -14.597621 0.747 255 0 0
-5.4651 -14.609204 0.752 255 0 0
-5.363843 -14.408274 0.712 255 0 0
-5.453768 -14.589166 0.695 255 0 0
-5.354815 -14.397161 0.518 255 0 0
-5.320782 -14.332572 0.428 255 0 0
-5.490961 -14.657756 0.882 255 0 0
-5.429269 -14.543287 0.617 255 0 0
-5.47645 -14.631479 0.821 255 0 0
-5.32934 -14.340557 0.679 255 0 0
-5.539084 -14.752203 0.915 255 0 0
-5.459636 -14.596276 0.83 255 0 0
-5.286648 -14.254566 0.684 255 0 0
-5.331644 -14.349484 0.552 255 0 0
-5.35621 -14.404306 0.428 255 0 0
-5.30121 -14.287551 0.592 255 0 0
-5.463267 -14.603404 0.83 255 0 0
-5.422459 -14.529922 0.605 255 0 0
-5.528642 -14.731709 0.907 255 0 0
-5.282562 -14.246548 0.722 255 0 0
-5.412942 -14.513447 0.576 255 0 0
-5.326247 -14.3455 0.381 255 0 0
-5.326599 -14.332975 0.768 255 0 0
-5.34481 -14.375323 0.583 255 0 0
-5.463772 -14.611003 0.683 255 0 0
-5.408369 -14.500065 0.646 255 0 0
-5.468749 -14.618568 0.699 255 0 0
-5.384761 -14.453732 0.649 255 0 0
-5.483697 -14.643499 0.873 255 0 0
-5.259391 -14.19887 0.714 255 0 0
-5.38883 -14.459516 0.691 255 0 0
-5.395185 -14.47199 0.688 255 0 0
-5.347029 -14.373071 0.78 255 0 0
-5.406536 -14.494265 0.744 255 0 0
-5.3684 -14.41942 0.66 255 0 0
-5.441476 -14.560637 0.79 255 0 0
-5.259846 -14.199761 0.732 255 0 0
-5.396564 -14.476898 0.642 255 0 0
-5.354815 -14.397161 0.555 255 0 0
-5.352057 -14.387343 0.678 255 0 0
-5.320697 -14.321392 0.75 255 0 0
-5.35885 -14.398473 0.721 255 0 0
-5.332047 -14.343668 0.752 255 0 0
-5.380204 -14.442586 0.665 255 0 0
-5.396093 -14.473771 0.691 255 0 0
-5.366635 -14.422564 0.524 255 0 0
-5.348022 -14.386033 0.452 255 0 0
-5.558151 -14.789625 0.922 255 0 0
-5.4651 -14.609204 0.78 255 0 0
-5.372923 -14.426094 0.752 255 0 0
-5.279855 -14.243438 0.624 255 0 0
-5.524119 -14.725036 0.834 255 0 0
-5.322967 -14.325847 0.754 255 0 0
-5.401593 -14.491172 0.563 255 0 0
-5.398801 -14.476882 0.742 255 0 0
-5.367929 -14.416292 0.712 255 0 0
-5.259391 -14.19887 0.725 255 0 0
-5.354326 -14.391799 0.679 255 0 0
-5.366181 -14.421673 0.525 255 0 0
-5.329391 -14.347265 0.542 255 0 0
-5.379313 -14.44304 0.652 255 0 0
-5.30348 -14.292006 0.579 255 0 0
-5.376589 -14.437695 0.627 255 0 0
-5.459216 -14.599857 0.691 255 0 0
-5.475071 -14.62657 0.836 255 0 0
-5.29709 -14.27506 0.731 255 0 0
-5.401979 -14.483119 0.765 255 0 0
-5.362078 -14.411418 0.582 255 0 0
-5.440114 -14.557963 0.788 255 0 0
-5.355302 -14.402525 0.421 255 0 0
-5.461452 -14.59984 0.851 255 0 0
-5.402483 -14.490718 0.597 255 0 0
-5.437407 -14.554853 0.744 255 0 0
-5.409696 -14.498265 0.769 255 0 0
-5.288044 -14.261712 0.609 255 0 0
-5.355217 -14.391344 0.734 255 0 0
-5.333965 -14.360647 0.391 255 0 0
-5.298048 -14.28355 0.514 255 0 0
-5.366601 -14.418092 0.593 255 0 0
-5.531366 -14.737056 0.891 255 0 0
-5.376101 -14.432331 0.721 255 0 0
-5.318882 -14.317828 0.747 255 0 0
-5.402416 -14.481773 0.835 255 0 0
-5.493685 -14.663102 0.847 255 0 0
-5.305716 -14.291988 0.698 255 0 0
-5.524573 -14.725926 0.825 255 0 0
-5.429269 -14.543287 0.642 255 0 0
-5.298469 -14.279968 0.676 255 0 0
-5.301244 -14.292023 0.512 255 0 0
-5.362549 -14.414545 0.479 255 0 0
-5.427839 -14.53167 0.845 255 0 0
-5.303496 -14.294242 0.524 255 0 0
-5.491903 -14.66401 0.752 255 0 0
-5.328063 -14.349065 0.418 255 0 0
-5.31799 -14.318282 0.689 255 0 0
-5.510953 -14.699196 0.828 255 0 0
-5.335781 -14.364211 0.43 255 0 0
-5.47872 -14.635935 0.79 255 0 0
-5.554974 -14.783388 0.922 255 0 0
-5.340757 -14.371777 0.467 255 0 0
-5.42789 -14.538378 0.711 255 0 0
-5.45829 -14.59584 0.756 255 0 0
-5.403375 -14.490264 0.661 255 0 0
-5.340775 -14.374013 0.396 255 0 0
-5.373411 -14.431458 0.616 255 0 0
-5.279384 -14.240311 0.699 255 0 0
-5.414253 -14.509412 0.72 255 0 0
-5.454641 -14.586474 0.814 255 0 0
-5.376623 -14.442166 0.49 255 0 0
-5.382457 -14.444805 0.742 255 0 0
-5.394698 -14.466626 0.808 255 0 0
-5.473726 -14.626134 0.763 255 0 0
-5.460106 -14.599403 0.768 255 0 0
-5.340219 -14.359706 0.774 255 0 0
-5.432413 -14.545052 0.76 255 0 0
-5.426057 -14.532578 0.732 255 0 0
-5.282142 -14.250129 0.573 255 0 0
-5.337143 -14.366884 0.436 255 0 0
-5.541824 -14.759785 0.885 255 0 0
-5.512315 -14.701869 0.823 255 0 0
-5.442821 -14.561072 0.855 255 0 0
-5.267126 -14.216253 0.684 255 0 0
-5.431522 -14.545506 0.683 255 0 0
-5.432447 -14.549524 0.634 255 0 0
-5.475996 -14.630589 0.77 255 0 0
-5.389738 -14.461297 0.723 255 0 0
-5.403358 -14.488028 0.738 255 0 0
-5.3607 -14.406509 0.624 255 0 0
-5.431959 -14.544161 0.727 255 0 0
-5.335781 -14.364211 0.415 255 0 0
-5.328012 -14.342357 0.594 255 0 0
-5.489616 -14.657319 0.785 255 0 0
-5.40884 -14.503192 0.591 255 0 0
-5.314393 -14.315626 0.586 255 0 0
-5.334873 -14.36243 0.396 255 0 0
-5.341631 -14.369086 0.595 255 0 0
-5.348022 -14.386033 0.484 255 0 0
-5.373394 -14.42922 0.676 255 0 0
-5.518654 -14.712108 0.874 255 0 0
-5.34977 -14.380652 0.709 255 0 0
-5.341144 -14.363723 0.707 255 0 0
-5.397053 -14.482262 0.552 255 0 0
-5.306221 -14.299588 0.572 255 0 0
-5.361136 -14.405164 0.664 255 0 0
-5.471019 -14.623023 0.716 255 0 0
-5.348947 -14.390051 0.407 255 0 0
-5.364281 -14.406929 0.798 255 0 0
-5.327575 -14.343701 0.499 255 0 0
-5.416103 -14.517447 0.61 255 0 0
-5.460106 -14.599403 0.795 255 0 0
-5.382894 -14.44346 0.82 255 0 0
-5.383365 -14.446588 0.772 255 0 0
-5.331173 -14.346357 0.663 255 0 0
-5.401088 -14.483573 0.701 255 0 0
-5.325305 -14.339247 0.533 255 0 0
-5.391588 -14.469334 0.564 255 0 0
-5.463267 -14.603404 0.838 255 0 0
-5.436028 -14.549944 0.785 255 0 0
-5.332535 -14.34903 0.641 255 0 0
-5.349383 -14.388705 0.502 255 0 0
-5.412454 -14.508083 0.64 255 0 0
-5.273936 -14.229619 0.706 255 0 0
-5.524119 -14.725036 0.852 255 0 0
-5.475542 -14.629698 0.797 255 0 0
-5.426999 -14.538832 0.601 255 0 0
-5.372469 -14.425203 0.763 255 0 0
-5.357504 -14.398036 0.662 255 0 0
-5.456004 -14.589149 0.849 255 0 0
-5.357101 -14.403852 0.495 255 0 0
-5.329425 -14.351737 0.416 255 0 0
-5.307129 -14.301371 0.542 255 0 0
-5.351603 -14.386453 0.636 255 0 0
-5.50416 -14.688067 0.793 255 0 0
-5.312525 -14.305354 0.751 255 0 0
-5.320243 -14.320501 0.723 255 0 0
-5.297998 -14.276842 0.727 255 0 0
-5.411109 -14.507647 0.586 255 0 0
-5.274407 -14.232746 0.656 255 0 0
-5.444671 -14.569109 0.759 255 0 0
-5.313921 -14.312499 0.611 255 0 0
-5.381549 -14.443024 0.726 255 0 0
-5.360734 -14.410981 0.475 255 0 0
-5.461939 -14.605204 0.742 255 0 0
-5.431017 -14.537907 0.853 255 0 0
-5.282142 -14.250129 0.594 255 0 0
-5.36756 -14.426582 0.461 255 0 0
-5.367526 -14.42211 0.561 255 0 0
-5.338403 -14.356142 0.781 255 0 0
-5.535469 -14.747311 0.852 255 0 0
-5.466916 -14.612768 0.772 255 0 0
-5.398415 -14.484935 0.56 255 0 0
-5.477375 -14.635498 0.742 255 0 0
-5.401525 -14.482227 0.799 255 0 0
-5.378422 -14.443494 0.576 255 0 0
-5.395657 -14.475117 0.636 255 0 0
-5.489161 -14.656427 0.801 255 0 0
-5.468261 -14.613206 0.817 255 0 0
-5.334822 -14.355721 0.596 255 0 0
-5.352074 -14.38958 0.57 255 0 0
-5.464176 -14.605186 0.822 255 0 0
-5.278476 -14.238529 0.683 255 0 0
-5.456928 -14.593165 0.756 255 0 0
-5.283958 -14.253693 0.59 255 0 0
-5.287556 -14.256349 0.681 255 0 0
-5.427419 -14.535251 0.724 255 0 0
-5.557243 -14.787843 0.921 255 0 0
-5.387519 -14.463551 0.5 255 0 0
-5.347988 -14.38156 0.571 255 0 0
-5.45787 -14.599421 0.684 255 0 0
-5.435154 -14.552634 0.665 255 0 0
-5.345769 -14.383814 0.401 255 0 0
-5.4442 -14.565982 0.827 255 0 0
-5.473255 -14.623007 0.822 255 0 0
-5.4878 -14.653755 0.809 255 0 0
-5.323977 -14.341045 0.388 255 0 0
-5.457366 -14.591822 0.846 255 0 0
-5.396145 -14.480479 0.556 255 0 0
-5.361591 -14.406055 0.649 255 0 0
-5.323001 -14.330319 0.618 255 0 0
-5.33489 -14.364665 0.373 255 0 0
-5.3076 -14.304497 0.488 255 0 0
-5.506413 -14.690286 0.811 255 0 0
-5.315317 -14.319644 0.515 255 0 0
-5.328415 -14.336539 0.756 255 0 0
-5.344322 -14.36996 0.723 255 0 0
-5.289843 -14.26304 0.675 255 0 0
-5.334402 -14.359303 0.466 255 0 0
-5.515476 -14.705871 0.89 255 0 0
-5.434195 -14.544144 0.837 255 0 0
-5.30121 -14.287551 0.604 255 0 0
-5.414741 -14.514774 0.609 255 0 0
-5.270321 -14.224727 0.639 255 0 0
-5.327961 -14.335649 0.735 255 0 0
-5.502311 -14.680031 0.901 255 0 0
-5.414236 -14.507175 0.773 255 0 0
-5.348391 -14.375744 0.796 255 0 0
-5.494609 -14.66712 0.81 255 0 0
-5.352091 -14.391816 0.55 255 0 0
-5.350241 -14.38378 0.664 255 0 0
-5.52728 -14.729036 0.916 255 0 0
-5.362482 -14.405602 0.713 255 0 0
-5.472818 -14.624352 0.791 255 0 0
-5.385249 -14.459095 0.534 255 0 0
-5.409243 -14.497375 0.781 255 0 0
-5.411983 -14.504956 0.71 255 0 0
-5.364785 -14.414528 0.639 255 0 0
-5.346172 -14.377996 0.584 255 0 0
-5.351131 -14.383326 0.702 255 0 0
-5.456945 -14.595403 0.743 255 0 0
-5.426948 -14.532124 0.813 255 0 0
-5.424678 -14.527668 0.785 255 0 0
-5.339396 -14.369103 0.476 255 0 0
-5.48553 -14.6493 0.788 255 0 0
-5.396548 -14.474663 0.695 255 0 0
-5.373445 -14.435929 0.491 255 0 0
-5.355268 -14.398053 0.549 255 0 0
-5.341161 -14.36596 0.619 255 0 0
-5.43243 -14.547288 0.699 255 0 0
-5.315703 -14.311591 0.713 255 0 0
-5.441981 -14.568235 0.661 255 0 0
-5.381129 -14.446604 0.632 255 0 0
-5.549997 -14.775823 0.885 255 0 0
-5.27212 -14.226055 0.689 255 0 0
-5.370687 -14.426111 0.604 255 0 0
-5.43243 -14.547288 0.709 255 0 0
-5.298066 -14.285786 0.505 255 0 0
-5.462376 -14.603858 0.751 255 0 0
-5.436045 -14.55218 0.746 255 0 0
-5.418373 -14.521903 0.617 255 0 0
-5.334317 -14.348123 0.764 255 0 0
-5.380187 -14.440351 0.746 255 0 0
-5.43243 -14.547288 0.686 255 0 0
-5.520487 -14.717907 0.813 255 0 0
-5.352494 -14.385999 0.69 255 0 0
-5.42831 -14.534797 0.807 255 0 0
-5.511861 -14.700978 0.853 255 0 0
-5.340304 -14.370886 0.465 255 0 0
-5.400667 -14.487153 0.597 255 0 0
-5.464629 -14.606077 0.831 255 0 0
-5.464176 -14.605186 0.814 255 0 0
-5.369762 -14.422093 0.695 255 0 0
-5.28801 -14.25724 0.724 255 0 0
-5.412874 -14.504502 0.789 255 0 0
-5.330231 -14.340103 0.754 255 0 0
-5.342103 -14.372213 0.509 255 0 0
-5.347046 -14.375307 0.685 255 0 0
-5.293492 -14.272404 0.569 255 0 0
-5.345752 -14.381577 0.472 255 0 0
-5.411966 -14.50272 0.755 255 0 0
-5.343011 -14.373996 0.553 255 0 0
-5.330685 -14.340995 0.774 255 0 0
-5.386543 -14.452825 0.756 255 0 0
-5.332149 -14.357083 0.413 255 0 0
-5.29709 -14.27506 0.733 255 0 0
-5.306221 -14.299588 0.542 255 0 0
-5.429218 -14.536579 0.825 255 0 0
-5.455095 -14.587366 0.811 255 0 0
-5.52047 -14.715672 0.886 255 0 0
-5.431942 -14.541925 0.807 255 0 0
-5.391571 -14.467097 0.664 255 0 0
-5.361573 -14.403818 0.727 255 0 0
-5.293946 -14.273295 0.592 255 0 0
-5.436499 -14.553071 0.728 255 0 0
-5.362499 -14.407837 0.665 255 0 0
-5.392916 -14.467534 0.692 255 0 0
-5.40245 -14.486245 0.711 255 0 0
-5.338857 -14.357032 0.773 255 0 0
-5.299394 -14.283987 0.59 255 0 0
-5.422896 -14.528577 0.651 255 0 0
-5.348408 -14.37798 0.706 255 0 0
-5.411983 -14.504956 0.746 255 0 0
-5.405593 -14.48801 0.836 255 0 0
-5.375732 -14.44262 0.476 255 0 0
-5.403845 -14.49339 0.612 255 0 0
-5.335747 -14.359739 0.501 255 0 0
-5.335747 -14.359739 0.544 255 0 0
-5.342069 -14.367742 0.622 255 0 0
-5.362549 -14.414545 0.473 255 0 0
-5.33847 -14.365086 0.553 255 0 0
-5.464629 -14.606077 0.829 255 0 0
-5.307549 -14.29779 0.675 255 0 0
-5.298486 -14.282205 0.586 255 0 0
-5.311198 -14.307154 0.604 255 0 0
-5.326718 -14.348627 0.359 255 0 0
-5.472818 -14.624352 0.791 255 0 0
-5.4043 -14.494282 0.615 255 0 0
-5.345684 -14.372633 0.729 255 0 0
-5.434683 -14.549507 0.763 255 0 0
-5.343868 -14.36907 0.697 255 0 0
-5.329323 -14.338321 0.763 255 0 0
-5.496896 -14.673811 0.765 255 0 0
-5.398364 -14.478227 0.728 255 0 0
-5.310709 -14.30179 0.755 255 0 0
-5.448791 -14.5816 0.665 255 0 0
-5.389335 -14.467114 0.507 255 0 0
-5.409714 -14.500502 0.748 255 0 0
-5.280292 -14.242093 0.697 255 0 0
-5.445125 -14.570001 0.755 255 0 0
-5.440568 -14.558854 0.818 255 0 0
-5.317587 -14.3241 0.475 255 0 0
-5.501873 -14.681376 0.793 255 0 0
-5.381163 -14.451077 0.54 255 0 0
-5.337495 -14.35436 0.759 255 0 0
-5.453279 -14.583802 0.853 255 0 0
-5.278493 -14.240765 0.606 255 0 0
-5.365727 -14.420782 0.47 255 0 0
-5.514568 -14.704087 0.865 255 0 0
-5.355705 -14.396708 0.603 255 0 0
-5.311181 -14.304916 0.653 255 0 0
-5.288061 -14.263947 0.541 255 0 0
-5.326684 -14.344155 0.433 255 0 0
-5.382037 -14.448386 0.619 255 0 0
-5.398347 -14.47599 0.762 255 0 0
-5.431068 -14.544615 0.679 255 0 0
-5.490507 -14.656865 0.874 255 0 0
-5.322514 -14.324957 0.719 255 0 0
-5.448303 -14.576238 0.767 255 0 0
-5.323943 -14.336574 0.527 255 0 0
-5.440619 -14.565562 0.629 255 0 0
-5.384727 -14.449261 0.759 255 0 0
-5.294416 -14.276422 0.532 255 0 0
-5.349854 -14.391832 0.417 255 0 0
-5.42335 -14.529468 0.684 255 0 0
-5.531837 -14.740183 0.844 255 0 0
-5.381617 -14.451967 0.505 255 0 0
-5.427856 -14.533905 0.785 255 0 0
-5.345315 -14.382922 0.417 255 0 0
-5.273499 -14.230964 0.615 255 0 0
-5.393824 -14.469316 0.678 255 0 0
-5.32665 -14.339684 0.564 255 0 0
-5.275298 -14.232292 0.71 255 0 0
-5.460594 -14.604766 0.669 255 0 0
-5.333897 -14.351703 0.612 255 0 0
-5.303968 -14.297369 0.486 255 0 0
-5.532728 -14.739729 0.893 255 0 0
-5.32164 -14.327646 0.598 255 0 0
-5.289406 -14.264385 0.598 255 0 0
-5.523211 -14.723253 0.838 255 0 0
-5.532728 -14.739729 0.893 255 0 0
-5.301647 -14.286205 0.666 255 0 0
-5.495955 -14.667557 0.859 255 0 0
-5.325708 -14.333429 0.658 255 0 0
-5.310238 -14.298663 0.769 255 0 0
-5.37563 -14.429204 0.797 255 0 0
-5.531383 -14.739291 0.856 255 0 0
-5.387014 -14.455952 0.671 255 0 0
-5.349854 -14.391832 0.436 255 0 0
-5.36983 -14.431037 0.457 255 0 0
-5.318495 -14.325881 0.504 255 0 0
-5.305262 -14.291099 0.713 255 0 0
-5.28305 -14.251911 0.572 255 0 0
-5.521378 -14.717453 0.889 255 0 0
-5.333982 -14.362884 0.365 255 0 0
-5.281654 -14.244766 0.702 255 0 0
-5.363423 -14.411855 0.629 255 0 0
-5.426023 -14.528106 0.828 255 0 0
-5.284378 -14.250112 0.726 255 0 0
-5.531366 -14.737056 0.908 255 0 0
-5.292601 -14.272858 0.538 255 0 0
-5.473743 -14.628369 0.721 255 0 0
-5.366181 -14.421673 0.518 255 0 0
-5.360212 -14.401146 0.747 255 0 0
-5.421954 -14.522323 0.803 255 0 0
-5.344844 -14.379796 0.49 255 0 0
-5.428798 -14.54016 0.675 255 0 0
-5.382524 -14.453749 0.524 255 0 0
-5.52501 -14.724582 0.914 255 0 0
-5.273936 -14.229619 0.702 255 0 0
-5.330265 -14.344576 0.655 255 0 0
-5.316191 -14.316955 0.647 255 0 0
-5.348845 -14.376635 0.749 255 0 0
-5.291188 -14.263477 0.687 255 0 0
-5.388881 -14.466224 0.531 255 0 0
-5.392059 -14.472461 0.521 255 0 0
-5.306674 -14.300479 0.564 255 0 0
-5.357488 -14.3958 0.723 255 0 0
-5.413833 -14.512993 0.585 255 0 0
-5.539084 -14.752203 0.916 255 0 0
-5.278022 -14.237638 0.683 255 0 0
-5.50369 -14.68494 0.835 255 0 0
-5.318983 -14.331244 0.408 255 0 0
-5.270304 -14.22249 0.695 255 0 0
-5.356613 -14.39849 0.605 255 0 0
-5.323506 -14.337918 0.43 255 0 0
-5.330282 -14.346811 0.568 255 0 0
-5.284378 -14.250112 0.726 255 0 0
-5.365222 -14.413183 0.668 255 0 0
-5.413379 -14.512101 0.595 255 0 0
-5.341615 -14.366851 0.636 255 0 0
-5.299343 -14.277279 0.746 255 0 0
-5.442838 -14.563309 0.788 255 0 0
-5.47418 -14.627025 0.793 255 0 0
-5.33304 -14.356629 0.446 255 0 0
-5.496426 -14.670684 0.816 255 0 0
-5.383433 -14.455531 0.523 255 0 0
-5.321202 -14.328991 0.565 255 0 0
-5.416994 -14.516994 0.693 255 0 0
-5.497787 -14.673357 0.822 255 0 0
-5.406586 -14.500973 0.57 255 0 0
-5.347114 -14.384251 0.481 255 0 0
-5.338403 -14.356142 0.751 255 0 0
-5.298486 -14.282205 0.573 255 0 0
-5.512752 -14.700524 0.87 255 0 0
-5.448773 -14.579364 0.706 255 0 0
-5.416961 -14.512522 0.77 255 0 0
-5.486438 -14.651082 0.784 255 0 0
-5.377446 -14.432768 0.78 255 0 0
-5.407023 -14.499627 0.617 255 0 0
-5.367089 -14.423455 0.494 255 0 0
-5.541808 -14.757548 0.927 255 0 0
-5.497334 -14.672466 0.801 255 0 0
-5.311651 -14.308044 0.622 255 0 0
-5.390243 -14.468896 0.537 255 0 0
-5.345718 -14.377106 0.582 255 0 0
-5.358009 -14.405635 0.509 255 0 0
-5.418339 -14.517431 0.736 255 0 0
-5.471439 -14.619443 0.865 255 0 0
-5.277568 -14.236747 0.695 255 0 0
-5.348391 -14.375744 0.788 255 0 0
-5.324329 -14.328521 0.737 255 0 0
-5.430597 -14.541488 0.721 255 0 0
-5.470565 -14.622132 0.749 255 0 0
-5.535469 -14.747311 0.871 255 0 0
-5.283016 -14.247439 0.704 255 0 0
-5.318041 -14.32499 0.499 255 0 0
-5.310743 -14.306262 0.62 255 0 0
-5.526389 -14.72949 0.855 255 0 0
-5.4043 -14.494282 0.575 255 0 0
-5.360734 -14.410981 0.477 255 0 0
-5.418793 -14.518322 0.751 255 0 0
-5.483697 -14.643499 0.883 255 0 0
-5.50458 -14.684486 0.906 255 0 0
-5.400197 -14.484027 0.671 255 0 0
-5.343448 -14.372651 0.569 255 0 0
-5.422862 -14.524105 0.812 255 0 0
-5.502765 -14.680923 0.873 255 0 0
-5.353907 -14.39538 0.516 255 0 0
-5.487782 -14.651518 0.848 255 0 0
-5.388376 -14.458625 0.672 255 0 0
-5.343448 -14.372651 0.581 255 0 0
-5.410587 -14.497811 0.835 255 0 0
-5.416994 -14.516994 0.651 255 0 0
-5.421988 -14.526794 0.657 255 0 0
-5.314393 -14.315626 0.549 255 0 0
-5.312122 -14.311172 0.544 255 0 0
-5.289843 -14.26304 0.629 255 0 0
-5.299411 -14.286223 0.514 255 0 0
-5.343397 -14.365942 0.765 255 0 0
-5.294871 -14.277313 0.561 255 0 0
-5.486001 -14.652427 0.765 255 0 0
-5.540446 -14.754875 0.925 255 0 0
-5.287556 -14.256349 0.732 255 0 0
-5.316191 -14.316955 0.61 255 0 0
-5.519562 -14.713889 0.915 255 0 0
-5.309381 -14.303589 0.587 255 0 0
-5.396145 -14.480479 0.548 255 0 0
-5.357471 -14.393564 0.765 255 0 0
-5.477358 -14.633262 0.816 255 0 0
-5.323893 -14.329865 0.665 255 0 0
-5.477375 -14.635498 0.733 255 0 0
-5.368383 -14.417184 0.752 255 0 0
-5.446958 -14.5758 0.703 255 0 0
-5.345735 -14.379342 0.511 255 0 0
-5.30802 -14.300917 0.618 255 0 0
-5.538647 -14.753548 0.88 255 0 0
-5.417919 -14.521011 0.603 255 0 0
-5.334368 -14.354831 0.601 255 0 0
-5.301244 -14.292023 0.511 255 0 0
-5.571317 -14.815463 0.934 255 0 0
-5.376084 -14.430096 0.784 255 0 0
-5.357488 -14.3958 0.701 255 0 0
-5.317151 -14.325444 0.461 255 0 0
-5.336201 -14.360631 0.511 255 0 0
-5.347029 -14.373071 0.761 255 0 0
-5.302572 -14.290224 0.598 255 0 0
-5.300722 -14.282188 0.695 255 0 0
-5.480065 -14.636372 0.83 255 0 0
-5.377968 -14.442603 0.574 255 0 0
-5.351569 -14.381981 0.792 255 0 0
-5.521832 -14.718345 0.907 255 0 0
-5.28347 -14.24833 0.718 255 0 0
-5.345315 -14.382922 0.446 255 0 0
-5.384256 -14.446134 0.809 255 0 0
-5.342994 -14.371759 0.581 255 0 0
-5.350678 -14.382435 0.73 255 0 0
-5.307111 -14.299133 0.636 255 0 0
-5.369308 -14.421202 0.678 255 0 0
-5.25803 -14.196198 0.719 255 0 0
-5.33847 -14.365086 0.505 255 0 0
-5.436079 -14.556652 0.641 255 0 0
-5.336218 -14.362866 0.475 255 0 0
-5.485093 -14.650644 0.768 255 0 0
-5.474634 -14.627915 0.764 255 0 0
-5.357942 -14.396691 0.697 255 0 0
-5.372452 -14.422967 0.806 255 0 0
-5.3076 -14.304497 0.501 255 0 0
-5.317974 -14.316047 0.727 255 0 0
-5.288464 -14.25813 0.709 255 0 0
-5.3153 -14.317409 0.573 255 0 0
-5.337546 -14.361068 0.599 255 0 0
-5.361187 -14.411872 0.486 255 0 0
-5.27212 -14.226055 0.712 255 0 0
-5.325254 -14.332538 0.701 255 0 0
-5.288481 -14.260367 0.637 255 0 0
-5.257122 -14.194416 0.718 255 0 0
-5.386072 -14.449697 0.792 255 0 0
-5.409696 -14.498265 0.784 255 0 0
-5.388847 -14.461751 0.619 255 0 0
-5.464646 -14.608314 0.788 255 0 0
-5.43739 -14.552617 0.822 255 0 0
-5.329845 -14.348157 0.5 255 0 0
-5.287556 -14.256349 0.724 255 0 0
-5.29028 -14.261695 0.707 255 0 0
-5.275281 -14.230056 0.743 255 0 0
-5.385669 -14.455514 0.628 255 0 0
-5.346206 -14.382468 0.452 255 0 0
-5.261208 -14.202435 0.721 255 0 0
-5.293963 -14.275531 0.532 255 0 0
-5.346121 -14.371289 0.774 255 0 0
-5.304337 -14.28708 0.762 255 0 0
-5.319353 -14.320955 0.665 255 0 0
-5.452389 -14.584256 0.789 255 0 0
-5.398347 -14.47599 0.751 255 0 0
-5.283487 -14.250566 0.665 255 0 0
-5.352965 -14.389126 0.629 255 0 0
-5.28574 -14.252785 0.676 255 0 0
-5.504143 -14.685831 0.851 255 0 0
-5.293911 -14.268823 0.723 255 0 0
-5.32169 -14.334354 0.45 255 0 0
-5.395219 -14.476461 0.579 255 0 0
-5.40788 -14.494701 0.794 255 0 0
-5.431976 -14.546397 0.675 255 0 0
-5.352494 -14.385999 0.703 255 0 0
-5.408318 -14.493357 0.809 255 0 0
-5.47006 -14.614533 0.882 255 0 0
-5.288447 -14.255895 0.742 255 0 0
-5.303009 -14.288879 0.68 255 0 0
-5.429723 -14.544178 0.605 255 0 0
-5.301663 -14.288442 0.617 255 0 0
-5.417902 -14.518776 0.666 255 0 0
-5.406536 -14.494265 0.729 255 0 0
-5.377531 -14.443948 0.517 255 0 0
-5.459669 -14.600748 0.725 255 0 0
-5.329374 -14.34503 0.585 255 0 0
-5.45555 -14.588258 0.847 255 0 0
-5.358883 -14.402945 0.608 255 0 0
-5.436516 -14.555307 0.705 255 0 0
-5.440165 -14.564671 0.665 255 0 0
-5.515022 -14.704979 0.874 255 0 0
-5.313064 -14.317425 0.457 255 0 0
-5.4651 -14.609204 0.795 255 0 0
-5.382962 -14.452404 0.587 255 0 0
-5.416943 -14.510285 0.834 255 0 0
-5.55499 -14.785624 0.905 255 0 0
-5.38387 -14.454186 0.604 255 0 0
-5.3039 -14.288425 0.748 255 0 0
-5.399692 -14.476428 0.81 255 0 0
-5.387434 -14.452371 0.802 255 0 0
-5.514114 -14.703197 0.89 255 0 0
-5.557697 -14.788733 0.927 255 0 0
-5.466916 -14.612768 0.777 255 0 0
-5.304371 -14.291553 0.644 255 0 0
-5.569955 -14.812791 0.945 255 0 0
-5.440568 -14.558854 0.819 255 0 0
-5.447412 -14.576692 0.727 255 0 0
-5.391605 -14.471569 0.554 255 0 0
-5.411058 -14.500938 0.762 255 0 0
-5.332064 -14.345903 0.709 255 0 0
-5.557697 -14.788733 0.931 255 0 0
-5.352931 -14.384653 0.773 255 0 0
-5.533653 -14.743747 0.859 255 0 0
-5.442418 -14.56689 0.723 255 0 0
-5.507321 -14.692067 0.832 255 0 0
-5.407897 -14.496938 0.73 255 0 0
-5.27893 -14.239419 0.67 255 0 0
-5.433338 -14.54907 0.709 255 0 0
-5.318949 -14.326773 0.476 255 0 0
-5.402432 -14.48401 0.745 255 0 0
-5.422391 -14.520977 0.849 255 0 0
-5.466479 -14.614114 0.728 255 0 0
-5.360665 -14.402037 0.746 255 0 0
-5.351654 -14.393161 0.486 255 0 0
-5.398835 -14.481354 0.643 255 0 0
-5.432901 -14.550415 0.601 255 0 0
-5.436953 -14.553962 0.773 255 0 0
-5.347029 -14.373071 0.779 255 0 0
-5.408318 -14.493357 0.83 255 0 0
-5.309398 -14.305825 0.541 255 0 0
-5.397019 -14.47779 0.647 255 0 0
-5.282108 -14.245656 0.72 255 0 0
-5.546802 -14.767349 0.934 255 0 0
-5.430597 -14.541488 0.755 255 0 0
-5.517292 -14.709435 0.916 255 0 0
-5.470565 -14.622132 0.707 255 0 0
-5.297998 -14.276842 0.695 255 0 0
-5.264857 -14.211799 0.702 255 0 0
-5.348862 -14.37887 0.727 255 0 0
-5.430177 -14.545069 0.647 255 0 0
-5.38572 -14.462222 0.492 255 0 0
-5.457853 -14.597184 0.744 255 0 0
-5.38883 -14.459516 0.703 255 0 0
-5.291205 -14.265713 0.671 255 0 0
-5.434263 -14.553088 0.617 255 0 0
-5.493248 -14.664447 0.837 255 0 0
-5.348896 -14.383343 0.572 255 0 0
-5.447378 -14.572219 0.844 255 0 0
-5.372469 -14.425203 0.734 255 0 0
-5.321606 -14.323174 0.751 255 0 0
-5.416489 -14.509395 0.819 255 0 0
-5.343011 -14.373996 0.532 255 0 0
-5.551358 -14.778496 0.891 255 0 0
-5.324346 -14.330756 0.69 255 0 0
-5.390226 -14.46666 0.579 255 0 0
-5.406586 -14.500973 0.557 255 0 0
-5.459216 -14.599857 0.735 255 0 0
-5.300722 -14.282188 0.714 255 0 0
-5.290734 -14.262586 0.734 255 0 0
-5.273936 -14.229619 0.704 255 0 0
-5.465991 -14.60875 0.822 255 0 0
-5.336235 -14.365103 0.419 255 0 0
-5.268488 -14.218926 0.698 255 0 0
-5.329323 -14.338321 0.746 255 0 0
-5.49688 -14.671575 0.797 255 0 0
-5.461048 -14.605658 0.682 255 0 0
-5.394766 -14.475571 0.599 255 0 0
-5.387014 -14.455952 0.712 255 0 0
-5.309835 -14.304481 0.6 255 0 0
-5.412488 -14.512555 0.569 255 0 0
-5.363441 -14.414091 0.559 255 0 0
-5.386106 -14.454169 0.678 255 0 0
-5.478737 -14.63817 0.743 255 0 0
-5.431488 -14.541034 0.802 255 0 0
-5.294854 -14.275077 0.569 255 0 0
-5.391605 -14.471569 0.552 255 0 0
-5.413396 -14.514338 0.556 255 0 0
-5.385703 -14.459987 0.537 255 0 0
-5.518217 -14.713452 0.822 255 0 0
-5.362061 -14.409182 0.626 255 0 0
-5.44874 -14.574892 0.827 255 0 0
-5.380675 -14.445713 0.623 255 0 0
-5.397456 -14.476444 0.718 255 0 0
-5.442889 -14.570017 0.654 255 0 0
-5.318915 -14.3223 0.643 255 0 0
-5.425166 -14.533031 0.653 255 0 0
-5.425183 -14.535268 0.65 255 0 0
-5.308911 -14.300463 0.694 255 0 0
-5.289826 -14.260803 0.722 255 0 0
-5.41242 -14.503612 0.801 255 0 0
-5.557697 -14.788733 0.919 255 0 0
-5.412017 -14.509429 0.63 255 0 0
-5.463738 -14.606531 0.79 255 0 0
-5.354831 -14.399398 0.484 255 0 0
-5.398835 -14.481354 0.651 255 0 0
-5.362533 -14.412309 0.58 255 0 0
-5.344305 -14.367724 0.793 255 0 0
-5.319823 -14.324082 0.638 255 0 0
-5.397422 -14.471972 0.797 255 0 0
-5.313519 -14.318316 0.417 255 0 0
-5.420626 -14.524122 0.679 255 0 0
-5.474634 -14.627915 0.807 255 0 0
-5.397961 -14.484043 0.547 255 0 0
-5.291642 -14.264368 0.728 255 0 0
-5.402416 -14.481773 0.824 255 0 0
-5.375176 -14.428312 0.817 255 0 0
-5.376589 -14.437695 0.652 255 0 0
-5.292079 -14.263023 0.743 255 0 0
-5.556789 -14.786952 0.917 255 0 0
-5.336167 -14.356158 0.664 255 0 0
-5.324817 -14.333883 0.649 255 0 0
-5.291222 -14.267949 0.578 255 0 0
-5.463267 -14.603404 0.83 255 0 0
-5.4006 -14.478209 0.826 255 0 0
-5.478703 -14.633698 0.875 255 0 0
-5.384273 -14.448369 0.732 255 0 0
-5.267109 -14.214017 0.714 255 0 0
-5.291188 -14.263477 0.731 255 0 0
-5.451447 -14.578002 0.856 255 0 0
-5.328432 -14.338775 0.712 255 0 0
-5.293509 -14.27464 0.537 255 0 0
-5.348039 -14.388268 0.417 255 0 0
-5.424241 -14.529014 0.73 255 0 0
-5.413833 -14.512993 0.58 255 0 0
-5.343045 -14.378468 0.409 255 0 0
-5.554519 -14.782496 0.92 255 0 0
-5.327507 -14.334758 0.74 255 0 0
-5.395219 -14.476461 0.586 255 0 0
-5.372503 -14.429675 0.628 255 0 0
-5.353873 -14.390908 0.685 255 0 0
-5.278493 -14.240765 0.635 255 0 0
-5.353873 -14.390908 0.666 255 0 0
-5.449211 -14.578019 0.756 255 0 0
-5.411041 -14.498703 0.823 255 0 0
-5.409225 -14.495139 0.83 255 0 0
-5.279872 -14.245674 0.603 255 0 0
-5.44193 -14.561526 0.799 255 0 0
-5.357555 -14.404744 0.488 255 0 0
-5.422391 -14.520977 0.847 255 0 0
-5.465134 -14.613676 0.685 255 0 0
-5.347585 -14.387378 0.445 255 0 0
-5.341631 -14.369086 0.601 255 0 0
-5.368837 -14.418076 0.727 255 0 0
-5.320748 -14.3281 0.57 255 0 0
-5.330787 -14.35441 0.406 255 0 0
-5.401542 -14.484464 0.715 255 0 0
-5.467807 -14.612314 0.816 255 0 0
-5.31757 -14.321863 0.587 255 0 0
-5.404249 -14.487574 0.762 255 0 0
-5.320294 -14.327209 0.544 255 0 0
-5.539084 -14.752203 0.91 255 0 0
-5.395203 -14.474225 0.646 255 0 0
-5.392513 -14.473351 0.506 255 0 0
-5.406098 -14.495609 0.652 255 0 0
-5.419718 -14.52234 0.685 255 0 0
-5.497804 -14.675592 0.775 255 0 0
-5.514602 -14.70856 0.8 255 0 0
-5.416506 -14.511631 0.78 255 0 0
-5.356194 -14.402071 0.478 255 0 0
-5.358934 -14.409653 0.439 255 0 0
-5.508667 -14.692505 0.869 255 0 0
-5.458778 -14.601202 0.672 255 0 0
-5.471927 -14.624805 0.709 255 0 0
-5.393404 -14.472898 0.611 255 0 0
-5.452423 -14.588728 0.658 255 0 0
-5.416977 -14.514758 0.751 255 0 0
-5.318445 -14.319174 0.69 255 0 0
-5.325322 -14.341482 0.451 255 0 0
-5.34069 -14.362833 0.698 255 0 0
-5.328903 -14.341903 0.636 255 0 0
-5.301193 -14.285316 0.657 255 0 0
-5.438752 -14.555289 0.827 255 0 0
-5.272574 -14.226945 0.696 255 0 0
-5.531837 -14.740183 0.862 255 0 0
-5.357488 -14.3958 0.705 255 0 0
-5.449647 -14.576674 0.794 255 0 0
-5.304893 -14.301387 0.458 255 0 0
-5.375732 -14.44262 0.48 255 0 0
-5.395203 -14.474225 0.626 255 0 0
-5.463755 -14.608768 0.708 255 0 0
-5.315721 -14.313827 0.649 255 0 0
-5.430563 -14.537016 0.838 255 0 0
-5.45059 -14.582929 0.718 255 0 0
-5.336167 -14.356158 0.658 255 0 0
-5.374756 -14.431894 0.655 255 0 0
-5.338942 -14.368213 0.481 255 0 0
-5.44151 -14.565108 0.722 255 0 0
-5.43966 -14.557072 0.809 255 0 0
-5.407006 -14.497392 0.635 255 0 0
-5.371561 -14.423421 0.759 255 0 0
-5.284866 -14.255475 0.577 255 0 0
-5.45101 -14.579348 0.847 255 0 0
-5.289355 -14.257676 0.738 255 0 0
-5.284832 -14.251003 0.706 255 0 0
-5.384778 -14.455968 0.604 255 0 0
-5.446016 -14.569547 0.838 255 0 0
-5.330685 -14.340995 0.76 255 0 0
-5.342523 -14.368632 0.651 255 0 0
-5.32707 -14.336102 0.693 255 0 0
-5.407914 -14.499173 0.681 255 0 0
-5.304842 -14.29468 0.61 255 0 0
-5.340707 -14.365068 0.62 255 0 0
-5.31757 -14.321863 0.564 255 0 0
-5.47233 -14.618989 0.881 255 0 0
-5.400685 -14.489389 0.565 255 0 0
-5.468295 -14.617678 0.719 255 0 0
-5.550905 -14.777605 0.888 255 0 0
-5.559984 -14.795424 0.911 255 0 0
-5.530475 -14.73751 0.876 255 0 0
-5.355286 -14.400289 0.512 255 0 0
-5.313047 -14.315189 0.491 255 0 0
-5.325339 -14.343719 0.425 255 0 0
-5.319438 -14.332135 0.389 255 0 0
-5.348878 -14.381106 0.631 255 0 0
-5.379262 -14.436333 0.815 255 0 0
-5.376101 -14.432331 0.727 255 0 0
-5.311163 -14.302681 0.715 255 0 0
-5.449681 -14.581146 0.688 255 0 0
-5.354797 -14.394926 0.588 255 0 0
-5.368905 -14.427019 0.528 255 0 0
-5.328886 -14.339666 0.707 255 0 0
-5.407409 -14.491574 0.824 255 0 0
-5.422459 -14.529922 0.631 255 0 0
-5.384795 -14.458204 0.519 255 0 0
-5.391605 -14.471569 0.555 255 0 0
-5.393841 -14.471553 0.624 255 0 0
-5.337041 -14.353469 0.73 255 0 0
-5.485076 -14.648409 0.818 255 0 0
-5.498225 -14.672012 0.872 255 0 0
-5.445562 -14.568655 0.832 255 0 0
-5.345769 -14.383814 0.392 255 0 0
-5.338437 -14.360614 0.632 255 0 0
-5.283453 -14.246094 0.743 255 0 0
-5.520016 -14.71478 0.873 255 0 0
-5.389335 -14.467114 0.543 255 0 0
-5.377531 -14.443948 0.532 255 0 0
-5.292147 -14.271967 0.553 255 0 0
-5.380692 -14.447949 0.557 255 0 0
-5.333863 -14.347232 0.735 255 0 0
-5.411092 -14.50541 0.645 255 0 0
-5.421063 -14.522777 0.707 255 0 0
-5.277568 -14.236747 0.691 255 0 0
-5.508246 -14.696086 0.787 255 0 0
-5.441022 -14.559745 0.786 255 0 0
-5.301158 -14.280843 0.753 255 0 0
-5.392462 -14.466643 0.707 255 0 0
-5.35251 -14.388235 0.67 255 0 0
-5.435171 -14.55487 0.648 255 0 0
-5.336201 -14.360631 0.507 255 0 0
-5.402937 -14.491609 0.617 255 0 0
-5.425132 -14.52856 0.817 255 0 0
-5.394329 -14.476915 0.557 255 0 0
-5.413783 -14.506285 0.77 255 0 0
-5.442872 -14.567781 0.694 255 0 0
-5.435137 -14.550398 0.748 255 0 0
-5.321673 -14.332118 0.524 255 0 0
-5.301227 -14.289787 0.53 255 0 0
-5.371561 -14.423421 0.724 255 0 0
-5.441476 -14.560637 0.791 255 0 0
-5.418827 -14.522794 0.59 255 0 0
-5.503673 -14.682704 0.904 255 0 0
-5.49007 -14.65821 0.821 255 0 0
-5.324398 -14.337464 0.491 255 0 0
-5.418793 -14.518322 0.742 255 0 0
-5.394261 -14.467972 0.751 255 0 0
-5.397876 -14.472863 0.823 255 0 0
-5.366165 -14.419437 0.566 255 0 0
-5.433775 -14.547725 0.761 255 0 0
-5.297141 -14.281768 0.515 255 0 0
-5.305262 -14.291099 0.721 255 0 0
-5.43285 -14.543707 0.827 255 0 0
-5.443275 -14.561964 0.848 255 0 0
-5.292584 -14.270622 0.591 255 0 0
-5.392462 -14.466643 0.709 255 0 0
-5.338857 -14.357032 0.781 255 0 0
-5.434683 -14.549507 0.757 255 0 0
-5.543623 -14.761112 0.909 255 0 0
-5.488708 -14.655537 0.783 255 0 0
-5.384744 -14.451496 0.666 255 0 0
-5.407477 -14.500519 0.585 255 0 0
-5.368434 -14.423892 0.586 255 0 0
-5.398397 -14.482698 0.578 255 0 0
-5.361608 -14.408291 0.604 255 0 0
-5.402904 -14.487137 0.721 255 0 0
-5.382457 -14.444805 0.77 255 0 0
-5.300756 -14.28666 0.593 255 0 0
-5.395606 -14.468408 0.809 255 0 0
-5.465117 -14.611441 0.695 255 0 0
-5.42103 -14.518305 0.834 255 0 0
-5.473289 -14.627479 0.716 255 0 0
-5.471456 -14.621678 0.763 255 0 0
-5.351165 -14.387797 0.6 255 0 0
-5.433304 -14.544598 0.833 255 0 0
-5.42562 -14.533923 0.704 255 0 0
-5.433809 -14.552197 0.641 255 0 0
-5.288061 -14.263947 0.553 255 0 0
-5.305716 -14.291988 0.741 255 0 0
-5.364836 -14.421236 0.459 255 0 0
-5.332064 -14.345903 0.664 255 0 0
-5.348862 -14.37887 0.738 255 0 0
-5.258501 -14.199324 0.69 255 0 0
-5.409259 -14.499611 0.749 255 0 0
-5.312611 -14.316534 0.468 255 0 0
-5.310256 -14.3009 0.749 255 0 0
-5.377463 -14.435004 0.739 255 0 0
-5.485984 -14.65019 0.822 255 0 0
-5.493701 -14.665338 0.813 255 0 0
-5.357017 -14.392673 0.803 255 0 0
-5.398818 -14.479117 0.693 255 0 0
-5.376152 -14.439039 0.581 255 0 0
-5.394698 -14.466626 0.828 255 0 0
-5.324834 -14.33612 0.585 255 0 0
-5.455129 -14.591838 0.685 255 0 0
-5.529096 -14.7326 0.918 255 0 0
-5.27577 -14.235419 0.617 255 0 0
-5.484185 -14.648863 0.757 255 0 0
-5.346189 -14.380233 0.532 255 0 0
-5.301681 -14.290678 0.551 255 0 0
-5.279872 -14.245674 0.607 255 0 0
-5.345769 -14.383814 0.394 255 0 0
-5.357488 -14.3958 0.712 255 0 0
-5.38841 -14.463097 0.57 255 0 0
-5.464209 -14.609658 0.7 255 0 0
-5.309433 -14.310297 0.437 255 0 0
-5.370704 -14.428347 0.558 255 0 0
-5.370216 -14.422983 0.683 255 0 0
-5.317519 -14.315155 0.746 255 0 0
-5.338 -14.361959 0.573 255 0 0
-5.439694 -14.561544 0.67 255 0 0
-5.413328 -14.505394 0.798 255 0 0
-5.304842 -14.29468 0.608 255 0 0
-5.37294 -14.42833 0.699 255 0 0
-5.341631 -14.369086 0.589 255 0 0
-5.448791 -14.5816 0.666 255 0 0
