ply
format ascii 1.0
element vertex 1268
property double x
property double y
property double z
property uchar red
property uchar green
property uchar blue
element face 0
property list uchar int vertex_indices
end_header
-2.689361 -12.749689 0.265 118 171 47
-2.623426 -12.783284 0.137 118 171 47
-2.391747 -12.899086 0.779 118 171 47
-2.574857 -12.806909 0.509 118 171 47
-2.733911 -12.72699 0.386 118 171 47
-2.457699 -12.867726 0.178 118 171 47
-2.528525 -12.830516 0.361 118 171 47
-2.89831 -12.644346 0.15 118 171 47
-2.65372 -12.767849 0.27 118 171 47
-2.897873 -12.645691 0.071 118 171 47
-2.663084 -12.764199 0.072 118 171 47
-2.429623 -12.880909 0.548 118 171 47
-2.509377 -12.841395 0.211 118 171 47
-2.856432 -12.665684 0.327 118 171 47
-2.788716 -12.700187 0.043 118 171 47
-2.485757 -12.852307 0.299 118 171 47
-2.954897 -12.616636 0.08 118 171 47
-2.446116 -12.873629 0.223 118 171 47
-2.619408 -12.784209 0.561 118 171 47
-2.910347 -12.639336 0.11 118 171 47
-2.393092 -12.899523 0.448 118 171 47
-2.823465 -12.682481 0.156 118 171 47
-2.800299 -12.694284 0.232 118 171 47
-2.377491 -12.90635 0.833 118 171 47
-2.613625 -12.788279 0.247 118 171 47
-2.478629 -12.85594 0.598 118 171 47
-2.509814 -12.84005 0.391 118 171 47
-2.809209 -12.689745 0.363 118 171 47
-2.43586 -12.877731 0.394 118 171 47
-2.491103 -12.849584 0.372 118 171 47
-2.491994 -12.84913 0.469 118 171 47
-2.553928 -12.818696 0.045 118 171 47
-2.596696 -12.796905 0.162 118 171 47
-2.828811 -12.679757 0.2 118 171 47
-2.484429 -12.854107 0.063 118 171 47
-2.927713 -12.629364 0.237 118 171 47
-2.93975 -12.624353 0.081 118 171 47
-2.911675 -12.637536 0.177 118 171 47
-2.504468 -12.842773 0.682 118 171 47
-2.557928 -12.815535 0.412 118 171 47
-2.509377 -12.841395 0.304 118 171 47
-2.511596 -12.839142 0.395 118 171 47
-2.502249 -12.845027 0.247 118 171 47
-2.551255 -12.820058 0.224 118 171 47
-2.899655 -12.644783 0.14 118 171 47
-2.936623 -12.624825 0.252 118 171 47
-2.419369 -12.885013 0.63 118 171 47
-2.755749 -12.716985 0.102 118 171 47
-2.677778 -12.755591 0.526 118 171 47
-2.549909 -12.81962 0.46 118 171 47
-2.680013 -12.755573 0.135 118 171 47
-2.49734 -12.846406 0.449 118 171 47
-2.401548 -12.894093 0.632 118 171 47
-2.642137 -12.77375 0.329 118 171 47
-2.509377 -12.841395 0.301 118 171 47
-2.478175 -12.855049 0.71 118 171 47
-2.832375 -12.677941 0.258 118 171 47
-2.680904 -12.755119 0.162 118 171 47
-2.556601 -12.817333 0.169 118 171 47
-3.015486 -12.585765 0.098 118 171 47
-2.776242 -12.706543 0.119 118 171 47
-2.373927 -12.908166 0.675 118 171 47
-2.868906 -12.659328 0.306 118 171 47
-2.893855 -12.646616 0.193 118 171 47
-2.88049 -12.653425 0.275 118 171 47
-2.834157 -12.677033 0.334 118 171 47
-2.54189 -12.823707 0.396 118 171 47
-2.729018 -12.730604 0.193 118 171 47
-2.939296 -12.623463 0.218 118 171 47
-2.595805 -12.797359 0.444 118 171 47
-2.436298 -12.876387 0.691 118 171 47
-2.51205 -12.840034 0.227 118 171 47
-2.828811 -12.679757 0.205 118 171 47
-3.077856 -12.553986 0.058 118 171 47
-2.479083 -12.856831 0.108 118 171 47
-2.49154 -12.848239 0.682 118 171 47
-2.538326 -12.825522 0.409 118 171 47
-2.727237 -12.731512 0.197 118 171 47
-2.68625 -12.752396 0.147 118 171 47
-2.563274 -12.812811 0.497 118 171 47
-2.656847 -12.767377 0.147 118 171 47
-2.457245 -12.866836 0.436 118 171 47
-2.410459 -12.889552 0.668 118 171 47
-2.82792 -12.680211 0.334 118 171 47
-2.526743 -12.831424 0.47 118 171 47
-2.878708 -12.654334 0.299 118 171 47
-2.52096 -12.835493 0.121 118 171 47
-2.565057 -12.811902 0.59 118 171 47
-2.59135 -12.799628 0.147 118 171 47
-2.579312 -12.804639 0.541 118 171 47
-2.696488 -12.746058 0.248 118 171 47
-2.540108 -12.824615 0.412 118 171 47
-2.566839 -12.810994 0.64 118 171 47
-2.878708 -12.654334 0.317 118 171 47
-2.632336 -12.778745 0.417 118 171 47
-2.658175 -12.765579 0.266 118 171 47
-2.69738 -12.745604 0.223 118 171 47
-2.45279 -12.869105 0.274 118 171 47
-3.073401 -12.556255 0.085 118 171 47
-2.381055 -12.904534 0.54 118 171 47
-2.526306 -12.832769 0.264 118 171 47
-2.387292 -12.901356 0.735 118 171 47
-2.741493 -12.724248 0.189 118 171 47
-2.581985 -12.803277 0.536 118 171 47
-2.670212 -12.760568 0.069 118 171 47
-2.899201 -12.643892 0.214 118 171 47
-2.773569 -12.707905 0.147 118 171 47
-2.399766 -12.895 0.603 118 171 47
-2.59135 -12.799628 0.249 118 171 47
-3.113059 -12.53717 0.057 118 171 47
-2.82792 -12.680211 0.323 118 171 47
-2.679122 -12.756027 0.094 118 171 47
-2.515597 -12.835981 0.701 118 171 47
-2.685796 -12.751505 0.48 118 171 47
-2.907674 -12.640697 0.114 118 171 47
-2.661739 -12.763762 0.231 118 171 47
-2.488884 -12.851837 0.26 118 171 47
-2.534762 -12.827338 0.673 118 171 47
-2.84574 -12.671131 0.301 118 171 47
-2.955788 -12.616182 0.174 118 171 47
-2.706743 -12.741954 0.128 118 171 47
-2.437189 -12.875933 0.746 118 171 47
-2.559273 -12.815971 0.065 118 171 47
-2.794953 -12.697009 0.179 118 171 47
-2.538326 -12.825522 0.667 118 171 47
-2.379273 -12.905442 0.56 118 171 47
-2.375709 -12.907258 0.78 118 171 47
-2.303975 -12.942686 0.895 118 171 47
-2.56862 -12.810086 0.612 118 171 47
-2.913911 -12.63752 0.063 118 171 47
-2.846631 -12.670677 0.28 118 171 47
-2.594023 -12.798266 0.112 118 171 47
-2.408239 -12.891805 0.526 118 171 47
-2.733911 -12.72699 0.341 118 171 47
-2.563729 -12.813702 0.262 118 171 47
-2.618971 -12.785554 0.368 118 171 47
-2.502249 -12.845027 0.053 118 171 47
-3.076074 -12.554893 0.063 118 171 47
-2.511596 -12.839142 0.368 118 171 47
-2.506687 -12.840521 0.688 118 171 47
-2.437643 -12.876823 0.538 118 171 47
-2.484429 -12.854107 0.153 118 171 47
-2.425606 -12.881834 0.601 118 171 47
-2.45279 -12.869105 0.565 118 171 47
-2.806536 -12.691107 0.224 118 171 47
-2.794953 -12.697009 0.118 118 171 47
-2.491103 -12.849584 0.601 118 171 47
-2.80119 -12.69383 0.369 118 171 47
-2.994993 -12.596207 0.046 118 171 47
-2.713418 -12.737432 0.447 118 171 47
-2.816337 -12.686113 0.257 118 171 47
-3.035979 -12.575323 0.143 118 171 47
-2.395311 -12.89727 0.823 118 171 47
-2.515614 -12.838217 0.165 118 171 47
-2.858214 -12.664776 0.273 118 171 47
-2.377491 -12.90635 0.798 118 171 47
-2.900092 -12.643437 0.173 118 171 47
-2.709416 -12.740592 0.11 118 171 47
-2.595805 -12.797359 0.109 118 171 47
-2.328923 -12.929975 0.801 118 171 47
-2.956679 -12.615727 0.087 118 171 47
-2.632336 -12.778745 0.46 118 171 47
-2.770005 -12.709721 0.138 118 171 47
-2.530761 -12.8305 0.315 118 171 47
-2.595351 -12.796467 0.558 118 171 47
-2.496449 -12.84686 0.463 118 171 47
-2.544126 -12.823689 0.259 118 171 47
-2.602042 -12.79418 0.35 118 171 47
-2.34987 -12.920424 0.824 118 171 47
-2.937077 -12.625715 0.18 118 171 47
-2.718327 -12.736052 0.075 118 171 47
-3.003012 -12.59212 0.184 118 171 47
-2.421604 -12.884995 0.5 118 171 47
-2.45279 -12.869105 0.312 118 171 47
-2.719218 -12.735598 0.195 118 171 47
-2.496449 -12.84686 0.412 118 171 47
-2.629226 -12.781451 0.116 118 171 47
-2.769114 -12.710175 0.064 118 171 47
-2.822574 -12.682935 0.049 118 171 47
-2.860888 -12.663413 0.191 118 171 47
-2.458573 -12.865037 0.761 118 171 47
-2.751731 -12.71791 0.375 118 171 47
-2.640355 -12.774658 0.158 118 171 47
-2.778915 -12.70518 0.064 118 171 47
-2.467483 -12.860497 0.666 118 171 47
-2.342288 -12.923164 0.888 118 171 47
-2.823465 -12.682481 0.125 118 171 47
-2.715653 -12.737414 0.087 118 171 47
-2.56862 -12.810086 0.632 118 171 47
-2.578876 -12.805984 0.121 118 171 47
-2.795844 -12.696555 0.054 118 171 47
-2.531198 -12.829154 0.546 118 171 47
-2.5508 -12.819166 0.411 118 171 47
-2.405566 -12.893167 0.5 118 171 47
-2.470156 -12.859135 0.709 118 171 47
-2.434078 -12.878639 0.576 118 171 47
-2.766878 -12.710192 0.358 118 171 47
-2.496449 -12.84686 0.641 118 171 47
-2.430061 -12.879564 0.653 118 171 47
-2.432296 -12.879547 0.576 118 171 47
-2.753076 -12.718347 0.256 118 171 47
-2.51516 -12.837326 0.61 118 171 47
-3.034197 -12.576231 0.107 118 171 47
-2.612734 -12.788733 0.277 118 171 47
-2.535216 -12.82823 0.088 118 171 47
-2.596696 -12.796905 0.42 118 171 47
-2.602933 -12.793726 0.15 118 171 47
-2.929949 -12.629348 0.123 118 171 47
-2.621207 -12.785537 0.095 118 171 47
-2.772678 -12.708359 0.116 118 171 47
-2.606497 -12.79191 0.435 118 171 47
-2.760204 -12.714714 0.152 118 171 47
-3.044889 -12.570783 0.054 118 171 47
-2.43586 -12.877731 0.281 118 171 47
-2.41804 -12.886811 0.474 118 171 47
-2.837721 -12.675218 0.078 118 171 47
-2.455009 -12.866853 0.694 118 171 47
-3.024396 -12.581224 0.131 118 171 47
-2.586004 -12.802352 0.332 118 171 47
-2.705399 -12.741517 0.261 118 171 47
-2.762877 -12.713352 0.244 118 171 47
-2.459918 -12.865474 0.61 118 171 47
-2.546799 -12.822328 0.092 118 171 47
-2.470156 -12.859135 0.659 118 171 47
-2.911675 -12.637536 0.275 118 171 47
-2.683124 -12.752867 0.49 118 171 47
-2.464373 -12.863203 0.602 118 171 47
-2.703179 -12.74377 0.081 118 171 47
-2.623426 -12.783284 0.478 118 171 47
-2.500904 -12.84459 0.645 118 171 47
-2.56462 -12.813248 0.304 118 171 47
-2.581985 -12.803277 0.594 118 171 47
-2.418478 -12.885467 0.697 118 171 47
-2.742821 -12.722449 0.446 118 171 47
-2.918803 -12.633904 0.191 118 171 47
-2.616752 -12.787807 0.084 118 171 47
-2.673322 -12.757861 0.46 118 171 47
-2.598024 -12.795105 0.563 118 171 47
-2.93084 -12.628894 0.126 118 171 47
-2.398875 -12.895454 0.711 118 171 47
-2.609607 -12.789203 0.513 118 171 47
-2.54189 -12.823707 0.59 118 171 47
-2.80119 -12.69383 0.227 118 171 47
-2.540999 -12.824161 0.587 118 171 47
-2.651501 -12.770102 0.145 118 171 47
-2.527197 -12.832315 0.258 118 171 47
-2.583331 -12.803714 0.425 118 171 47
-2.431406 -12.880001 0.536 118 171 47
-2.744166 -12.722886 0.244 118 171 47
-2.552145 -12.819604 0.225 118 171 47
-2.347197 -12.921785 0.682 118 171 47
-2.563729 -12.813702 0.337 118 171 47
-3.052908 -12.566697 0.08 118 171 47
-2.456353 -12.86729 0.245 118 171 47
-2.418478 -12.885467 0.772 118 171 47
-2.615407 -12.787371 0.447 118 171 47
-2.520506 -12.834602 0.486 118 171 47
-2.381055 -12.904534 0.62 118 171 47
-2.869797 -12.658874 0.237 118 171 47
-2.547236 -12.820982 0.456 118 171 47
-2.42695 -12.882271 0.535 118 171 47
-2.545454 -12.82189 0.603 118 171 47
-2.56462 -12.813248 0.079 118 171 47
-2.402439 -12.893639 0.791 118 171 47
-2.692924 -12.747873 0.379 118 171 47
-2.498231 -12.845952 0.487 118 171 47
-2.365017 -12.912705 0.58 118 171 47
-2.586895 -12.801898 0.228 118 171 47
-2.758422 -12.715622 0.133 118 171 47
-2.720999 -12.73469 0.143 118 171 47
-2.516942 -12.836418 0.394 118 171 47
-2.543672 -12.822799 0.444 118 171 47
-2.516942 -12.836418 0.341 118 171 47
-2.5508 -12.819166 0.42 118 171 47
-2.371254 -12.909528 0.64 118 171 47
-2.584222 -12.80326 0.323 118 171 47
-2.482647 -12.855015 0.257 118 171 47
-2.481756 -12.855469 0.178 118 171 47
-2.396202 -12.896816 0.614 118 171 47
-2.532089 -12.8287 0.483 118 171 47
-2.445662 -12.872737 0.254 118 171 47
-2.892964 -12.64707 0.272 118 171 47
-2.820792 -12.683843 0.056 118 171 47
-2.61497 -12.788715 0.064 118 171 47
-2.570857 -12.81007 0.056 118 171 47
-2.311994 -12.9386 0.896 118 171 47
-2.398438 -12.896799 0.5 118 171 47
-2.718764 -12.734708 0.484 118 171 47
-2.537889 -12.826867 0.34 118 171 47
-2.766878 -12.710192 0.351 118 171 47
-2.512487 -12.838688 0.676 118 171 47
-2.735255 -12.727427 0.077 118 171 47
-2.610952 -12.78964 0.124 118 171 47
-2.404222 -12.89273 0.676 118 171 47
-2.868016 -12.659781 0.182 118 171 47
-2.692034 -12.748327 0.504 118 171 47
-2.391747 -12.899086 0.7 118 171 47
-2.571294 -12.808724 0.576 118 171 47
-2.405113 -12.892276 0.69 118 171 47
-2.419822 -12.885903 0.331 118 171 47
-2.802972 -12.692923 0.092 118 171 47
-2.415805 -12.886828 0.734 118 171 47
-2.515614 -12.838217 0.145 118 171 47
-2.583331 -12.803714 0.287 118 171 47
-2.891182 -12.647978 0.149 118 171 47
-2.613625 -12.788279 0.303 118 171 47
-2.892964 -12.64707 0.277 118 171 47
-2.567729 -12.81054 0.515 118 171 47
-2.66263 -12.763309 0.2 118 171 47
-2.856432 -12.665684 0.158 118 171 47
-2.575748 -12.806455 0.444 118 171 47
-2.504922 -12.843665 0.164 118 171 47
-2.698271 -12.74515 0.4 118 171 47
-2.882726 -12.653409 0.066 118 171 47
-2.564165 -12.812357 0.435 118 171 47
-2.711198 -12.739684 0.158 118 171 47
-2.643465 -12.771952 0.561 118 171 47
-2.474174 -12.85821 0.47 118 171 47
-2.484412 -12.851871 0.728 118 171 47
-2.852868 -12.6675 0.178 118 171 47
-2.712527 -12.737885 0.275 118 171 47
-2.356107 -12.917246 0.825 118 171 47
-2.742384 -12.723794 0.111 118 171 47
-2.716091 -12.73607 0.263 118 171 47
-2.47952 -12.855486 0.494 118 171 47
-2.518287 -12.836855 0.165 118 171 47
-2.851977 -12.667953 0.2 118 171 47
-2.876926 -12.655242 0.299 118 171 47
-2.522742 -12.834585 0.265 118 171 47
-2.585113 -12.802806 0.225 118 171 47
-2.47061 -12.860025 0.331 118 171 47
-2.97539 -12.606194 0.168 118 171 47
-2.745948 -12.721978 0.126 118 171 47
-2.606497 -12.79191 0.408 118 171 47
-2.531652 -12.830046 0.287 118 171 47
-2.694707 -12.746965 0.484 118 171 47
-2.709416 -12.740592 0.193 118 171 47
-2.588677 -12.80099 0.246 118 171 47
-2.492885 -12.848676 0.586 118 171 47
-2.772678 -12.708359 0.179 118 171 47
-2.6417 -12.775095 0.099 118 171 47
-2.717873 -12.735162 0.462 118 171 47
-2.570402 -12.809178 0.482 118 171 47
-2.804754 -12.692015 0.255 118 171 47
-2.925494 -12.631618 0.051 118 171 47
-2.677778 -12.755591 0.505 118 171 47
-2.521397 -12.834148 0.427 118 171 47
-2.887618 -12.649794 0.276 118 171 47
-2.995884 -12.595753 0.191 118 171 47
-2.559273 -12.815971 0.278 118 171 47
-2.708963 -12.739701 0.295 118 171 47
-2.876034 -12.655696 0.276 118 171 47
-2.501795 -12.844136 0.569 118 171 47
-2.710745 -12.738793 0.404 118 171 47
-2.725455 -12.73242 0.2 118 171 47
-2.327141 -12.930882 0.858 118 171 47
-2.778915 -12.70518 0.326 118 171 47
-2.524524 -12.833677 0.266 118 171 47
-2.632336 -12.778745 0.399 118 171 47
-2.501795 -12.844136 0.322 118 171 47
-2.676887 -12.756045 0.332 118 171 47
-2.341851 -12.924509 0.714 118 171 47
-2.621644 -12.784192 0.323 118 171 47
-2.696942 -12.746948 0.209 118 171 47
-2.581549 -12.804622 0.265 118 171 47
-2.327595 -12.931773 0.794 118 171 47
-2.513378 -12.838234 0.672 118 171 47
-2.720109 -12.735144 0.069 118 171 47
-2.624317 -12.78283 0.356 118 171 47
-3.060927 -12.562611 0.052 118 171 47
-3.083202 -12.551261 0.082 118 171 47
-2.397093 -12.896362 0.809 118 171 47
-2.782479 -12.703364 0.174 118 171 47
-2.49734 -12.846406 0.542 118 171 47
-2.461699 -12.864566 0.524 118 171 47
-2.489775 -12.851383 0.272 118 171 47
-2.739257 -12.724266 0.394 118 171 47
-2.733911 -12.72699 0.293 118 171 47
-2.570402 -12.809178 0.562 118 171 47
-2.646138 -12.770589 0.562 118 171 47
-2.77446 -12.707451 0.28 118 171 47
-2.756186 -12.71564 0.343 118 171 47
-2.672885 -12.759206 0.179 118 171 47
-2.745057 -12.722432 0.075 118 171 47
-2.934404 -12.627078 0.147 118 171 47
-2.513378 -12.838234 0.481 118 171 47
-2.788716 -12.700187 0.083 118 171 47
-2.750403 -12.719708 0.077 118 171 47
-2.59135 -12.799628 0.086 118 171 47
-2.536999 -12.827321 0.241 118 171 47
-2.786934 -12.701095 0.222 118 171 47
-2.47641 -12.858192 0.219 118 171 47
-2.712527 -12.737885 0.404 118 171 47
-2.526743 -12.831424 0.363 118 171 47
-2.522288 -12.833694 0.645 118 171 47
-2.636791 -12.776475 0.405 118 171 47
-2.456353 -12.86729 0.468 118 171 47
-2.345415 -12.922693 0.709 118 171 47
-2.84574 -12.671131 0.225 118 171 47
-2.500904 -12.84459 0.52 118 171 47
-2.459481 -12.866818 0.136 118 171 47
-2.469265 -12.859589 0.719 118 171 47
-2.86356 -12.662051 0.149 118 171 47
-2.65372 -12.767849 0.389 118 171 47
-2.746385 -12.720634 0.378 118 171 47
-2.757968 -12.714732 0.354 118 171 47
-2.718764 -12.734708 0.402 118 171 47
-2.389965 -12.899994 0.834 118 171 47
-2.602042 -12.79418 0.436 118 171 47
-2.874253 -12.656604 0.286 118 171 47
-2.561056 -12.815063 0.291 118 171 47
-2.467046 -12.861841 0.585 118 171 47
-2.474628 -12.8591 0.268 118 171 47
-2.607825 -12.790111 0.593 118 171 47
-2.718327 -12.736052 0.213 118 171 47
-2.396656 -12.897707 0.525 118 171 47
-2.336942 -12.925888 0.824 118 171 47
-2.811882 -12.688383 0.283 118 171 47
-2.868906 -12.659328 0.227 118 171 47
-2.658629 -12.766469 0.141 118 171 47
-2.754858 -12.717439 0.173 118 171 47
-2.715653 -12.737414 0.119 118 171 47
-2.65061 -12.770555 0.085 118 171 47
-2.484429 -12.854107 0.224 118 171 47
-2.550363 -12.820512 0.181 118 171 47
-2.877817 -12.654788 0.13 118 171 47
-2.594914 -12.797812 0.17 118 171 47
-2.724564 -12.732874 0.117 118 171 47
-2.552145 -12.819604 0.075 118 171 47
-2.585113 -12.802806 0.298 118 171 47
-2.661302 -12.765107 0.14 118 171 47
-2.531198 -12.829154 0.617 118 171 47
-3.017268 -12.584857 0.118 118 171 47
-2.467046 -12.861841 0.503 118 171 47
-2.462137 -12.863221 0.743 118 171 47
-2.650156 -12.769665 0.376 118 171 47
-2.663521 -12.762855 0.182 118 171 47
-2.362344 -12.914067 0.809 118 171 47
-2.442535 -12.873209 0.658 118 171 47
-2.778915 -12.70518 0.052 118 171 47
-3.011031 -12.588035 0.144 118 171 47
-2.57664 -12.806001 0.6 118 171 47
-2.52096 -12.835493 0.142 118 171 47
-2.878708 -12.654334 0.193 118 171 47
-2.56862 -12.810086 0.643 118 171 47
-2.986974 -12.600292 0.041 118 171 47
-2.451899 -12.869559 0.305 118 171 47
-2.473283 -12.858664 0.311 118 171 47
-2.578876 -12.805984 0.359 118 171 47
-2.681795 -12.754665 0.189 118 171 47
-2.494667 -12.847768 0.343 118 171 47
-2.868016 -12.659781 0.257 118 171 47
-2.690252 -12.749235 0.23 118 171 47
-2.392638 -12.898632 0.584 118 171 47
-2.656847 -12.767377 0.136 118 171 47
-2.682232 -12.753321 0.208 118 171 47
-2.753513 -12.717002 0.433 118 171 47
-2.477301 -12.857738 0.165 118 171 47
-2.522742 -12.834585 0.069 118 171 47
-2.420259 -12.884559 0.787 118 171 47
-2.802081 -12.693377 0.217 118 171 47
-2.390856 -12.89954 0.824 118 171 47
-2.86356 -12.662051 0.187 118 171 47
-2.467937 -12.861387 0.296 118 171 47
-2.464373 -12.863203 0.432 118 171 47
-2.414914 -12.887282 0.755 118 171 47
-2.864451 -12.661597 0.29 118 171 47
-2.404675 -12.89362 0.503 118 171 47
-2.799408 -12.694738 0.268 118 171 47
-2.676887 -12.756045 0.296 118 171 47
-2.654611 -12.767395 0.398 118 171 47
-2.86847 -12.660673 0.089 118 171 47
-2.773569 -12.707905 0.177 118 171 47
-2.532089 -12.8287 0.661 118 171 47
-2.455462 -12.867743 0.536 118 171 47
-2.427388 -12.880926 0.744 118 171 47
-2.487102 -12.852745 0.096 118 171 47
-2.977173 -12.605286 0.205 118 171 47
-2.690705 -12.750126 0.132 118 171 47
-2.692034 -12.748327 0.368 118 171 47
-2.954897 -12.616636 0.214 118 171 47
-2.366799 -12.911798 0.626 118 171 47
-2.404222 -12.89273 0.682 118 171 47
-2.450554 -12.869123 0.625 118 171 47
-2.625208 -12.782376 0.419 118 171 47
-2.786934 -12.701095 0.317 118 171 47
-2.64481 -12.772388 0.474 118 171 47
-2.554819 -12.818242 0.369 118 171 47
-2.923258 -12.631634 0.255 118 171 47
-2.64481 -12.772388 0.365 118 171 47
-3.021723 -12.582586 0.067 118 171 47
-2.347197 -12.921785 0.777 118 171 47
-2.611843 -12.789186 0.158 118 171 47
-2.822574 -12.682935 0.345 118 171 47
-2.790498 -12.699279 0.108 118 171 47
-2.624754 -12.781486 0.554 118 171 47
-2.52096 -12.835493 0.315 118 171 47
-2.869797 -12.658874 0.157 118 171 47
-2.389965 -12.899994 0.533 118 171 47
-2.664412 -12.762401 0.394 118 171 47
-2.487993 -12.852291 0.152 118 171 47
-2.68847 -12.750143 0.414 118 171 47
-2.675104 -12.756953 0.357 118 171 47
-2.371254 -12.909528 0.594 118 171 47
-2.603824 -12.793272 0.192 118 171 47
-2.35878 -12.915884 0.701 118 171 47
-2.905001 -12.642059 0.103 118 171 47
-2.522288 -12.833694 0.519 118 171 47
-2.624754 -12.781486 0.572 118 171 47
-2.555255 -12.816896 0.626 118 171 47
-2.612734 -12.788733 0.108 118 171 47
-2.361453 -12.914522 0.631 118 171 47
-2.434516 -12.877295 0.765 118 171 47
-2.941969 -12.6221 0.231 118 171 47
-2.692034 -12.748327 0.437 118 171 47
-2.727674 -12.730167 0.465 118 171 47
-2.647483 -12.771027 0.461 118 171 47
-2.745948 -12.721978 0.276 118 171 47
-2.894746 -12.646162 0.298 118 171 47
-2.730801 -12.729696 0.15 118 171 47
-2.572185 -12.80827 0.621 118 171 47
-2.87158 -12.657966 0.265 118 171 47
-2.959352 -12.614366 0.085 118 171 47
-2.451008 -12.870013 0.356 118 171 47
-2.684015 -12.752413 0.303 118 171 47
-2.422042 -12.883651 0.723 118 171 47
-2.572639 -12.809162 0.183 118 171 47
-2.490212 -12.850038 0.294 118 171 47
-2.633227 -12.778291 0.186 118 171 47
-2.880944 -12.654317 0.084 118 171 47
-2.481739 -12.853233 0.682 118 171 47
-3.007467 -12.58985 0.103 118 171 47
-2.38551 -12.902264 0.719 118 171 47
-2.451445 -12.868669 0.76 118 171 47
-2.79228 -12.698371 0.097 118 171 47
-2.523179 -12.833241 0.641 118 171 47
-2.627881 -12.781014 0.206 118 171 47
-2.432734 -12.878202 0.603 118 171 47
-2.421151 -12.884105 0.601 118 171 47
-2.684015 -12.752413 0.519 118 171 47
-2.670649 -12.759223 0.188 118 171 47
-2.85376 -12.667046 0.137 118 171 47
-2.503577 -12.843227 0.465 118 171 47
-2.532543 -12.829592 0.154 118 171 47
-2.463482 -12.863657 0.267 118 171 47
-2.813664 -12.687475 0.106 118 171 47
-2.471955 -12.860463 0.058 118 171 47
-2.504031 -12.844119 0.072 118 171 47
-2.508923 -12.840504 0.615 118 171 47
-2.65372 -12.767849 0.21 118 171 47
-2.487993 -12.852291 0.251 118 171 47
-2.424278 -12.883633 0.529 118 171 47
-2.569075 -12.810978 0.172 118 171 47
-2.459027 -12.865928 0.346 118 171 47
-2.425606 -12.881834 0.79 118 171 47
-2.982519 -12.602562 0.079 118 171 47
-2.745494 -12.721087 0.325 118 171 47
-2.874253 -12.656604 0.237 118 171 47
-3.00123 -12.593028 0.106 118 171 47
-2.595805 -12.797359 0.077 118 171 47
-2.503577 -12.843227 0.394 118 171 47
-2.642137 -12.77375 0.216 118 171 47
-2.990538 -12.598476 0.165 118 171 47
-2.684468 -12.753304 0.129 118 171 47
-3.050235 -12.568059 0.048 118 171 47
-2.885836 -12.650702 0.256 118 171 47
-2.660848 -12.764216 0.47 118 171 47
-2.598915 -12.794651 0.521 118 171 47
-2.382838 -12.903625 0.799 118 171 47
-2.577094 -12.806891 0.293 118 171 47
-2.544126 -12.823689 0.101 118 171 47
-2.474628 -12.8591 0.078 118 171 47
-2.534762 -12.827338 0.562 118 171 47
-2.456808 -12.86818 0.188 118 171 47
-2.692487 -12.749218 0.042 118 171 47
-2.695598 -12.746511 0.512 118 171 47
-2.420259 -12.884559 0.641 118 171 47
-2.81901 -12.684751 0.094 118 171 47
-2.651501 -12.770102 0.103 118 171 47
-2.833266 -12.677487 0.267 118 171 47
-2.609607 -12.789203 0.511 118 171 47
-2.60026 -12.795088 0.171 118 171 47
-2.815446 -12.686567 0.222 118 171 47
-2.559273 -12.815971 0.381 118 171 47
-2.579312 -12.804639 0.503 118 171 47
-2.632336 -12.778745 0.366 118 171 47
-2.736147 -12.726973 0.248 118 171 47
-2.591787 -12.798283 0.597 118 171 47
-2.366799 -12.911798 0.653 118 171 47
-2.410912 -12.890443 0.488 118 171 47
-2.429623 -12.880909 0.456 118 171 47
-2.92504 -12.630726 0.226 118 171 47
-2.501795 -12.844136 0.437 118 171 47
-3.076074 -12.554893 0.104 118 171 47
-2.902765 -12.642076 0.285 118 171 47
-2.518287 -12.836855 0.251 118 171 47
-2.421151 -12.884105 0.707 118 171 47
-2.885399 -12.652047 0.039 118 171 47
-2.634118 -12.777837 0.316 118 171 47
-2.963807 -12.612096 0.154 118 171 47
-2.779806 -12.704726 0.302 118 171 47
-2.803863 -12.692469 0.236 118 171 47
-2.364126 -12.913159 0.716 118 171 47
-2.370363 -12.909982 0.797 118 171 47
-2.510705 -12.839596 0.364 118 171 47
-2.914348 -12.636174 0.25 118 171 47
-2.512487 -12.838688 0.44 118 171 47
-2.49734 -12.846406 0.303 118 171 47
-2.500904 -12.84459 0.377 118 171 47
-2.80119 -12.69383 0.08 118 171 47
-2.446099 -12.871392 0.679 118 171 47
-2.492885 -12.848676 0.362 118 171 47
-2.955788 -12.616182 0.077 118 171 47
-2.800299 -12.694284 0.302 118 171 47
-2.495558 -12.847314 0.325 118 171 47
-2.501358 -12.845481 0.167 118 171 47
-2.692487 -12.749218 0.063 118 171 47
-2.527634 -12.83097 0.517 118 171 47
-2.475956 -12.857302 0.541 118 171 47
-2.421151 -12.884105 0.667 118 171 47
-2.65372 -12.767849 0.28 118 171 47
-2.538326 -12.825522 0.611 118 171 47
-2.602479 -12.792835 0.533 118 171 47
-2.879599 -12.65388 0.128 118 171 47
-2.457245 -12.866836 0.393 118 171 47
-2.970044 -12.608918 0.184 118 171 47
-2.52987 -12.830954 0.061 118 171 47
-2.91613 -12.635266 0.211 118 171 47
-2.693815 -12.747419 0.258 118 171 47
-3.124642 -12.531268 0.054 118 171 47
-2.657284 -12.766033 0.418 118 171 47
-2.867125 -12.660235 0.236 118 171 47
-2.749058 -12.719272 0.403 118 171 47
-2.475956 -12.857302 0.641 118 171 47
-2.754404 -12.716548 0.363 118 171 47
-2.624754 -12.781486 0.494 118 171 47
-2.822574 -12.682935 0.232 118 171 47
-2.814555 -12.687021 0.309 118 171 47
-2.377491 -12.90635 0.793 118 171 47
-2.439862 -12.874571 0.621 118 171 47
-2.354325 -12.918154 0.807 118 171 47
-2.754858 -12.717439 0.111 118 171 47
-2.835048 -12.676579 0.191 118 171 47
-2.651047 -12.769211 0.308 118 171 47
-2.378382 -12.905896 0.72 118 171 47
-2.521851 -12.835039 0.203 118 171 47
-2.542781 -12.823253 0.598 118 171 47
-2.380164 -12.904988 0.537 118 171 47
-2.775351 -12.706997 0.244 118 171 47
-2.393529 -12.898178 0.729 118 171 47
-2.35878 -12.915884 0.659 118 171 47
-2.34407 -12.922256 0.831 118 171 47
-2.625208 -12.782376 0.406 118 171 47
-2.477738 -12.856394 0.507 118 171 47
-2.663521 -12.762855 0.188 118 171 47
-2.725455 -12.73242 0.132 118 171 47
-2.795844 -12.696555 0.148 118 171 47
-2.44699 -12.870938 0.754 118 171 47
-2.829702 -12.679303 0.295 118 171 47
-2.681795 -12.754665 0.19 118 171 47
-2.321795 -12.933606 0.81 118 171 47
-2.739711 -12.725156 0.083 118 171 47
-2.689814 -12.75058 0.189 118 171 47
-2.768223 -12.710629 0.21 118 171 47
-2.558383 -12.816425 0.208 118 171 47
-2.478629 -12.85594 0.43 118 171 47
-2.446116 -12.873629 0.179 118 171 47
-2.868906 -12.659328 0.192 118 171 47
-3.015486 -12.585765 0.112 118 171 47
-2.842631 -12.673839 0.06 118 171 47
-2.734802 -12.726536 0.39 118 171 47
-2.434969 -12.878185 0.302 118 171 47
-2.841285 -12.673401 0.18 118 171 47
-2.675995 -12.756499 0.26 118 171 47
-2.573967 -12.807363 0.631 118 171 47
-2.615407 -12.787371 0.158 118 171 47
-2.802081 -12.693377 0.325 118 171 47
-2.66263 -12.763309 0.232 118 171 47
-2.5508 -12.819166 0.42 118 171 47
-2.698271 -12.74515 0.49 118 171 47
-2.657284 -12.766033 0.194 118 171 47
-2.508032 -12.840958 0.615 118 171 47
-2.664412 -12.762401 0.327 118 171 47
-2.654611 -12.767395 0.288 118 171 47
-2.757968 -12.714732 0.345 118 171 47
-2.721437 -12.733345 0.325 118 171 47
-2.812773 -12.687929 0.296 118 171 47
-2.516051 -12.836872 0.552 118 171 47
-2.950442 -12.618906 0.188 118 171 47
-3.02796 -12.579409 0.157 118 171 47
-2.602496 -12.795071 0.07 118 171 47
-2.699162 -12.744696 0.3 118 171 47
-2.574421 -12.808254 0.092 118 171 47
-2.514723 -12.838672 0.275 118 171 47
-2.583768 -12.802369 0.612 118 171 47
-3.031524 -12.577593 0.139 118 171 47
-2.576203 -12.807346 0.064 118 171 47
-2.552145 -12.819604 0.356 118 171 47
-2.723672 -12.733328 0.257 118 171 47
-2.517833 -12.835964 0.554 118 171 47
-2.42917 -12.880018 0.694 118 171 47
-2.794499 -12.696118 0.368 118 171 47
-2.374818 -12.907712 0.606 118 171 47
-2.588223 -12.800098 0.536 118 171 47
-3.075183 -12.555347 0.081 118 171 47
-2.380164 -12.904988 0.711 118 171 47
-2.593132 -12.79872 0.406 118 171 47
-2.731238 -12.728352 0.398 118 171 47
-2.607388 -12.791456 0.391 118 171 47
-2.496449 -12.84686 0.335 118 171 47
-2.779806 -12.704726 0.328 118 171 47
-2.475065 -12.857756 0.488 118 171 47
-2.794062 -12.697463 0.347 118 171 47
-2.620753 -12.784646 0.339 118 171 47
-2.675995 -12.756499 0.443 118 171 47
-2.52407 -12.832786 0.656 118 171 47
-2.494667 -12.847768 0.542 118 171 47
-2.549018 -12.820074 0.469 118 171 47
-2.497794 -12.847297 0.131 118 171 47
-3.011031 -12.588035 0.067 118 171 47
-2.643028 -12.773296 0.267 118 171 47
-2.438533 -12.876369 0.425 118 171 47
-2.841285 -12.673401 0.306 118 171 47
-2.805645 -12.691561 0.218 118 171 47
-2.63279 -12.779635 0.068 118 171 47
-2.475065 -12.857756 0.426 118 171 47
-2.873362 -12.657058 0.167 118 171 47
-2.508032 -12.840958 0.508 118 171 47
-2.526306 -12.832769 0.129 118 171 47
-2.986083 -12.600746 0.104 118 171 47
-2.566402 -12.81234 0.057 118 171 47
-2.47641 -12.858192 0.103 118 171 47
-2.430952 -12.87911 0.67 118 171 47
-2.522742 -12.834585 0.187 118 171 47
-2.753076 -12.718347 0.28 118 171 47
-2.564165 -12.812357 0.45 118 171 47
-2.866234 -12.660689 0.288 118 171 47
-2.447881 -12.870484 0.661 118 171 47
-2.832375 -12.677941 0.257 118 171 47
-2.913457 -12.636628 0.275 118 171 47
-2.352543 -12.919062 0.774 118 171 47
-2.82792 -12.680211 0.071 118 171 47
-2.521851 -12.835039 0.238 118 171 47
-2.455009 -12.866853 0.738 118 171 47
-2.53298 -12.828246 0.546 118 171 47
-2.676887 -12.756045 0.325 118 171 47
-2.469282 -12.861825 0.126 118 171 47
-3.03687 -12.574869 0.131 118 171 47
-2.460809 -12.86502 0.271 118 171 47
-2.519178 -12.836401 0.273 118 171 47
-2.88629 -12.651593 0.094 118 171 47
-2.509814 -12.84005 0.492 118 171 47
-2.423386 -12.884087 0.41 118 171 47
-2.70629 -12.741063 0.412 118 171 47
-2.693815 -12.747419 0.273 118 171 47
-2.515614 -12.838217 0.194 118 171 47
-2.431406 -12.880001 0.355 118 171 47
-2.410459 -12.889552 0.584 118 171 47
-2.545017 -12.823236 0.105 118 171 47
-2.346306 -12.922239 0.811 118 171 47
-2.422933 -12.883197 0.571 118 171 47
-2.639918 -12.776003 0.111 118 171 47
-2.436298 -12.876387 0.637 118 171 47
-2.389075 -12.900448 0.609 118 171 47
-2.484412 -12.851871 0.685 118 171 47
-2.364126 -12.913159 0.821 118 171 47
-2.432734 -12.878202 0.769 118 171 47
-2.315558 -12.936784 0.87 118 171 47
-2.350307 -12.919078 0.832 118 171 47
-2.561946 -12.81461 0.1 118 171 47
-2.390856 -12.89954 0.558 118 171 47
-2.639464 -12.775112 0.204 118 171 47
-2.490649 -12.848693 0.673 118 171 47
-2.655502 -12.766941 0.455 118 171 47
-2.450554 -12.869123 0.671 118 171 47
-2.636791 -12.776475 0.353 118 171 47
-2.547236 -12.820982 0.604 118 171 47
-2.406895 -12.891368 0.75 118 171 47
-2.684015 -12.752413 0.428 118 171 47
-2.467046 -12.861841 0.456 118 171 47
-2.742384 -12.723794 0.064 118 171 47
-2.335614 -12.927688 0.785 118 171 47
-2.657284 -12.766033 0.28 118 171 47
-2.399766 -12.895 0.536 118 171 47
-2.447443 -12.871829 0.313 118 171 47
-2.717873 -12.735162 0.447 118 171 47
-2.389075 -12.900448 0.562 118 171 47
-2.465718 -12.863641 0.221 118 171 47
-2.548582 -12.82142 0.066 118 171 47
-2.416258 -12.887719 0.531 118 171 47
-2.64481 -12.772388 0.505 118 171 47
-2.631008 -12.780543 0.081 118 171 47
-2.518287 -12.836855 0.128 118 171 47
-2.623863 -12.78194 0.531 118 171 47
-2.950442 -12.618906 0.114 118 171 47
-2.93975 -12.624353 0.196 118 171 47
-2.51516 -12.837326 0.679 118 171 47
-2.832375 -12.677941 0.34 118 171 47
-2.560601 -12.814173 0.583 118 171 47
-2.718764 -12.734708 0.328 118 171 47
-2.426497 -12.88138 0.611 118 171 47
-2.426059 -12.882725 0.511 118 171 47
-2.38551 -12.902264 0.541 118 171 47
-2.635009 -12.777383 0.296 118 171 47
-2.759313 -12.715168 0.234 118 171 47
-2.558819 -12.815081 0.604 118 171 47
-2.397093 -12.896362 0.803 118 171 47
-2.443443 -12.87499 0.205 118 171 47
-2.476847 -12.856848 0.625 118 171 47
-2.512941 -12.83958 0.183 118 171 47
-2.700052 -12.744242 0.326 118 171 47
-2.761095 -12.71426 0.226 118 171 47
-2.378382 -12.905896 0.61 118 171 47
-2.65061 -12.770555 0.12 118 171 47
-2.648828 -12.771463 0.143 118 171 47
-2.567292 -12.811886 0.372 118 171 47
-2.521851 -12.835039 0.061 118 171 47
-2.504468 -12.842773 0.544 118 171 47
-2.898764 -12.645237 0.072 118 171 47
-2.626099 -12.781922 0.287 118 171 47
-2.350761 -12.91997 0.808 118 171 47
-2.433625 -12.877748 0.771 118 171 47
-2.553036 -12.81915 0.349 118 171 47
-2.588223 -12.800098 0.612 118 171 47
-2.493776 -12.848222 0.478 118 171 47
-2.693378 -12.748764 0.139 118 171 47
-2.730801 -12.729696 0.208 118 171 47
-2.484866 -12.852761 0.307 118 171 47
-2.499122 -12.845498 0.378 118 171 47
-2.683577 -12.753757 0.135 118 171 47
-2.722781 -12.733782 0.116 118 171 47
-3.071619 -12.557163 0.088 118 171 47
-2.811882 -12.688383 0.072 118 171 47
-2.770005 -12.709721 0.224 118 171 47
-2.877817 -12.654788 0.163 118 171 47
-2.480411 -12.855032 0.467 118 171 47
-2.807427 -12.690653 0.089 118 171 47
-2.847977 -12.671115 0.064 118 171 47
-2.434969 -12.878185 0.258 118 171 47
-2.455917 -12.868634 0.164 118 171 47
-2.610061 -12.790094 0.382 118 171 47
-2.508032 -12.840958 0.37 118 171 47
-2.59135 -12.799628 0.252 118 171 47
-2.467937 -12.861387 0.323 118 171 47
-2.561946 -12.81461 0.242 118 171 47
-2.478192 -12.857285 0.07 118 171 47
-2.408676 -12.89046 0.595 118 171 47
-2.415367 -12.888173 0.328 118 171 47
-2.431406 -12.880001 0.286 118 171 47
-2.610952 -12.78964 0.253 118 171 47
-2.559273 -12.815971 0.33 118 171 47
-2.530761 -12.8305 0.278 118 171 47
-2.920148 -12.634341 0.052 118 171 47
-2.687141 -12.751942 0.143 118 171 47
-2.688923 -12.751034 0.16 118 171 47
-2.735693 -12.726082 0.37 118 171 47
-2.590005 -12.799191 0.488 118 171 47
-2.351652 -12.919516 0.706 118 171 47
-2.736147 -12.726973 0.198 118 171 47
-2.709854 -12.739247 0.401 118 171 47
-2.595351 -12.796467 0.53 118 171 47
-2.88629 -12.651593 0.103 118 171 47
-2.976281 -12.605741 0.202 118 171 47
-2.475956 -12.857302 0.632 118 171 47
-2.509377 -12.841395 0.104 118 171 47
-2.822574 -12.682935 0.228 118 171 47
-2.667085 -12.761039 0.514 118 171 47
-2.479066 -12.854595 0.728 118 171 47
-2.631882 -12.777853 0.515 118 171 47
-2.838612 -12.674764 0.083 118 171 47
-2.464373 -12.863203 0.613 118 171 47
-2.610061 -12.790094 0.336 118 171 47
-2.573967 -12.807363 0.435 118 171 47
-2.320904 -12.93406 0.825 118 171 47
-2.528979 -12.831408 0.066 118 171 47
-2.548582 -12.82142 0.186 118 171 47
-2.685796 -12.751505 0.451 118 171 47
-2.410459 -12.889552 0.574 118 171 47
-2.767332 -12.711082 0.197 118 171 47
-2.375709 -12.907258 0.837 118 171 47
-2.811882 -12.688383 0.15 118 171 47
-2.502686 -12.843682 0.511 118 171 47
-2.725892 -12.731075 0.364 118 171 47
-2.685796 -12.751505 0.434 118 171 47
-2.726346 -12.731966 0.126 118 171 47
-2.410459 -12.889552 0.598 118 171 47
-2.5508 -12.819166 0.617 118 171 47
-2.569966 -12.810524 0.396 118 171 47
-2.725892 -12.731075 0.371 118 171 47
-2.819901 -12.684297 0.241 118 171 47
-2.556601 -12.817333 0.195 118 171 47
-2.467483 -12.860497 0.717 118 171 47
-2.943314 -12.622538 0.111 118 171 47
-2.518724 -12.83551 0.58 118 171 47
-2.523633 -12.834131 0.08 118 171 47
-2.622098 -12.785083 0.087 118 171 47
-2.631445 -12.779199 0.176 118 171 47
-2.725001 -12.731529 0.292 118 171 47
-2.791389 -12.698825 0.287 118 171 47
-3.067164 -12.559433 0.101 118 171 47
-2.531652 -12.830046 0.329 118 171 47
-2.712527 -12.737885 0.485 118 171 47
-2.52987 -12.830954 0.291 118 171 47
-2.51205 -12.840034 0.203 118 171 47
-2.872925 -12.658403 0.041 118 171 47
-2.842176 -12.672947 0.197 118 171 47
-2.589114 -12.799644 0.467 118 171 47
-2.735693 -12.726082 0.309 118 171 47
-2.574421 -12.808254 0.086 118 171 47
-2.630554 -12.779653 0.222 118 171 47
-2.661739 -12.763762 0.296 118 171 47
-2.787825 -12.700641 0.283 118 171 47
-2.908111 -12.639352 0.215 118 171 47
-2.313776 -12.937692 0.882 118 171 47
-2.717873 -12.735162 0.401 118 171 47
-2.731238 -12.728352 0.474 118 171 47
-2.626099 -12.781922 0.319 118 171 47
-2.604261 -12.791927 0.487 118 171 47
-2.927276 -12.63071 0.114 118 171 47
-2.807427 -12.690653 0.35 118 171 47
-2.796735 -12.696101 0.248 118 171 47
-2.492885 -12.848676 0.514 118 171 47
-2.737475 -12.725174 0.302 118 171 47
-2.440315 -12.875462 0.285 118 171 47
-2.434516 -12.877295 0.645 118 171 47
-2.675104 -12.756953 0.204 118 171 47
-2.76866 -12.709284 0.372 118 171 47
-2.967371 -12.61028 0.132 118 171 47
-2.463936 -12.864549 0.158 118 171 47
-2.478192 -12.857285 0.114 118 171 47
-2.674213 -12.757407 0.494 118 171 47
-2.510268 -12.840941 0.275 118 171 47
-2.579312 -12.804639 0.475 118 171 47
-2.784261 -12.702456 0.294 118 171 47
-2.494667 -12.847768 0.536 118 171 47
-2.96559 -12.611188 0.156 118 171 47
-2.68847 -12.750143 0.409 118 171 47
-2.512487 -12.838688 0.62 118 171 47
-2.564165 -12.812357 0.449 118 171 47
-2.51516 -12.837326 0.334 118 171 47
-2.476847 -12.856848 0.464 118 171 47
-3.039543 -12.573506 0.052 118 171 47
-2.755749 -12.716985 0.199 118 171 47
-2.504468 -12.842773 0.608 118 171 47
-2.573529 -12.808708 0.079 118 171 47
-2.843067 -12.672493 0.303 118 171 47
-2.846631 -12.670677 0.075 118 171 47
-2.490666 -12.850929 0.254 118 171 47
-2.701397 -12.744678 0.099 118 171 47
-2.586004 -12.802352 0.083 118 171 47
-2.594023 -12.798266 0.192 118 171 47
-2.451008 -12.870013 0.278 118 171 47
-2.494213 -12.846877 0.706 118 171 47
-2.597587 -12.79645 0.401 118 171 47
-2.802518 -12.692033 0.386 118 171 47
-2.523179 -12.833241 0.371 118 171 47
-2.725892 -12.731075 0.424 118 171 47
-2.708071 -12.740155 0.31 118 171 47
-2.714309 -12.736978 0.302 118 171 47
-2.819901 -12.684297 0.09 118 171 47
-2.455917 -12.868634 0.206 118 171 47
-2.53878 -12.826413 0.21 118 171 47
-2.608733 -12.791893 0.079 118 171 47
-2.518287 -12.836855 0.144 118 171 47
-2.529416 -12.830062 0.672 118 171 47
-2.808318 -12.690199 0.178 118 171 47
-2.604715 -12.792818 0.108 118 171 47
-2.875144 -12.65615 0.186 118 171 47
-2.624317 -12.78283 0.371 118 171 47
-2.829702 -12.679303 0.047 118 171 47
-2.679122 -12.756027 0.054 118 171 47
-2.574421 -12.808254 0.238 118 171 47
-2.690252 -12.749235 0.312 118 171 47
-2.769114 -12.710175 0.052 118 171 47
-2.560165 -12.815517 0.071 118 171 47
-2.953115 -12.617544 0.19 118 171 47
-2.818119 -12.685205 0.208 118 171 47
-2.964698 -12.611642 0.207 118 171 47
-2.769114 -12.710175 0.261 118 171 47
-2.790498 -12.699279 0.329 118 171 47
-2.812773 -12.687929 0.189 118 171 47
-3.035979 -12.575323 0.082 118 171 47
-2.75084 -12.718364 0.407 118 171 47
-2.601151 -12.794634 0.242 118 171 47
-2.770896 -12.709267 0.279 118 171 47
-2.496449 -12.84686 0.66 118 171 47
-2.935732 -12.625278 0.224 118 171 47
-2.786043 -12.701549 0.07 118 171 47
-2.577985 -12.806437 0.403 118 171 47
-2.479974 -12.856377 0.265 118 171 47
-2.869797 -12.658874 0.3 118 171 47
-2.844413 -12.672931 0.039 118 171 47
-2.633227 -12.778291 0.356 118 171 47
-2.918366 -12.635249 0.153 118 171 47
-2.867125 -12.660235 0.293 118 171 47
-2.583331 -12.803714 0.081 118 171 47
-2.495558 -12.847314 0.666 118 171 47
-2.703179 -12.74377 0.125 118 171 47
-2.579312 -12.804639 0.579 118 171 47
-2.842176 -12.672947 0.167 118 171 47
-2.703617 -12.742425 0.503 118 171 47
-2.381946 -12.90408 0.656 118 171 47
-2.901437 -12.643875 0.126 118 171 47
-2.598915 -12.794651 0.5 118 171 47
-2.356107 -12.917246 0.685 118 171 47
-2.917912 -12.634358 0.23 118 171 47
-2.389965 -12.899994 0.78 118 171 47
-2.648374 -12.770573 0.351 118 171 47
-3.075183 -12.555347 0.065 118 171 47
-2.494667 -12.847768 0.592 118 171 47
-2.352543 -12.919062 0.713 118 171 47
-2.546345 -12.821436 0.393 118 171 47
-2.618517 -12.784663 0.537 118 171 47
-3.003903 -12.591666 0.144 118 171 47
-2.737475 -12.725174 0.344 118 171 47
-2.625662 -12.783267 0.067 118 171 47
-2.770005 -12.709721 0.214 118 171 47
-2.842176 -12.672947 0.293 118 171 47
-2.475956 -12.857302 0.29 118 171 47
-2.604715 -12.792818 0.389 118 171 47
-2.394421 -12.897724 0.825 118 171 47
-2.460355 -12.864129 0.734 118 171 47
-2.522288 -12.833694 0.599 118 171 47
-2.977173 -12.605286 0.184 118 171 47
-2.601605 -12.795525 0.045 118 171 47
-2.987864 -12.599838 0.116 118 171 47
-2.797626 -12.695647 0.262 118 171 47
-2.490212 -12.850038 0.316 118 171 47
-2.508486 -12.841849 0.231 118 171 47
-2.38551 -12.902264 0.57 118 171 47
-2.8101 -12.689291 0.193 118 171 47
-2.945987 -12.621176 0.094 118 171 47
-2.706743 -12.741954 0.123 118 171 47
-2.60917 -12.790548 0.219 118 171 47
-2.661739 -12.763762 0.332 118 171 47
-2.640355 -12.774658 0.413 118 171 47
-2.850195 -12.668861 0.164 118 171 47
-2.657284 -12.766033 0.493 118 171 47
-2.530307 -12.829608 0.61 118 171 47
-2.527197 -12.832315 0.134 118 171 47
-2.362344 -12.914067 0.707 118 171 47
-2.96559 -12.611188 0.067 118 171 47
-2.475956 -12.857302 0.521 118 171 47
-2.517396 -12.837309 0.064 118 171 47
-2.511596 -12.839142 0.334 118 171 47
-2.741039 -12.723358 0.314 118 171 47
-2.499122 -12.845498 0.589 118 171 47
-2.467937 -12.861387 0.504 118 171 47
-2.82792 -12.680211 0.274 118 171 47
-2.655502 -12.766941 0.437 118 171 47
-2.533871 -12.827792 0.389 118 171 47
-2.632336 -12.778745 0.406 118 171 47
-2.340506 -12.924072 0.875 118 171 47
-2.823465 -12.682481 0.055 118 171 47
-2.941532 -12.623446 0.082 118 171 47
-2.598024 -12.795105 0.557 118 171 47
-2.380164 -12.904988 0.63 118 171 47
-2.532089 -12.8287 0.478 118 171 47
-2.84574 -12.671131 0.11 118 171 47
-2.539217 -12.825068 0.624 118 171 47
-2.693815 -12.747419 0.306 118 171 47
-2.584658 -12.801915 0.612 118 171 47
-2.843067 -12.672493 0.211 118 171 47
-2.368581 -12.91089 0.587 118 171 47
-3.111277 -12.538078 0.056 118 171 47
-2.366799 -12.911798 0.802 118 171 47
-2.866234 -12.660689 0.111 118 171 47
-2.973608 -12.607102 0.054 118 171 47
-2.447443 -12.871829 0.26 118 171 47
-2.417587 -12.885921 0.616 118 171 47
-2.745057 -12.722432 0.268 118 171 47
-2.760641 -12.71337 0.364 118 171 47
-2.798517 -12.695193 0.243 118 171 47
-2.938405 -12.623917 0.205 118 171 47
-2.41135 -12.889098 0.785 118 171 47
-2.528979 -12.831408 0.102 118 171 47
-2.523179 -12.833241 0.361 118 171 47
-2.618971 -12.785554 0.395 118 171 47
-2.745057 -12.722432 0.259 118 171 47
-2.52987 -12.830954 0.345 118 171 47
-2.465264 -12.862749 0.609 118 171 47
-2.816337 -12.686113 0.338 118 171 47
-2.692487 -12.749218 0.192 118 171 47
-2.868906 -12.659328 0.284 118 171 47
-2.67734 -12.756935 0.1 118 171 47
-2.668867 -12.760131 0.465 118 171 47
-2.670649 -12.759223 0.428 118 171 47
-2.940641 -12.623899 0.115 118 171 47
-2.581549 -12.804622 0.111 118 171 47
-2.572639 -12.809162 0.252 118 171 47
-2.586004 -12.802352 0.064 118 171 47
-2.785152 -12.702003 0.078 118 171 47
-2.556146 -12.816442 0.465 118 171 47
-2.489321 -12.850492 0.61 118 171 47
-2.468374 -12.860043 0.645 118 171 47
-2.690252 -12.749235 0.399 118 171 47
-2.540108 -12.824615 0.646 118 171 47
-2.3766 -12.906804 0.833 118 171 47
-2.610061 -12.790094 0.25 118 171 47
-2.57664 -12.806001 0.586 118 171 47
-2.688032 -12.751488 0.207 118 171 47
-2.843067 -12.672493 0.244 118 171 47
-2.636791 -12.776475 0.16 118 171 47
-2.341851 -12.924509 0.748 118 171 47
-2.652829 -12.768303 0.395 118 171 47
-2.485757 -12.852307 0.499 118 171 47
-3.028851 -12.578955 0.077 118 171 47
-2.510705 -12.839596 0.396 118 171 47
-2.397985 -12.895908 0.79 118 171 47
-2.596696 -12.796905 0.227 118 171 47
-2.362344 -12.914067 0.73 118 171 47
-2.415805 -12.886828 0.794 118 171 47
-2.419822 -12.885903 0.478 118 171 47
-2.552582 -12.818258 0.438 118 171 47
-2.812773 -12.687929 0.107 118 171 47
-2.506704 -12.842757 0.224 118 171 47
-2.480411 -12.855032 0.303 118 171 47
-2.70629 -12.741063 0.281 118 171 47
-2.42695 -12.882271 0.531 118 171 47
-2.523633 -12.834131 0.118 118 171 47
-2.427388 -12.880926 0.677 118 171 47
-2.410459 -12.889552 0.696 118 171 47
-2.530761 -12.8305 0.239 118 171 47
-2.846631 -12.670677 0.201 118 171 47
-2.561492 -12.813719 0.64 118 171 47
-2.449226 -12.870921 0.36 118 171 47
-2.57664 -12.806001 0.485 118 171 47
-2.691596 -12.749672 0.071 118 171 47
-2.718764 -12.734708 0.448 118 171 47
-2.867579 -12.661127 0.089 118 171 47
-2.516942 -12.836418 0.679 118 171 47
-2.808318 -12.690199 0.194 118 171 47
-2.663521 -12.762855 0.536 118 171 47
-2.339178 -12.925872 0.76 118 171 47
-2.481756 -12.855469 0.084 118 171 47
-2.643028 -12.773296 0.385 118 171 47
-2.588223 -12.800098 0.501 118 171 47
-2.610061 -12.790094 0.15 118 171 47
-2.959352 -12.614366 0.149 118 171 47
-2.876034 -12.655696 0.319 118 171 47
-2.684905 -12.751959 0.271 118 171 47
-2.701397 -12.744678 0.066 118 171 47
-2.453227 -12.867761 0.673 118 171 47
-2.554819 -12.818242 0.062 118 171 47
-2.486648 -12.851853 0.578 118 171 47
-2.352543 -12.919062 0.696 118 171 47
-2.676887 -12.756045 0.43 118 171 47
-2.435407 -12.876841 0.623 118 171 47
-2.577094 -12.806891 0.303 118 171 47
-2.578876 -12.805984 0.361 118 171 47
-2.420259 -12.884559 0.785 118 171 47
-2.754404 -12.716548 0.334 118 171 47
-2.840394 -12.673855 0.251 118 171 47
-2.766441 -12.711536 0.156 118 171 47
-2.896528 -12.645254 0.171 118 171 47
-2.821683 -12.683389 0.314 118 171 47
-2.581985 -12.803277 0.519 118 171 47
-2.513832 -12.839126 0.053 118 171 47
-2.440315 -12.875462 0.229 118 171 47
-3.031524 -12.577593 0.104 118 171 47
-2.407785 -12.890914 0.619 118 171 47
-2.45279 -12.869105 0.396 118 171 47
-2.657738 -12.766923 0.082 118 171 47
-2.594914 -12.797812 0.175 118 171 47
-2.648374 -12.770573 0.326 118 171 47
-2.54769 -12.821874 0.057 118 171 47
-2.397093 -12.896362 0.772 118 171 47
-2.504905 -12.84143 0.714 118 171 47
-2.703179 -12.74377 0.174 118 171 47
-2.665303 -12.761947 0.348 118 171 47
-2.659957 -12.76467 0.398 118 171 47
-2.598478 -12.795996 0.251 118 171 47
-2.770005 -12.709721 0.204 118 171 47
-2.874707 -12.657495 0.083 118 171 47
-2.720999 -12.73469 0.117 118 171 47
-2.586004 -12.802352 0.377 118 171 47
-2.542345 -12.824597 0.358 118 171 47
-2.692487 -12.749218 0.189 118 171 47
-2.593132 -12.79872 0.186 118 171 47
-2.613171 -12.787387 0.486 118 171 47
-2.429623 -12.880909 0.318 118 171 47
-2.418478 -12.885467 0.708 118 171 47
-2.399766 -12.895 0.597 118 171 47
-2.430515 -12.880455 0.394 118 171 47
-2.927713 -12.629364 0.247 118 171 47
-2.471064 -12.860917 0.163 118 171 47
-2.937077 -12.625715 0.104 118 171 47
-2.608279 -12.791002 0.46 118 171 47
-2.855541 -12.666138 0.298 118 171 47
-3.067164 -12.559433 0.077 118 171 47
-2.858214 -12.664776 0.283 118 171 47
-2.809209 -12.689745 0.052 118 171 47
-2.565511 -12.812794 0.369 118 171 47
-2.716091 -12.73607 0.316 118 171 47
-2.777133 -12.706089 0.143 118 171 47
-2.659957 -12.76467 0.525 118 171 47
-2.574857 -12.806909 0.423 118 171 47
-2.837721 -12.675218 0.337 118 171 47
-2.456353 -12.86729 0.389 118 171 47
-2.587786 -12.801444 0.217 118 171 47
-2.54189 -12.823707 0.512 118 171 47
-2.911675 -12.637536 0.198 118 171 47
-2.423824 -12.882742 0.793 118 171 47
-3.029742 -12.578501 0.118 118 171 47
-2.553928 -12.818696 0.162 118 171 47
-2.431406 -12.880001 0.549 118 171 47
-2.899655 -12.644783 0.14 118 171 47
-2.489321 -12.850492 0.364 118 171 47
-2.78648 -12.700204 0.409 118 171 47
-2.689361 -12.749689 0.48 118 171 47
-2.573967 -12.807363 0.536 118 171 47
-2.422495 -12.884541 0.495 118 171 47
-2.840394 -12.673855 0.141 118 171 47
-2.748167 -12.719726 0.452 118 171 47
-2.737038 -12.726519 0.177 118 171 47
-2.536108 -12.827775 0.35 118 171 47
-2.892964 -12.64707 0.202 118 171 47
-2.418478 -12.885467 0.774 118 171 47
-2.922821 -12.632979 0.155 118 171 47
-2.434078 -12.878639 0.33 118 171 47
-2.396202 -12.896816 0.747 118 171 47
-2.522288 -12.833694 0.344 118 171 47
-2.720109 -12.735144 0.102 118 171 47
-2.655502 -12.766941 0.329 118 171 47
-2.479974 -12.856377 0.171 118 171 47
-2.822574 -12.682935 0.194 118 171 47
-2.868016 -12.659781 0.154 118 171 47
-2.72991 -12.73015 0.145 118 171 47
-2.784261 -12.702456 0.227 118 171 47
-2.62699 -12.781468 0.482 118 171 47
-2.665303 -12.761947 0.223 118 171 47
-2.775351 -12.706997 0.18 118 171 47
-2.481302 -12.854578 0.48 118 171 47
-2.466155 -12.862295 0.472 118 171 47
-2.72189 -12.734236 0.155 118 171 47
-2.937968 -12.625261 0.109 118 171 47
-2.366799 -12.911798 0.714 118 171 47
-2.414476 -12.888627 0.553 118 171 47
-2.825247 -12.681573 0.2 118 171 47
-2.807427 -12.690653 0.089 118 171 47
-2.621644 -12.784192 0.395 118 171 47
-2.885836 -12.650702 0.248 118 171 47
-2.494667 -12.847768 0.562 118 171 47
-2.757531 -12.716077 0.202 118 171 47
-2.812773 -12.687929 0.091 118 171 47
-2.564165 -12.812357 0.587 118 171 47
-2.584222 -12.80326 0.177 118 171 47
-2.727237 -12.731512 0.075 118 171 47
-2.551255 -12.820058 0.249 118 171 47
-2.806973 -12.689762 0.39 118 171 47
-2.357889 -12.916338 0.641 118 171 47
-2.771333 -12.707922 0.347 118 171 47
-3.019941 -12.583494 0.067 118 171 47
-2.630554 -12.779653 0.306 118 171 47
-2.834157 -12.677033 0.163 118 171 47
-2.427388 -12.880926 0.585 118 171 47
-3.034197 -12.576231 0.041 118 171 47
-2.433187 -12.879093 0.329 118 171 47
-2.718327 -12.736052 0.048 118 171 47
-2.373036 -12.90862 0.735 118 171 47
-2.932622 -12.627986 0.076 118 171 47
-2.922367 -12.632088 0.189 118 171 47
-2.59135 -12.799628 0.278 118 171 47
-2.618971 -12.785554 0.352 118 171 47
-2.576203 -12.807346 0.173 118 171 47
-2.757531 -12.716077 0.271 118 171 47
-2.720999 -12.73469 0.047 118 171 47
-2.457245 -12.866836 0.579 118 171 47
